ply
format ascii 1.0
element vertex 729
property float x
property float y
property float z
property uchar diffuse_red
property uchar diffuse_green
property uchar diffuse_blue
end_header
1.112095136547059 2.401151535527507 3.4007627049133897 44 45 49
1.2921521211262577 2.5933351110457976 1.0654362212103479 17 15 18
0.5612641988959117 4.011283715318594 0.7679585520824775 32 31 35
0.7947214613886434 3.4157709983253888 -0.03941358837758717 66 70 71
1.2105362048498762 3.481979129622671 2.581288027884385 15 15 17
1.3851458629404918 2.4381465260879773 2.6657888114570794 48 48 50
1.6082433832868528 2.309458079496013 2.051735676328888 37 36 41
0.7890835791233595 3.636470182162491 1.9229822852891922 28 30 30
1.8050624907308979 3.456543287910388 1.2443070447946203 49 48 53
0.5412372139131745 3.565117974382357 0.9657560110770529 29 29 31
0.4120901657951705 3.3275274935929966 1.9488409263649766 64 65 67
1.4669951669141816 3.355806527769401 1.9733781223792681 27 28 30
1.3196882355144297 2.817527909691432 2.611812729948921 28 29 31
1.4411856924340645 2.7146416170949794 0.6367378182488923 22 22 24
0.5724775911759197 3.9795008159284917 2.240469385815119 40 39 44
1.168344774170906 2.3130731235089628 2.5225360558589847 43 42 47
1.006359608182583 3.353771455737679 3.517273917180087 37 36 41
1.4137724001209124 4.328059175013593 1.3395923103782292 67 65 68
0.5987135174951235 2.4836974004545596 0.3078838309312877 115 115 115
1.8861713864002418 3.5535137369679264 1.6893328086113966 87 87 89
0.9516105018891962 2.6474249718988667 2.1599110937822785 57 58 62
0.6796041042473909 1.9634218056697152 1.3913260381346084 67 67 69
2.354286490208694 2.6694926450347096 3.097222425495936 44 43 49
0.5422300369242432 3.2873337963265308 0.00846278492560279 61 61 63
1.0015159898621102 2.5999101259957826 1.6367404731577404 64 62 65
0.49652878191467503 3.6112561704285597 1.75105179230045 44 44 46
1.969868875534349 3.1663538830953466 1.5584745884092002 32 32 34
0.8469751863324807 1.8507225742988211 1.096285334062018 24 24 26
0.4631081959141469 2.90506541840161 2.2541474574464697 35 34 39
0.2906971060215659 2.501439261565917 1.0363638058274647 14 13 18
1.009832584189669 4.100096113426254 1.8434988672595665 50 49 55
1.4039583071498942 3.0675243902548672 -0.09472435918161959 62 62 64
0.7439259369793961 2.998943321597417 -0.1607073030229411 56 56 56
1.023291865118723 2.882184404534833 0.9178086447996592 20 20 22
0.8511360419132266 3.790084456513995 1.4229563428312553 47 47 48
1.3279964531721342 2.948256563938988 -0.19106049038335804 50 50 52
0.9208862023937034 1.8629895305788076 1.1881842563239817 18 17 22
1.159446446546926 2.7006527182410287 1.6207664116365408 63 63 63
0.6362745644870876 1.7580750680972563 1.1014006300586898 36 36 36
2.1508883284723357 2.6675959428089695 3.1433675983021616 63 64 66
1.0780839914954947 3.026636196569422 -0.2340694506789524 73 73 75
0.8288456803466914 2.7912307478678002 -0.07788608129279814 54 54 54
1.7234174615673874 4.018983933949372 2.152203972161087 75 75 77
0.9700383784376678 1.7025434975393616 1.0344590558555649 79 79 81
0.8761052712960304 2.208396777683906 0.7808566384248677 22 21 26
0.524822873613935 3.7564994920793144 2.4474651444642186 65 66 70
1.4662794985014063 2.5182062585797693 1.6614310851175798 32 31 36
2.245487957857429 3.200968722038162 2.8748936965911316 45 48 52
0.6699359021241902 2.525424518861139 1.111293655956438 55 55 57
0.7229393100534431 2.5569982466957395 -0.07441877347460905 85 84 85
1.9831480274239572 3.762695997375317 0.9937760194723064 52 52 54
0.7015506740890481 3.6809162701690985 0.8410041910540285 23 23 25
0.3657413319720468 2.4445087951357305 0.47243223800971146 27 27 29
1.807985813404196 2.766395689976833 2.658432375014691 40 40 46
1.105455090337545 2.5424741959401067 0.028039281987232555 44 44 46
1.4415259530851567 2.843481471038101 0.17089986871604274 46 47 49
0.8945711086477047 3.407856064453245 -0.12283886794890946 162 161 159
2.236914887286534 3.1500488680082808 1.2201525262649378 30 30 32
0.7878060724251942 3.619738813477546 2.1058744542254866 47 47 49
1.651936695292793 2.239325160386566 0.07238183913312247 79 77 78
1.0875305935865767 2.262876848463026 0.237020259616292 67 65 66
0.94294566797798 4.011280524178029 1.0730001923910613 52 52 52
0.7861089725140225 3.535944275104902 1.2744766214388368 18 18 20
0.5855806367704617 3.0734581088056347 2.7063218420904747 16 14 20
1.655783927365123 3.337634964139629 0.0591802144374381 38 37 41
0.3802358668688393 2.4545259824016314 0.4681931628768249 45 45 47
0.814721897271399 2.688771830388956 2.8809167244078147 22 22 24
1.5676383437701278 1.9096927031488466 1.178242117906454 77 77 77
0.5467480082531503 3.1733710959664854 0.8787047401988004 17 17 19
0.8191125255833966 3.761131455762036 1.490768967242922 35 36 41
0.9831052495210825 2.7505078993783147 1.7294968389196346 35 34 39
1.1247486242493763 3.725696781731529 2.692510227260824 64 64 62
0.44702784886287594 2.663704139834643 0.39133446652007653 26 26 28
0.4628907018716649 3.02802092053397 1.7838723539472512 60 59 64
0.4430521281245855 3.7134191259990463 1.6685190290916816 27 28 32
0.9576028917197049 2.6743149739265313 2.0368521387251777 45 46 48
2.320934019259033 2.7808187838205325 3.1542345165818837 40 39 44
1.0731355922202612 2.565114986441481 1.7282808484978973 54 55 57
0.595095236540781 2.92772309571535 1.6552331624345948 93 93 95
0.8481082291835099 2.655745500149231 -0.07414415764745313 47 47 49
1.6878903057946222 2.8899966410468263 1.1263040483359297 20 20 22
0.9126602913675651 3.934486344484908 1.412624599027704 63 63 63
2.208674640402482 3.6351081028677914 2.345057768052876 30 32 31
0.6098359152755747 3.1292350596591034 0.8683351079614052 57 58 57
1.7626095491784532 3.8288143965830517 2.6236371492802535 24 25 27
0.9689711067397546 4.042088431026669 1.5858300668989278 46 47 51
1.9234719741854633 3.9643638152503207 1.8196317324546532 170 168 169
1.4841569958915526 3.5081866270386715 1.4359365635732644 23 23 25
0.3779498985631145 3.5965041646945086 0.43845186018582466 47 45 46
0.9230319829800634 2.8729929583203866 2.577728298460183 31 32 34
0.517800620768278 3.984560418147895 2.216662603151752 40 41 43
1.0954768566302646 3.856104783604807 3.3611694300721777 18 16 21
0.9461972751691266 2.682876772229645 2.0629099984240633 56 56 58
1.8009416848719493 3.4115490952132927 2.2436383279997445 10 10 12
0.9508179299383188 2.4760128530219765 0.12713321257809007 87 89 86
0.4876478893982345 2.7824610045821783 2.5868616886400457 46 47 51
1.0695907140689267 2.278064320488978 2.4530305548849407 42 41 46
0.6817536724428125 3.8578643358432796 1.4931292600096338 20 18 21
1.6526434428264416 1.9658212865759541 1.3521397331686498 35 36 40
1.8194891738406866 2.353983013834794 2.8929465134051218 35 34 40
1.5259022067139039 3.2389728886577633 0.05110019404119782 31 30 35
1.1475191545917163 4.038374621385251 2.750318804569912 48 47 52
0.928492493319172 1.7626965875851548 0.9660490190628125 38 38 40
1.276390009322642 4.194957442850753 1.9709420863995828 196 196 196
1.2217345309628909 3.87444707555633 1.6275381487634528 68 67 72
0.5812047885965512 3.90937840228874 0.44392063753011074 57 55 58
0.5592284961110306 2.6503114416967755 1.7318839627980331 39 38 43
0.5191733743650184 1.6564609881281 1.088014777195044 19 19 21
1.1342952522977015 2.2700034586343585 0.22122269715736845 63 60 61
1.7154970542662473 3.4214172791843565 0.12221504339196035 11 9 12
0.7257353196149584 2.5728457536042213 2.0625264533565177 66 66 66
1.006562022899902 1.9271177671325852 0.9375144754847861 45 46 50
1.6250967305860022 3.08311395934073 1.2681051090733917 13 13 15
0.824097935453729 3.7609273592785692 0.30047363558368473 36 34 34
0.7545006529377553 2.3750373583185125 0.47412820425352015 15 15 17
0.8594210421089313 3.6923474712362374 2.420986267733643 51 51 54
2.1578385773732407 3.8351466207584677 1.42440978859523 48 48 50
0.8945194078700941 3.5050721173275594 0.2213421851632047 37 35 40
1.503295126827849 3.1702118909742296 0.006720348601109594 25 22 29
1.620974140207265 3.1575995842866416 1.176366306358839 12 12 14
1.3030333438607697 3.6898381747634876 0.3172523314113915 49 49 51
0.8958995835325761 3.3219229985669787 1.6490448936325444 39 39 41
1.6698123228474775 3.5710266534416535 3.161070152056003 70 68 69
1.1497526071870785 2.7501875931389885 1.1479652655892636 23 23 25
-0.020561008733850993 2.2083754112992127 1.0802192702055322 38 42 41
0.907018968975371 3.410721156201693 3.2782979128435814 30 30 32
1.2855946701088878 2.2270199299283875 0.19742899157939853 60 60 62
1.9614779891762377 3.669666664575822 0.612990722196764 30 28 31
0.8431712728878383 4.154195425730649 1.9350947432433647 19 20 24
0.617361627701728 3.6778066779296616 2.2291969236553277 29 30 32
1.073202634560286 2.6493335462168144 -0.11675555542322955 38 38 40
0.6475596398790416 1.8753154706179866 0.6905666273461133 69 67 68
0.6670760530126532 1.9448818642922827 1.2515216522501966 55 54 59
2.1049895173040283 3.6902735063130336 2.21941717202353 79 79 79
0.6602350042800145 3.2253459378762885 0.9284093136279318 13 13 15
0.7871762517524554 3.898950183499102 0.9454823188398893 67 65 68
1.6110365520309073 2.554272132064346 2.6626256533902137 28 27 32
1.3093148960473453 2.5419946274379246 0.23011228559010174 53 53 55
1.2811590175942973 2.649703635846877 1.5598108629780145 66 64 66
1.4163066698851445 3.1000964590975513 3.2556879987101337 42 41 44
0.4910515570695272 2.871792996929131 3.2086123574692578 33 32 38
1.8645018968376121 3.1129811280736823 1.761084298170624 52 50 53
1.3244314115550746 2.648849550060623 2.0905767690924084 46 46 48
1.4053072643990414 3.2909830546931014 -0.06096598341418888 42 40 44
0.40004551045762204 3.1035463126383314 0.18614079974263664 67 67 69
0.7374680242442191 3.8868182761613426 0.8593077057582179 13 13 15
0.9826561587770088 2.7795726041308857 -0.13761580734791404 39 37 42
0.673930673747781 3.955758071039986 1.9336201530410326 77 78 80
0.792560658645107 3.8886712916965256 0.8970526931117382 41 43 42
1.990523217999676 3.4416242465554623 1.275113331223028 37 36 41
1.418686180729278 2.909211895284398 2.6780896780911814 47 48 52
0.7565469977242363 2.0440014342031634 1.3711760392784265 35 37 36
1.848737669348542 3.509217086076262 2.4982349405805198 21 19 24
1.1791746011583737 2.4098779279030427 2.7025226080386786 19 18 23
0.6573306467430599 2.793253358459113 1.0779583091640605 95 95 95
1.4640124160436572 2.460783542432637 2.6065562453047546 32 31 36
0.2775178416198266 3.0150785276172143 3.3433140502240737 42 42 44
0.8860257241105443 2.7575296634919426 1.14449541622097 47 48 50
0.7913591193242185 4.190747846334952 1.923546272110042 16 15 20
1.660937567256445 2.978690522428997 2.2188016233048633 49 50 54
1.4328758627568718 2.8192647174189895 0.9517670179818731 40 40 42
1.6344622362000563 3.8486927063440493 1.9898607742082932 49 48 53
2.0929237379732135 3.8057222888632394 1.465170861175683 63 64 69
1.067730600587097 4.09191824832158 2.047635126540334 92 92 94
1.0538535773263407 2.6083593162878906 1.483024735672005 44 43 48
1.3260081406847866 2.995513886116165 1.1816778961611936 15 15 17
1.0195410998949483 2.8646555129414546 1.8190514290217246 38 39 43
2.5421503166617234 3.151493948374864 3.0834080538794075 28 29 33
1.3764909740644535 2.3149836004487305 0.9475345687877258 44 45 47
1.3700643724914878 3.5339812363451264 1.2853463441714237 38 38 40
1.5093109917789849 2.791268394283605 1.891727413878906 32 32 34
1.0291323406618196 2.4647761897813365 2.8216841870952547 53 51 56
0.8085962618953523 2.330079604999623 0.026150530896953763 33 35 34
1.4542462911861005 2.6901400119984977 2.623933594090685 53 52 57
0.6971865378469613 3.384228688754352 -0.0012391130909095605 56 56 58
0.8167019811115132 4.108310733068958 1.3182144458889768 61 59 62
1.3357494158453789 2.3010213502286754 0.3164756252357342 33 33 35
1.4737354361680817 2.705912977501886 2.6213939921229907 54 54 54
0.7044418728219716 3.0986293611402127 0.5785722219048121 70 70 70
1.0783666201889182 2.3105626923090594 2.5194809195614427 28 28 32
1.0976526181907404 2.541883307302676 2.056223089718857 44 43 48
0.51098257112953 3.581366204813896 1.016604055851598 23 23 25
0.7886999616711853 3.3878593795021947 -0.048246588528533224 59 59 59
0.8090377123661745 2.7953736696730664 2.1854107602265693 69 67 70
0.9302694397940046 3.1806437525862736 2.011726776529752 21 21 23
0.3654071906887039 2.9622691504864314 0.39194877248868387 25 25 27
1.3816563603668255 2.7178116628760893 1.037813218041332 37 37 37
1.1692308947085512 3.4248305455671693 -0.006439562731358455 67 66 69
1.2220496762664295 2.208136397433797 0.3549179302294235 25 25 27
0.9733700984549345 4.065837149259298 1.8160493225635062 86 84 85
0.4075068397190751 2.5654694876635924 0.49448358501803147 26 24 27
1.173409612632421 3.679357842890755 1.5942898436083623 46 46 46
1.0639592681212624 2.1508693715801668 2.159483542184523 16 16 18
1.2765485138729014 3.682991172841744 0.4189164820210239 29 28 32
1.3235776872682885 2.3625714412741585 2.6062560602585543 35 33 38
1.196055665950839 2.399965027158252 3.618026978327239 52 51 56
2.0881176554512257 3.5367915538989747 1.5620644454069577 23 22 27
0.9461082903579703 2.7286716990622764 1.1277494101646535 16 16 18
0.681325289383314 3.643834468010617 1.5601982670906709 71 73 70
0.7828258912995043 1.6723021560693367 0.9559857577809815 121 121 123
0.7896458858357276 3.7171164120719147 0.2623074009053639 72 72 72
1.0772865124748212 2.177578151755128 0.5063584340388257 22 22 24
0.496753363039882 3.7763119587235687 1.94985437374727 62 63 65
0.7083818311153759 1.7554478740944603 1.0584959455149618 25 25 27
0.39961162525326305 2.9667136625752013 0.14880271558980473 41 39 42
0.7858158017824715 3.7040151954444456 1.3134453690016865 37 38 43
0.8654209699279634 1.6468551746120996 1.1041823915971853 35 32 39
1.8524905918723713 2.892882165425621 2.957608298937873 46 46 51
0.41611366318843446 3.5385913213303697 2.615781522605743 16 16 19
1.5303921975839823 3.2058704431288976 3.108386999591636 69 67 70
0.6403457198829442 3.4071420515453985 0.3412615743015422 15 15 17
1.3572907396465181 2.3763152504216425 0.3605116394198198 13 12 17
1.7811527367406512 3.4451226186963035 1.024973678386537 45 46 48
0.36565959433081985 2.97447079312427 0.3089411857333949 20 20 22
1.1956211279516753 2.220448081648944 0.4874852898443305 36 36 37
0.9662825509441876 4.036760529526931 1.5319030281608295 115 115 114
1.2423553517484727 3.310783642275883 2.7328611581144844 13 13 15
0.6543503085758545 2.3661444404898244 1.0169656248730468 15 15 17
1.3787150563233517 2.7861493825686416 1.5924622553368493 21 21 23
1.6432034765406496 3.44864786372899 0.12332006450743185 19 19 19
1.375532313986208 2.407410020698547 2.620008127581762 16 16 18
0.6015487132266764 3.441543112700194 0.06115777795867776 75 74 79
1.5187100327800185 3.579580660162269 2.869123879968777 13 13 15
1.9856382700272843 3.603084525158559 0.8064696171045168 13 13 15
1.6613561659363818 4.132874624158845 0.9302550927125282 156 154 155
1.3749147247284725 3.100749894863811 -0.08284312061922786 68 66 69
0.37250106250672266 2.888935492151134 0.2820173391701333 25 25 27
0.20222649856689084 3.474915281462289 0.304033081298454 25 25 27
1.302983363018131 2.5895650937957857 1.0189351011475776 48 50 51
1.1143421636434954 3.322714499543348 1.9687735690635024 13 13 16
0.9012693310994826 2.7883669439803143 1.644792703443058 15 15 17
1.219712123145069 2.4624158685702917 3.4709653894387853 46 46 48
1.7587293833921902 2.348849821149595 2.942755173584834 32 33 38
0.6790471805446475 2.4394531797316987 3.429615005427417 36 35 40
1.0317584896625074 3.523075368922633 2.4425447101058215 31 31 33
0.9345670383392057 3.8327810144492145 0.38908417774071563 36 36 36
0.8447269145424953 2.6233125039513085 1.4686598735552554 9 9 11
1.0211849274904652 2.279307526268399 0.7629440773042472 37 36 41
1.226513161032663 2.996549593677382 1.6657634706340243 37 37 39
1.2607415568394391 3.3435583147024124 1.9968997763290413 45 44 49
0.4713207817193936 2.8545223702495592 2.643422886576552 12 13 15
0.753223623530029 3.312144443023595 -0.10067960736664447 96 95 93
1.7854223719764808 3.379132475362824 0.12163304168799609 22 20 23
0.6360123340411169 2.5336239489852703 2.59760583210003 54 54 56
0.946220245582967 3.8269675030578094 1.0608886287530608 48 46 51
0.8100577812606606 3.7393203257337033 1.6450824194374358 12 13 15
1.2872255336367127 3.8815445831858812 1.9998684591220857 55 55 57
0.4558499164372432 3.5423641572589677 1.9430414495995194 17 16 21
2.0552615985757376 3.31056282730672 2.0890078099622933 17 17 19
0.741835566259333 3.4512309510834607 1.181759216666836 32 32 34
0.4513962214465777 2.6992146734981244 0.20759028291405165 53 51 55
0.744737982461251 3.4513317939813883 0.9757029846260457 17 17 19
0.7090291593891692 2.7723222645358816 0.3258839661445356 48 48 50
2.0453568738127723 3.2229235828903655 1.4258332123282884 31 31 33
1.7981596260524697 3.2271995203288526 1.6969237910492396 74 72 73
1.1920535771715428 2.7560912071631476 0.07589573429127915 50 51 55
0.9631222068557025 3.7706852307735694 0.7536877371454482 13 13 13
1.020256809548103 2.206150069289221 1.4643002617808347 167 167 167
0.9365712100230226 3.740319999159141 1.25480582883999 20 19 24
1.6540908792066444 2.8740649648900622 1.2883534153485057 68 68 69
1.1907686395215142 3.0119797839602116 -0.12726788034122527 38 38 40
2.1557083981088576 3.8967891452417214 2.999030863053677 49 48 53
0.4855632588630141 2.876951395199337 2.8716629051961644 34 36 35
0.3974462074167632 3.292089419811107 1.9432147200416843 53 53 55
1.3089155493618394 3.328099309063285 -0.07635837129985842 39 37 42
1.0394115638836303 2.6694317208181952 0.30550920016491706 65 65 65
1.322815030181041 2.626558259018993 0.027134285687491523 78 78 80
0.35597042891815905 2.557688250733781 0.5998019921612292 78 78 78
0.4588666733660265 3.797419665227092 0.582125319447549 11 11 13
1.2691479862537212 2.9373976593663675 -0.1340359212094996 79 77 80
1.5064282824441233 3.6249972135487174 0.750048095584341 27 27 29
1.8728461126405085 3.2775697717771557 2.641404803941027 41 40 45
1.3986086060259468 3.476978247937256 0.1494639787902489 41 43 43
1.5561343459241892 3.7529707880658467 2.158054764559333 61 60 66
1.582669669471466 3.4556400427823624 1.6404335251291813 54 54 56
0.3880252978132895 2.5646466237378664 0.46930705968253095 15 15 17
0.4317945239783858 2.740448594390034 0.29447225399323135 32 31 36
0.5275181663664384 3.178551097899203 0.7877381805578488 37 36 40
0.4700216219984358 2.828270642149576 2.177292240214059 39 40 45
1.322252264354926 3.4578775214566324 -0.014139112154346626 54 54 58
1.5508994920137833 2.5704043873282805 0.3181015373610752 30 30 30
1.0418829585449145 1.7512532804224847 1.102692257892758 163 163 163
0.6602993194208095 4.10923822681171 3.1993559646742917 81 81 83
0.46992366759365045 3.30192097979625 0.20089490951080052 48 47 50
0.5990688205658596 4.0786068737472165 0.8757516283782012 24 24 26
1.0765295826543995 2.687935528341347 1.43068037256383 15 15 17
1.2500985115375145 2.5802905849189286 2.0862590504787537 50 49 54
1.6103016558496164 3.1489425455550695 -0.030902996096758697 40 38 40
0.8623510497231845 3.3518147960856624 0.19564841054095383 93 93 95
1.7923225968021932 3.292686738098272 0.7100458180888582 18 18 20
1.413207743623548 3.602514317476668 2.7847206910431863 38 37 42
1.2667911775712155 3.775298241320851 2.5519308452342924 17 18 20
1.1898785075839178 2.5055683084741767 1.5880680978306874 12 12 14
0.6975224751760728 3.7453927437862067 2.151470535052636 24 23 26
1.7575390528679045 2.6498988443863594 2.1202603935467774 55 55 57
1.1009022761067166 2.2507691475529747 3.4765125991124433 62 62 62
1.001139292204409 2.303140005067037 0.25819560840197087 43 43 43
0.755463309905827 2.7998831851076353 0.014265389384503875 64 62 67
1.0423489481784496 4.139124531509513 2.2880875686212194 70 71 73
0.8154546365940295 1.7603611881895365 0.9172868698878899 45 45 47
0.9569207272829166 3.834057067474015 1.660335431912096 15 12 19
1.2275198309061195 2.2839125092834003 1.4106029061897147 169 169 169
0.9457450143981629 2.3922162045583013 1.2345153595342424 16 14 17
0.3229198088909657 2.6304468227844575 0.4087421300442663 39 39 40
1.7260341963157233 2.9426144535980763 1.1348830622278432 33 33 35
1.6662274350976018 3.434553242664578 1.1635086237560641 35 34 39
1.3592078501254352 3.436672426466174 1.7524379931807466 48 46 51
2.090053631583099 3.3657120895123858 2.2176736562080634 109 107 110
1.9475817091774752 2.738356722473251 2.0757426272348645 57 57 57
0.8474935116936079 2.3640905824564338 0.37094625455510627 50 50 52
0.8116071984738185 3.7548885438036685 0.8602110033275423 31 31 33
0.9830169285543783 2.777400911014869 1.6218739871528556 38 38 40
1.8755284429681138 2.76044749777003 2.456141735641967 34 35 40
0.546150842122868 3.7573810477839493 0.4591704211121 11 9 14
1.4377461923668944 2.773088366587006 0.09722434050502592 45 44 49
2.0251474798615146 2.917975920480579 1.7371636963693835 42 41 46
0.832742409508618 2.742882706527044 -0.11550806075637836 55 54 59
1.0485712932274702 3.1374518790671178 1.1624916604390412 14 14 16
1.3890642739173324 2.6480202610749917 1.7093634664156472 82 84 83
1.3588002097866183 3.6311212763548393 1.363021968983127 34 34 34
0.42786263481824005 3.7640197399249353 0.4625754316846843 69 69 69
0.7343619606282561 3.281642493576735 -0.18371425537347189 71 71 73
1.4152607467243346 2.5297927889374914 1.6670920484789615 29 29 31
1.3036215965243987 2.5697398278079375 2.6323451757127625 58 58 60
1.9512110005130485 2.5307894453241726 2.4959729142017233 77 75 80
1.0291686604123687 3.8844972440710754 0.8595112857785635 57 56 61
1.32235053414174 2.465865413075469 2.8415771879956746 24 23 28
1.23376808120094 3.8358221351294834 -0.30263433883351865 60 60 62
1.1728799076795802 3.776988524021451 0.6330555713720385 168 168 166
0.9562095173548886 2.456430806602172 3.084868141636615 32 29 37
0.42606031021591595 3.6811691190266482 1.002751662243882 18 18 20
0.7451525678536791 3.5843186255502824 0.2808242526219679 62 60 63
0.5714246435096569 3.288989104477348 0.21915450642295098 40 40 42
0.6070549095577904 3.835494900627008 0.32361846562658386 27 27 29
0.9377070872401313 2.879494786175072 1.8031730505710093 24 23 28
1.4922192283311675 3.0382650017994557 2.361238159577801 42 43 47
1.4968372922389839 4.718212466458647 1.1210531850367056 66 64 67
0.8371740104926014 3.714115772852353 0.2307438904904783 35 35 35
1.2931334194280524 3.261578145273193 -0.1271908370848315 80 80 80
0.3669515541053305 2.9759175614355646 2.629483817609789 12 13 15
0.7208891314044855 3.773713174153099 1.7376649957480486 22 21 26
1.8731142855509881 3.3348261923663602 0.39488358127094964 71 69 72
0.5924868843781054 1.7819066894503843 1.2197052382320588 47 47 49
1.450114102874444 3.355725989580911 2.0983703779984624 24 24 26
0.7617895343237433 3.8655668277229327 1.0770722371719785 56 54 57
0.5096420671155788 3.1750500676852016 0.34357828337350577 14 14 16
1.1510949956666252 3.7454734231511173 1.5409440314648783 12 11 16
0.37944007113802697 2.3808087305488823 -0.02178007865102734 55 55 55
1.3415721761078006 2.5666428421040037 1.0297487884060137 17 18 20
1.7547586351618623 2.835596349726398 -0.03986662831364904 17 17 19
1.019975093665701 2.3076883004213258 3.0418191242004013 39 38 42
1.758222525119123 3.2069617716695666 0.04575781891623496 23 18 25
1.0742637654423246 3.095307419702056 1.70637748000552 41 39 42
0.3826816331102164 2.976100296260674 3.3623737132392097 40 41 46
0.40938022000514657 2.970448416754368 2.5035413947386504 33 33 37
0.9587942051438986 2.261119420109037 1.3721238316323952 90 88 87
1.4750523209681747 3.2188576368753195 1.725147168272422 63 63 65
2.114500736183315 3.2518660654750504 1.4614357729768006 40 40 42
0.9433521970154946 2.6746735929975287 -0.09562527137663031 52 51 56
2.0518144081455376 3.6554260955670688 1.4326550022469609 24 24 26
1.1415579250633765 2.9378648344863354 2.8549293455146225 27 28 33
0.8807916559875519 3.6524237332676175 2.16771692204531 53 52 56
0.9713031886200513 2.3928666919164545 2.0298142046418453 62 61 66
1.050532593485712 2.464615767375138 2.1153031223149275 27 28 30
0.6826127204928742 3.9286361363090005 1.6203160235853573 14 14 20
1.3356864294283994 2.6768202761439626 2.098693521473995 29 28 33
0.8202537180797327 3.6572450978362747 1.4603029259833573 23 23 25
1.0578163553357254 1.982585229065563 1.351518890655137 17 17 19
0.989562972916746 2.6337995385328097 2.096830213563775 70 68 73
2.1037200603773676 2.6337427764274315 3.2804861563362135 41 41 43
0.28402900607377457 3.8295321831316125 3.2365264032464323 77 76 80
1.2454218611636598 3.494591549523606 0.013006425313070396 171 171 171
1.2212088943146022 2.053549425309194 0.45164441109258674 25 25 27
0.881968247391934 2.403543006870703 0.4553173231243833 24 24 26
0.7808035049561116 2.5433087430150882 -0.01939666352273598 39 38 41
0.3865379666634309 3.994664071813155 3.1763717716530904 38 39 43
1.0792286966460944 3.7705082528543885 2.44570972448225 21 21 23
0.7702099078418251 3.7551395174570446 1.092397459848134 44 42 45
0.8621941899261741 2.6370469253360693 0.055518679244683934 43 43 43
1.0133569319156772 1.7512611741667001 0.9565457912786228 49 49 51
0.5651965422165955 2.6881102944652615 2.2393228763615447 20 18 23
10.475978566740821 -5.150518435215262 7.828463249908341 19 20 25
0.7659004506878205 2.7172202652427773 -0.03728159410848625 46 46 48
1.3248908489324736 2.5894217940102426 2.636459580115665 53 54 56
1.257513815792352 2.8837099754254734 2.071561681299432 44 44 46
0.6994625117082971 2.552909589459896 -0.025526834631771536 69 70 73
0.40646901974296934 3.7462104954084903 1.6637248383663368 27 27 29
0.6301872143616066 3.443223358256127 -0.023006370238133303 30 28 33
0.7108702868739859 4.096071870071982 1.8566593898199548 16 14 21
1.0808339568804575 2.3949569378364646 2.3347900732073277 43 43 45
2.18497928732881 3.517690615372056 2.715780581572658 89 87 89
0.6279975136093414 2.5158730422964197 0.11558983284160752 34 34 36
0.8713721336602739 1.7828036411066257 0.9322174464907313 45 45 47
0.6653095057021597 3.2989280228132674 -0.00846648576857581 49 49 51
0.45951504457757997 2.6506957295791675 0.4804765344321096 14 14 16
0.35054327703763044 3.000022885895245 0.17089481970381123 35 33 37
1.152333036210398 3.9405826162918522 1.2541533588815772 89 89 90
1.1963996549270985 2.685751936655201 1.5339052879156474 39 39 39
1.0660782989204274 4.081144504242569 2.1245020375216663 59 57 60
0.8676445649144756 1.7905436517157238 1.2464616449982036 35 36 39
1.0338803562162824 3.8725499261324243 2.2700196815665277 27 28 32
1.3139350167502415 3.5630024986684026 2.4983826698230835 26 25 29
0.4439864102935229 3.437342651121832 2.0201527250019704 71 71 73
0.7849068158104048 2.6052565210284073 -0.1369976028106949 173 172 170
1.175695299599142 3.2090825844336623 2.7645748863810975 10 10 14
0.9075265341316299 2.412377569426263 1.8702482461343033 72 71 76
1.256887988344012 2.508690894878029 1.0625140330254423 18 18 20
1.0899045925416357 3.010237997775036 2.1056572243359004 61 59 64
0.8099888552918272 3.9007039209798315 1.012168143724714 163 162 160
0.620636977525761 2.9943216128507575 0.07047015937202243 48 48 50
2.0645402493244123 3.3103845206244884 0.8873703264160511 11 11 13
1.3554898627558727 2.5349330906526664 0.2777093961469766 18 18 20
0.8986457905634198 3.6684085809583036 2.656443152555739 67 65 66
1.5191610859647684 2.8806118100589937 1.620303462919724 21 21 23
1.2626971489153151 2.8812742579317803 -0.10581855464289679 42 43 48
1.303363086327992 2.452456089281147 0.4215747305586272 23 23 25
0.5064218155524959 3.7216355741468385 2.3968426922575525 28 29 33
0.7585692467950372 3.699022871289812 0.422655653376445 57 57 59
0.5362153535879225 3.2634853100766708 0.30370130016147706 15 14 19
1.5293519692512 3.5426102028605895 2.0888937434363064 37 36 41
1.093488366681805 2.3171539174393647 1.1999311001031987 29 26 33
1.8560104139773654 3.5327361610911336 0.4129187663595214 77 77 79
0.8195462765869755 2.692076463649899 1.6986401071880366 39 39 41
1.74148169360211 2.309479673571318 3.2909554251243516 34 33 38
0.7881605801672452 2.178634509804449 0.1679516645011266 55 56 58
2.1693755069867673 2.716003942903219 2.424530375032288 56 57 59
1.4182568353971046 2.5823544757854706 0.35302915586969313 32 32 34
0.49171954070148566 3.6013540211471127 1.780699587588417 29 28 33
0.49329922586200936 3.2118034748993067 2.215253443158748 17 17 19
0.938927412790861 1.8822977126034792 0.9525803027236974 45 43 49
1.1059588632609734 3.5633766087455476 0.23422030491447646 88 88 88
0.7891312162901405 2.4337407256136734 0.005497293022543643 86 86 88
1.0948961470968976 4.25811811813891 4.3456926596555565 76 77 74
1.5937452826241456 3.393139797289893 1.1190235421977117 15 15 17
0.6010658197652508 3.783485120959628 2.1888661118201265 58 58 60
1.5090099024200594 3.495296290506848 0.2690630229710355 66 66 65
1.1468546909823625 2.158115770147131 2.596825079018354 13 13 15
1.0821472996710257 2.803131388050914 2.419092991025892 58 58 60
1.3822079934392282 2.8456870176009317 2.895928892991449 23 23 25
0.5389838443753274 3.2763042469831682 1.8358954492592756 52 53 57
0.6025547900819852 2.6160348063095538 3.3597629959280564 47 46 51
0.546562702818989 3.8496503713260455 0.4869165275577045 75 75 77
1.2303218943407324 2.5243695655479432 1.849181583537479 46 45 51
0.5566713608207161 2.312677475249964 0.2545015668458081 52 51 56
1.461315227760612 2.9771764612913407 -0.004187589291006769 32 30 33
1.6205393656701466 3.4289090907161968 1.3178129201339916 58 58 60
1.269016551665001 2.514358346281119 1.6618361386921443 34 35 37
0.6271840760345819 3.001803112336242 0.0018488702906532093 59 59 61
2.3326793650828743 3.461303621463746 1.4159785485301182 42 42 44
1.622169811468995 2.896305416827056 1.124737465619358 39 39 41
1.3471848861382412 3.1875160082245837 2.6332599875003933 36 36 38
0.42329217071136166 2.269360635579982 0.36413367713545997 69 67 70
0.9457025133153022 2.6567031024720698 2.248788192277948 44 45 49
1.115369986051302 2.432928730208067 2.298743793227804 19 19 21
1.5473512666248814 3.3285833491216823 2.0349620355604188 48 49 53
0.48675946328678005 3.6509357992954072 0.2940547861606707 82 82 82
0.6657439013733221 2.9736579955935 2.3196045669593084 31 31 33
0.851485611815797 3.300649889196209 1.4678351306058004 41 40 45
0.6450363399772597 3.9925662345679838 1.1381760205356866 42 39 45
0.38251763890001994 3.064377667970083 2.3315591324475395 73 75 74
0.4651457023703458 3.2012704177575246 1.2788560158580098 40 41 45
1.0496833575623055 3.65234854455922 2.7441339686047552 58 59 61
1.419156834380176 2.6518643220535507 1.6390007848736632 92 90 91
1.0169117401137855 2.880262124815082 -0.2500342247048816 174 174 174
2.045823556635547 3.634305946644194 0.8552492863006455 33 33 35
0.33497387462447015 2.985233352714615 2.1328550112250753 45 45 55
0.6352872598792089 3.325742620481998 0.6977350118485476 32 32 34
2.362598429771655 2.0498372450124522 2.7433919967188554 28 28 30
1.1872519619995858 3.7896577977234536 2.9542052803166037 75 73 74
0.22394731329571319 1.2160695133679427 1.3757283536790281 50 50 52
1.4315863809717415 2.681181329351197 2.115334077145619 64 63 68
0.6875207779911139 2.558112547976166 0.23095444492422257 49 48 53
1.545541641965012 2.749840158117122 1.6880732295526537 22 22 24
1.147533415839744 4.25944961244639 3.10674507123615 57 57 59
1.4511478361884091 3.7249016760402562 2.613439337296034 31 31 33
1.5833630306240178 3.5968493884431223 0.6283363053915082 35 36 41
0.33694729210132424 3.8892929476866054 2.267479390786615 30 31 35
1.7450919086350716 2.468796711500309 2.0214774717590593 42 43 47
1.1546184158446995 2.5877534851195785 3.638121000312326 98 96 98
0.6471505635288183 2.1275772666368415 0.8863546991614907 23 23 28
1.5115590434759734 2.281244320437805 2.4632597730709183 37 37 39
2.1929463543392234 2.984695012199325 1.8087640588163427 14 15 17
0.9366845951568811 2.2952842809241116 0.5651239432417264 45 46 49
1.61320381718712 2.3903633055805313 0.8819980091621888 42 41 46
1.1328079176303547 2.2962514919613892 0.4713346284058678 50 50 52
1.2075182947303986 3.424168102666394 3.1213561151740468 98 98 98
1.8159245481495636 3.5109485445689352 2.1061418571306296 16 15 20
1.623535497223339 3.329936679567505 2.2803706103084496 39 39 41
1.4147787029866064 3.1095832223319975 -0.06748015226644034 27 26 31
1.3892363584078742 3.641580634161132 2.768154410851895 23 24 26
1.5761715310407292 2.3660917376156085 3.339576798532424 36 37 41
0.1584917625923157 3.132647024304865 2.6998809312922836 36 37 41
0.6568893306551777 3.189719953758044 0.8119453957693492 32 33 35
0.6683556179428707 3.485050178214442 0.37265967011908613 15 15 17
0.3948851075039725 2.388248647382549 0.5306353763734796 19 17 19
1.4497398793512275 3.718001605527094 0.3140829726580241 65 62 66
1.3717910447067179 3.2561842961894722 -0.09188153121974017 52 50 54
1.563381786211915 2.3309780347209585 2.6168983743975973 23 23 24
1.2207400103939194 3.0825048167965097 1.370184302027993 16 16 18
0.5560417153541839 3.9721431905894726 2.261999964103619 41 42 46
0.44427297079450456 2.8994385006426526 0.5075836692110792 33 34 38
0.5894086550756767 2.7005354495944855 1.0335469237686261 21 21 23
0.7448261682508347 3.890298517534802 0.8844385373780779 25 25 25
0.5058201194106146 2.794663602296925 2.2112038372776928 87 85 86
1.2537184582727252 2.766433788925453 0.927397426859062 52 52 52
0.43387666139193226 3.47014988904393 1.8373501782382975 12 12 15
0.7577872678294948 2.356996240161152 -0.003164143959969303 52 52 52
1.2888538981479434 3.4290535052494358 2.9446582580743326 42 42 44
1.8784150663560473 3.8788360249889253 1.686644863894908 75 76 80
1.5461635351629577 2.6698820956961598 1.6959896612772194 37 37 37
0.6563960616636141 3.515416985529888 0.4011634142132067 22 25 32
1.1429413208681185 2.157814816206849 0.5494068800751194 16 16 18
1.6001930508516005 2.6670418704272736 2.1091752628406906 37 36 41
0.06375838318591447 6.587761417258263 4.585294683289422 36 36 38
1.8416941527610897 2.9052972862226873 2.1445094606122983 48 49 53
1.042620595653351 2.3692949593042156 3.035822739484451 30 30 32
1.1334508772439866 1.9360429200922638 1.2246400427178608 62 63 67
1.9244862788990431 3.662502826739004 1.9342916486823059 54 53 58
1.081834261490151 2.3854520686213947 1.5745937816081266 16 16 18
0.5958178262913285 2.572985290531516 2.1510192325921875 36 35 40
0.6567662868683678 3.4146069382154205 0.17895531421159008 82 82 84
1.0359145558398668 2.6078398264928437 0.02278826705152254 60 58 58
1.8479763675533991 3.5902271664809104 0.9954301719527974 20 21 23
1.5316902530924998 2.474765823321547 2.663854665479323 15 15 18
0.47170496509998416 1.9397884725061616 1.9199821609673093 38 37 42
1.4983994834087961 3.7834295402476497 0.5240599972639506 69 69 71
0.5919254966491669 2.1493507496937103 1.302895900113377 29 28 33
0.3961302366576787 2.9600323352827447 0.09672309362396461 62 62 62
0.5048187435267721 3.246342409526788 0.2256355695553444 28 28 30
0.4472638321358819 2.828095763428462 2.6839247034993523 14 11 18
0.5827133774341333 2.137717650395805 1.05252849493393 40 39 45
0.5677531532242358 3.6577082309246314 2.221368391479064 60 60 61
0.6055458240117209 3.0177198185653697 2.263483981053343 53 53 54
0.6761217165333083 3.2904820237500494 1.3858435181766817 38 37 42
0.8502254757604034 2.8903860300645423 1.380330827463165 18 20 19
0.5862791081182805 4.03326860990978 0.8359448301152975 13 12 17
0.7494460805902791 2.402122765383057 2.6460721163302536 35 35 38
0.6896206537154812 3.050020858509679 -0.0908937298317989 54 52 55
1.2348822631813232 2.2467275609426682 0.23277831389847078 84 83 85
0.9092961055504506 4.072634562337099 1.4981529288290092 54 54 56
1.207921378196123 2.3409064352742863 2.9253198780006677 67 65 68
2.0731053103131276 2.7907617875424786 2.586592421211174 42 43 47
0.8315838961775915 2.358697578110875 0.34472614007741825 43 44 46
0.9136569343957704 2.803644170834518 -0.19800587183929147 165 165 165
1.3060600336484811 2.584747903014417 0.39800973820785307 26 26 26
0.400596626564028 2.614265391174897 0.3976103633045431 39 39 39
2.2057220523460215 3.5552013943886425 1.6407601632346427 35 35 37
1.1613830035375585 2.536833905735813 3.741392625036727 156 156 156
1.197180603500818 2.4377523546270132 3.735818700857319 164 162 163
1.4859345109633715 3.1773034546222707 0.4166986822101227 28 28 30
0.8118180065041675 2.294511858486603 0.1439025673375486 28 27 32
1.0238590071370366 2.386915558663079 2.5085658620798377 35 33 44
1.9932993409626072 3.303039827853697 0.7873896488482217 12 12 14
0.24631549198777966 3.305677240104129 2.748134121473526 45 45 47
0.6042657423782216 2.715852379292544 -0.13443654995648058 68 68 69
1.5572088343378412 3.022094199022921 2.853381270870084 12 12 12
1.7918611246596408 3.5599356904239734 0.31234917691320585 43 42 47
0.8346190679598187 2.033226237389547 0.6153967946162702 49 49 49
2.288722289270367 3.242131649816156 1.5608801784838044 22 20 25
1.021007372052162 2.408423434478916 2.9776162892040605 67 65 67
0.4974046350423546 1.9161239755501955 1.175920414168955 78 78 78
0.8334485911693835 2.822752954073696 -0.1799069350961202 54 53 59
0.46995572287922077 3.2758972772775348 1.9602100576481363 21 20 25
0.8359219187127254 2.912259446832822 -0.1127032475902374 58 58 60
0.9145407773506863 2.7031553716605883 1.5377112473853656 61 61 63
0.8816149525152569 2.658911867424416 2.2771517197860622 40 44 47
0.6969220934741077 3.9086324155809966 1.9575526671970138 37 36 41
1.0594299517264307 1.7954196303724308 1.2096360761647058 82 82 82
1.6830661245666547 3.518622064463738 1.2687068429633144 31 32 36
1.045715520229097 2.110363068161184 0.21936083137419335 78 76 79
0.5482849091502074 1.7317873530557732 1.1145006609694017 37 35 38
1.9771993220653372 3.1908195793306176 1.6908270643986194 71 71 74
0.5019227596016553 3.3495596913591377 1.9843859114705789 16 17 19
1.031235007662395 2.6804427124021415 1.3313635210849708 16 16 18
1.1836747695496728 2.478709480184541 2.3143912806146814 44 44 46
0.23269459730178124 3.2012717610507666 3.3249929301216077 34 35 37
0.6225692031264602 3.1762151276151207 0.5962505360781325 72 72 72
1.6631805600463112 2.972617659913925 1.4508798508915868 16 16 18
0.7941155905850382 1.7104456060273838 1.1362614210779556 36 36 38
1.181287007597279 2.711605463423893 1.4485897029056165 17 17 19
0.6665268129724604 3.2624354860279317 0.901937941396671 17 17 19
2.6381993157944823 3.4980540373838354 2.932049080496125 75 79 82
0.8717597768762064 3.2729909232856267 2.028681471871744 31 31 32
1.6980743839703056 2.464464790322298 1.5628799046641306 19 20 22
1.0743991755359066 2.628304808487372 1.7679663695521057 37 37 39
1.6976486136283713 3.4703261684167326 0.15550921253663316 54 50 48
0.8764133296051859 2.4722875627839493 0.13929381871909047 52 52 54
1.7212591686788659 3.454253980966911 0.16821742819078747 34 31 38
1.338303569932459 2.805625232439134 2.966945176066973 55 54 58
2.623769432293189 3.1226325131185773 3.030810857278408 13 14 18
1.8519010410959713 3.9237714730168958 1.7566753623973557 64 67 71
0.8563450848595696 2.314621752750501 0.1721342393170622 81 80 83
1.754364591789196 3.3388446753225787 0.20899896892515324 71 71 71
1.7817195145110556 3.3462768868109656 1.4493040093807297 70 69 73
0.5309925180906288 2.041419819850801 1.1366786060236491 73 73 73
1.0256144273006278 3.1674506206805537 0.32430178783404484 15 15 17
1.4195785199325037 2.994363793016907 -0.047814093309311155 61 61 61
0.8191125255833966 3.761131455762036 1.490768967242922 35 36 41
0.8175939132857172 2.271814855672576 0.02905947257401467 17 12 19
1.6149002451157681 3.7261035652592898 0.4319441204853959 172 170 171
0.7540332433322221 3.802559931646873 0.7135877515546355 24 25 30
0.5241164003035055 3.4203025530608953 0.24100527876502803 92 92 90
1.1630709632690113 3.1130475214134217 -0.2482647881598437 159 159 158
0.6437164723119402 3.488299295531023 0.3593876327922392 18 19 23
0.94949374475201 2.837802471088391 1.2498710091006324 12 13 15
1.447976722367659 3.697555739836972 2.301308981589364 25 26 30
0.7925704876983121 2.642793390077822 -0.022762998593928368 46 46 48
1.1809030160542102 2.055317865794984 1.1000406118952186 86 84 86
2.3504084606446947 3.252401144810529 2.2751343999907654 55 56 61
0.4837198687547693 3.5714290950555565 1.6931573930203236 42 41 46
0.9453602222544364 2.0576280082635248 1.0058866351122342 27 26 29
0.8494135089282047 3.8662392713765863 0.5059464755559299 39 38 39
0.6782996200322138 3.7421665760232794 1.3359163821444386 39 38 44
1.780317602498016 2.7420148179554693 2.1310057001634575 61 60 65
0.6966213444218889 3.438622475955245 0.1477619915748871 87 85 86
0.7048102237443086 3.257317690277793 -0.033374811511666665 70 70 72
1.12009625161781 2.36164202486671 0.5621064349059128 47 46 49
0.5035596083263877 3.131641532316744 0.37678015181510366 24 24 26
0.7839697745099689 4.0585835491848705 1.5989338206369412 37 36 42
1.1271899212976964 2.0834659605615946 1.3159363803371043 51 51 51
0.6735983820899274 2.9613308537360505 2.896634180544153 29 29 31
1.447178922148839 2.5757995507870897 1.6975347663921592 66 66 69
0.6281040869477502 3.241776950189917 1.3076259141719024 43 43 45
0.8129777993667704 3.2008986980036784 2.4524478541082315 37 38 42
1.0981801447313404 3.2972109733134944 -0.08168428349990267 44 42 45
1.128750081630722 3.6550797670434765 2.016490600279861 38 37 42
0.4471804083388083 3.64947492743819 1.8004548355626635 52 49 56
2.286018232820537 3.7266321051352413 1.9521965585963765 35 35 37
1.197176305550423 2.7557546438007865 2.6843860327510485 35 36 41
0.7898517373287459 3.7762052883223984 0.320830253730126 31 31 31
1.3903353215209127 3.090777155180763 0.15905934703758454 20 20 22
0.7000031484795872 3.666477360007777 1.7466131106342422 81 81 83
1.0003841025532618 1.7104120490290091 1.1669137602297857 30 28 33
0.7545038242985056 3.911155651688718 0.7903986881996591 49 50 50
2.0871456161022093 3.7092414738023516 1.347675298939552 45 44 49
1.7767564637860274 3.402183317840365 0.3632847186258825 47 47 48
1.7417726512937766 3.9102105243348215 1.2208446831704967 171 171 170
1.499572481270627 3.1997151085926423 -0.08740799586871927 93 91 94
0.4921320227344592 2.982971588967973 2.2637507354557607 46 47 51
1.5486250478413872 2.9924683504949083 2.067126797468664 44 43 48
0.8463804384561805 3.8514197070195904 1.722242629544032 72 72 70
1.02392610256753 2.917902954381973 2.0196359491601013 17 17 19
0.780841916352583 4.116413381617024 1.7332953118390562 18 17 15
0.96684642241196 3.856052032609934 2.5639627561515494 25 22 29
1.2690815770162098 2.7651083493369715 -0.1075295257547759 45 45 47
1.4704036358233696 2.5528644841817414 0.11844231051293194 36 36 38
0.5370812944055089 2.973277488985609 0.07332493789957056 48 45 52
0.8748883038629198 2.394475051159925 0.020757510493801673 23 23 25
1.2674732732127385 2.5539885478037507 1.68376631302969 86 86 88
0.9845703326504665 3.8708784757940466 1.482050794852145 64 64 66
0.6166107173835985 4.173250222871544 1.7107899689314303 14 12 15
1.8708164666515816 2.8134145576177527 0.4184318701870747 35 34 39
1.52193301621858 3.685209305640685 0.6404568755949126 26 27 30
1.175749262107579 2.436291320960699 0.15129417324697142 78 78 80
1.9565106219107498 3.6719080127541623 1.5429651912866214 47 46 51
0.9998260141852837 2.816318112746265 1.7843951936781688 34 34 36
0.6199411337727799 3.8643015413495023 1.2526031776799615 11 11 13
0.4317201747157585 2.9199997054817812 2.615732551873362 14 15 17
1.4550478541527305 2.704254016793073 0.1754451224707333 22 22 24
2.250414748519007 2.891018237069064 2.438924229774677 30 30 32
2.093809226510478 3.4304132311396462 0.7728880165928624 31 32 34
0.7157340355828766 2.7227227019483204 0.1581383835513454 60 60 60
0.46224726346547584 2.630139655506562 0.24822256270565796 87 82 86
1.4435942405921123 2.6910831225860457 2.64205575145895 53 54 60
0.8696488403102601 3.941318569788632 1.1427275558977816 69 69 69
0.8709225180441126 2.8518349061646 1.2237900685784229 35 35 37
1.3356544402618495 3.997773387030171 2.3964798123302513 37 37 39
1.1531665022193542 2.765257455501225 1.44665906221147 41 41 43
0.8301768530318259 4.070036983470517 1.5423040782623854 20 19 24
1.5401581708849752 2.7843499851368425 0.8636926674682985 41 41 41
0.5554009622810498 2.220748122071542 3.103784454596919 26 25 31
1.2332218084117095 3.3898380242534287 2.7075397155982452 10 9 12
0.8201661131375907 1.71650672003185 1.3398030976296254 25 25 27
0.8713097806287445 1.781176486716673 0.9334186193992078 117 115 118
1.0432913192251592 2.573191502214635 2.133162168233148 19 19 21
1.0785498483664728 4.249252632522993 3.131325565743007 36 36 38
1.013970079585857 2.7934024499251335 -0.18415551237310257 52 51 57
0.8272989321886528 2.690811571454252 0.26019643313571444 86 84 87
1.142980721484237 2.5953299728889814 -0.008906536178937535 65 63 66
0.7218051972848951 2.8026463455369948 0.028959534547090715 43 43 45
0.9040618917319647 3.554133267373051 -0.003239887756723718 163 163 161
1.6694612661231605 3.68135698662059 0.7124963517977748 49 49 51
0.8238985158110214 1.9407946656495054 1.2856195736699652 46 45 46
2.086844012047724 3.3990197373370887 1.5097918719917038 34 33 38
2.136742763376309 2.700655577320195 3.366372987187779 43 42 47
1.799700609556646 3.3254708606418593 0.21100500400610592 79 79 81
0.6807100502084459 3.7392441495050037 0.932457944928514 35 39 40
0.7188453566466747 2.515384031185518 0.15529135336092886 49 49 51
0.9994917379551742 2.6931230626231697 1.6480300511137131 19 17 21
0.7580494379078306 3.4823237944209193 -0.029953587730309896 53 53 55
1.6884696841392022 2.486811630780073 2.179659748545075 38 37 42
0.4921762913008284 3.4499815318546982 1.8778540450538088 108 108 110
1.0095909816141388 2.932487543669985 -0.23939437617622278 165 165 165
1.6571737031950704 3.3428881415083094 0.608711945948228 19 19 21
1.475396193783956 2.3688780631778354 2.5844327050121767 27 27 29
0.9349168213657597 2.715427744948019 0.24012956291159862 79 77 78
1.010442742085749 3.5672196262029936 2.0495860392487573 46 47 51
1.5718661976152037 2.3426285548734875 3.3719848418815994 21 22 24
0.7272507366371559 4.043970281819355 1.3644782092534136 34 34 36
0.6507400068895324 3.330466020870503 1.7879712880426104 50 52 47
0.8148050800024813 1.7328930312764703 1.314617760691587 59 59 59
0.7726130335282884 3.4935052924161876 0.20844495677553776 83 81 82
0.6835092673781 2.4112144777290467 0.2083807308406595 66 64 67
1.3218673796519675 2.533423627932972 0.9355117024310935 39 40 45
1.4174030479683144 2.6201933801405572 0.4462594356850765 34 34 36
0.6904430667677116 3.969384263772505 0.6663775322972124 47 46 49
0.9702517442399966 3.807319297860149 1.0985882769147304 33 33 35
0.5246271973120625 2.669056970759954 0.4135448890118759 36 36 38
0.4944433697200204 3.4068911998576326 2.877912350421442 69 66 65
1.0525422949757555 4.149701296506134 2.0492448942461916 79 80 84
0.717522329971723 4.083144004944615 1.1815669548559131 33 30 34
1.8516245154193278 3.667688441393192 0.6289110751797286 51 51 53
1.3076635448102703 2.476289558248483 1.5639103822711349 16 17 19
1.9079877242025989 3.4349114702527714 0.3332655437709056 65 64 62
0.4556987773878303 3.1256314453727243 2.1406466585297097 76 78 77
0.6765215917640139 3.4589804566200426 -0.05862425912520032 8 6 12
2.5230276841993895 2.937867283071528 3.104083677162747 26 26 28
0.7090718870756124 2.771940691085589 2.1397461385373755 22 23 27
0.7402478029307094 2.79566129876338 1.1503550897270163 34 32 35
1.7165489264148175 3.61526411858004 1.1408927711284522 84 84 87
1.1761594699038154 2.797233709067497 1.965334153202995 16 16 18
1.432209842280094 2.726582002825947 0.0534279781655203 14 14 14
0.4309709149968424 3.389251951659995 2.580354137113186 15 14 19
0.8907299945727554 4.122966508681991 2.2840247340296966 77 78 80
0.8581914817229828 3.7377547800023954 1.783876193571673 78 79 81
0.25725737487514894 3.348998673606191 2.9499274079449247 54 53 57
1.7461360607628686 3.5140304325856153 0.6209618574342339 54 55 59
0.5061634277437882 3.0203366474566744 2.215545733134865 47 48 52
0.807500099931147 1.656885110397094 0.7286044393868236 83 81 82
