ply
format ascii 1.0
element vertex 717
property float x
property float y
property float z
property uchar diffuse_red
property uchar diffuse_green
property uchar diffuse_blue
end_header
0.996527864506748 2.5612022248417077 -0.024401345766716154 45 45 47
0.9851563525618812 2.5526400424104896 -0.02173677945976371 41 41 43
0.9719810687047803 2.5468649848765885 -0.01903463800433125 38 38 40
0.9703052486325704 2.47169218430256 -0.011775850866320076 38 36 39
0.9724654171345278 2.442740261906101 -0.009441376469897012 49 47 50
0.973947238700663 2.4149638558285447 -0.0071046023601885055 48 46 49
0.9626762361341995 2.406586534901065 -0.004473730123312231 38 36 39
0.9528366826629716 2.396059555951855 -0.0018784521239639806 49 48 49
0.9384085988851957 2.392433971606932 0.0008299357069772029 74 71 72
0.9310964071234556 2.3781447761827192 0.0033592832983497523 75 71 72
0.9209309453095545 2.3681508472275334 0.005958612955829334 88 86 89
0.9001316324626759 2.373956621927753 0.008838111354882855 89 87 90
0.8766391126261103 2.383653153665752 0.01179885955110807 66 64 67
0.843552826418797 2.40737211738744 0.015033918270123237 62 60 63
0.857300857333523 2.3620736632443364 0.01698220927059446 59 57 60
0.8319592143923655 2.3742599507264384 0.02001561181389991 48 46 49
0.8101833207421676 2.3811074535261083 0.022958859932857872 43 41 44
0.8007966015234382 2.3698414014330105 0.02554836206411748 38 37 41
0.7912679708699072 2.358804965076269 0.028139859934617928 23 22 27
0.7647043828545596 2.3723906376917823 0.03124411809715416 31 30 35
0.7372567602328839 2.3871030980953476 0.03438901212844403 49 48 52
0.7019761510154097 2.4128968973469203 0.037792011452747604 79 77 80
0.6638698211539391 2.442501256496839 0.041305492264681026 163 161 163
0.6293311014416878 2.466769207575419 0.044728291998066105 173 172 170
1.333618854791201 3.1259575757006157 -0.11724998521505703 60 60 62
1.3522848168541584 3.0625625208958986 -0.11453265782177519 70 71 73
1.3642794016187438 3.011477586083436 -0.11183942799207092 39 40 42
1.3540610372361535 3.0001791610819692 -0.10911649726369532 42 43 45
1.3463316899507318 2.955246901253208 -0.10372655245159207 35 35 38
1.3368478427165416 2.9428149119791644 -0.10102126704964631 36 35 40
1.2447686446538477 2.872188688166533 -0.07933883558594729 42 42 44
1.2334875679047705 2.8630013786277044 -0.07663348921721336 45 45 47
1.2279566820170886 2.844085123482045 -0.07398804294854866 46 46 49
1.2291456908356313 2.81390985985927 -0.07142272219865842 47 47 51
1.231960283134542 2.7811633913218468 -0.06889073455383798 47 46 51
1.1631320129787208 2.7294395405051453 -0.052781135521600964 48 48 50
1.1570346198999544 2.712029023732991 -0.05017987530019452 53 53 55
1.1583758208289598 2.682537210739266 -0.04770226166366198 57 57 59
1.1440062994870621 2.678769925255649 -0.04498255183606753 38 38 40
1.1119324537153172 2.622654864926818 -0.03454558066746283 27 27 28
1.0815090028611176 2.5646305679278614 -0.0242066308383988 33 33 35
1.068728417648182 2.5583994222355075 -0.02152402214512522 36 36 38
1.050936892713204 2.560027723638692 -0.01873258368604999 36 36 38
0.9922285613694103 2.5728065829988003 -0.010199243813588443 34 34 36
0.9941892458217474 2.543554849657701 -0.0078459881267125 30 30 32
0.9794397620459347 2.4625397385761114 0.002006733285378426 21 19 22
0.979174488397159 2.4372954122172485 0.0043610978314790605 35 33 35
0.974855459741381 2.4183203566664915 0.0068116377708840326 33 31 34
0.9678919047615567 2.4034199631667734 0.009326309271629807 41 40 42
0.9621707929601474 2.3866984030194063 0.011802322392141934 55 54 55
0.9458838019283737 2.385896134613838 0.014567562234481024 61 59 60
0.9334844915730999 2.379231940845553 0.017226791547298753 73 71 72
0.9211092338555037 2.372524758789437 0.01988598015425408 81 79 82
0.9021627868133572 2.375570581203056 0.022738556286814676 71 70 72
0.8667401781630588 2.4029291873803365 0.02608894738849174 62 60 62
0.8500770898685317 2.4023754386400524 0.028893600108383127 57 55 57
0.8032459418789891 2.3708315317977355 0.0395206563654191 36 36 39
0.7936784340648372 2.3598445417811345 0.04210751310997371 27 27 30
0.7759326522926392 2.360696997451903 0.04496240177853983 24 24 27
0.743655790489124 2.3824161412563964 0.048309043261053675 52 51 55
0.7116069274933673 2.4036072355846025 0.05166633299579998 63 62 65
0.6729192015211567 2.434096391361815 0.0552698342178754 139 137 139
0.6367463944344791 2.46074043671783 0.05880961454877298 172 171 169
1.331980537873264 3.165054662857515 -0.10547090941916071 48 47 48
1.3481830239607584 3.1057223980485444 -0.1028142576956737 60 60 60
1.3627316112993277 3.0497359819797283 -0.10018441414805812 65 66 70
1.3738088500009416 3.000302620235092 -0.09756850942404194 39 40 45
1.3615995971188082 2.992581512999797 -0.0948435372681749 46 47 50
1.3646448008311416 2.928666036142772 -0.08958727148242618 35 36 38
1.3549475809548128 2.9167028053816804 -0.08689728810187247 36 36 38
1.2512158483041171 2.810142563950768 -0.060052700059667785 47 47 49
1.2679502787613708 2.7538238165381728 -0.057756128130742546 48 48 50
1.2903683438325693 2.6882948524864556 -0.05557368788576009 48 48 50
1.1534616117183654 2.7231340931114945 -0.035964114672055736 54 54 56
1.1625390937293365 2.680941136857169 -0.033668659072757234 49 49 51
1.146743774775037 2.6795028664628164 -0.030914201073588665 46 46 48
1.1232027953341601 2.6905886482627404 -0.028001712800009182 44 44 46
1.108844660112147 2.659630274528153 -0.0228246926523214 37 37 38
1.1142503220968594 2.6240280211438227 -0.020513256705358196 33 33 33
1.107391661073506 2.6082436573180736 -0.01795047702298075 26 26 27
1.0898876442255645 2.6094858548071014 -0.015153733493271426 25 25 27
1.0853097663157403 2.590131495333025 -0.012648110308003002 23 23 25
1.0781669851604236 2.5749187997251513 -0.010089655677612053 33 33 35
1.0757086252505568 2.5523702401680364 -0.007648270592222811 37 37 39
1.057769470370748 2.5542565712867624 -0.004837289804278916 34 34 36
1.0387810886257496 2.557718109824613 -0.0019939664157181125 30 28 31
1.0326337143612514 2.5410608083982673 0.0005293147661130093 27 25 28
1.0214616625573982 2.532279897628147 0.0031774764447698722 26 24 29
0.9923392807263198 2.4476226596130193 0.015649172517239823 25 23 26
0.9860200592220956 2.4316361950746286 0.018140531117445596 34 32 32
0.9789164079962468 2.416897610745235 0.020649739795705474 37 35 37
0.9787440104394373 2.3917264929551507 0.022947691452462254 40 38 42
0.9644112989775089 2.3880153872323877 0.025664007913965947 37 35 38
0.9514714589770626 2.3821850115850016 0.028339926541224192 39 37 40
0.9404623208536147 2.373452417038213 0.03095666005097905 51 49 52
0.9275682827376506 2.3675380384836457 0.03363254082638675 45 44 44
0.9123971815970882 2.3649955375440435 0.036382821254059644 35 35 34
0.8773076105097476 2.3919181508726037 0.03978662894117352 30 30 29
0.8611933854341528 2.3905952778380817 0.04258367758121703 39 39 39
0.8615481271218923 2.365004187933179 0.04483189436445223 43 43 46
0.8225771667265933 2.3971809584168824 0.04840700397096992 38 37 40
0.8178300561714136 2.379089319102537 0.05082690882617097 36 36 39
0.8053791728585781 2.372283643676974 0.05350950316966677 36 35 38
0.7944599071120155 2.363249348614435 0.056138501943053226 29 29 31
0.7798499741452379 2.3595600145956777 0.05889892292092935 18 18 21
0.7492724143739956 2.3788512978115124 0.0622409490891459 42 41 46
0.7190158787671891 2.3974971976158694 0.06558781357068294 57 58 62
0.6819163251511908 2.4257564605153226 0.06920512484082661 107 108 108
0.6433017146698313 2.4559313315105205 0.07290149927494319 171 169 170
1.3144375631917822 3.263966200411205 -0.09622713274592559 78 78 78
1.3377679440516654 3.190973579032093 -0.09364460192816743 49 49 49
1.3495811989231075 3.139269391602274 -0.09102787337944085 43 41 43
1.3598177583286697 3.0907290513232955 -0.08842861087015108 61 61 61
1.369475704616009 3.043528811324184 -0.08585165345178708 58 59 62
1.3708602961351404 3.0113971280451843 -0.0832302390366037 38 39 44
1.3718236374703219 2.9801950405145163 -0.08062097563824538 47 48 51
1.3677414891522899 2.958110049345582 -0.07797816929178797 39 40 42
1.3768929578294156 2.9127582811334816 -0.07548070392552386 34 35 37
1.3736756843202769 2.889447631072517 -0.0728735807471943 36 36 38
1.2720867178681619 2.8365831708758504 -0.051206912291056894 54 54 56
1.2630364300219865 2.8237237458664577 -0.04855311671703194 49 49 51
1.2788616113886797 2.768713134698933 -0.04631313536754694 51 51 53
1.2956031006089772 2.6848203524569687 -0.04166200160242456 48 48 50
1.1318439991458924 2.76387535608513 -0.021320329443199504 50 50 52
1.158238787733603 2.693186571833376 -0.01945433297036281 51 51 53
1.1678544698104423 2.6502937667181934 -0.017252741273901084 51 51 53
1.1344500123715289 2.6775128689798633 -0.014088211833976905 50 50 52
1.1280966361579123 2.633727908079755 -0.009139346051658281 51 51 53
1.1291344605805733 2.6052148691396315 -0.006781268954350661 54 54 54
1.1206176572593767 2.5921449608962766 -0.004197919150623036 48 48 49
1.1022001684322822 2.5949060454582193 -0.001365913845301242 45 45 47
1.1008785575887226 2.570418198756359 0.0010290023745954668 41 41 43
1.0903329205576255 2.560658557427267 0.003657428547911984 36 36 38
1.0827955321506877 2.5461651788885953 0.0062035204368365016 33 33 35
1.0650751042969708 2.547734327373461 0.009024886428805418 32 32 34
1.0403383073835597 2.5339599199114367 0.014380775171869004 27 25 28
1.0418117419656694 2.505523526706443 0.016659266896272007 24 22 27
1.0420582320093816 2.479134943215338 0.018960942352263477 23 22 26
1.028537181662431 2.474151368246681 0.02166245866793634 23 23 25
1.0134198545896076 2.4716066020483796 0.024414151628833397 19 19 21
1.003287446059307 2.461376496937118 0.02701530593361498 14 14 16
0.9919466154396365 2.453011627786478 0.029652758741280705 30 28 31
0.9875650182861411 2.40850744978232 0.034336039440224564 41 39 41
0.9832137085148074 2.389676116210637 0.03673494696184629 39 37 40
0.9680238316910433 2.387265729247699 0.03948683073781134 38 36 39
0.9492981732838031 2.3901319011482354 0.042360994186466855 35 33 36
0.9371162371634635 2.383125859075313 0.04501833577777262 28 26 29
0.923488990902047 2.3782718293678524 0.047726093590689744 23 23 23
0.9084538518009715 2.375491849746779 0.050484937773827926 18 18 18
0.9044044466488429 2.3563968924211443 0.0528568092272243 21 21 21
0.8843031457331593 2.3610875090976107 0.05579883146563022 29 29 29
0.8783015125483121 2.344940631663842 0.05823513628563998 35 35 35
0.8326068824972233 2.3870720806944963 0.062129110255567804 34 34 35
0.8267558037077988 2.3706208503093 0.06456728224276609 34 34 35
0.8144633831604073 2.3636124685959867 0.06724329098486462 33 33 35
0.7975539512793703 2.363301714077224 0.07009606150740158 28 28 30
0.7772528219835272 2.367847131840655 0.07308436171420468 15 14 18
0.7579574176053004 2.370858462745329 0.07604082907746346 32 31 36
0.7284129477890835 2.3885233543512685 0.07940869427786437 49 50 53
0.6927871939427672 2.414723497994158 0.08303481796728343 79 79 79
0.650024812695553 2.4508773898274634 0.08696958559499621 167 165 166
1.3008476726350537 3.357012118846484 -0.0868237611921236 74 74 75
1.3194704987541392 3.291793997105629 -0.08425128162052187 65 65 67
1.3365156566453427 3.229878565779716 -0.08170247503071171 70 70 71
1.3511887983718196 3.1726710329135948 -0.07916673677974068 39 38 40
1.3666784535271277 3.114356274992431 -0.07667137330681933 41 39 40
1.368777027231057 3.0805318838459166 -0.07406729077643881 61 61 61
1.3839874478212248 3.02337802681678 -0.0716264962715743 53 54 57
1.38659405443626 2.9891180371735597 -0.06906967714465279 38 39 43
1.3831886338859527 2.9657593755457023 -0.06645584806588312 48 49 52
1.3793807913859881 2.9432294765345053 -0.06384686267231071 44 45 47
1.3882245894193614 2.898447753104716 -0.06141805695979674 33 34 36
1.3856824873268483 2.8739884431921414 -0.058853039829768694 36 36 38
1.28467878932031 2.8205674084992376 -0.03721692342803112 57 57 59
1.2866510062084373 2.7889859925017 -0.03478767465678684 49 49 51
1.3137873092425445 2.7148704850414562 -0.03286756293597079 55 55 57
1.2975056728905727 2.7146563342201038 -0.03011386008391992 49 49 51
1.1472840990302071 2.7163409165489742 -0.005026939874843206 54 54 56
1.160730052408422 2.667092766556075 -0.0029807909933051158 54 54 56
1.1385514452169372 2.67603184520353 -3.660349097106552e-05 54 54 56
1.124079430613186 2.6723725622171224 0.0027142597439917537 55 55 57
1.1032401859659464 2.651935152025283 0.008001269331253197 54 54 54
1.1351440265452757 2.5473743031745477 0.01178176816375276 54 54 56
1.1142940914065629 2.554103913633872 0.014695896057675212 56 56 58
1.101284412172759 2.5483046016820374 0.01738817726119843 53 53 55
1.0909891529574784 2.5382045214121627 0.020000422549350888 47 47 49
1.066754605677036 2.55005813374491 0.023035205915136775 31 31 33
1.0659470550006844 2.472838054933204 0.02992068841591705 25 23 28
1.03808150851255 2.4901721250478612 0.033086357352436396 22 21 24
1.0225437625208706 2.4882684416768397 0.03586278429929929 21 21 23
1.024142862088702 2.4599187017043076 0.03807222741683042 16 16 18
1.0223208182971004 2.436966183342149 0.04038458028832689 15 15 17
0.9858207070688574 2.3651131169538466 0.052796555073572504 34 32 35
0.9642891414784249 2.3722805598484906 0.05578691195889193 31 29 32
0.9460364855368777 2.3744319302283237 0.05866493510414439 24 22 25
0.9319524677238881 2.3702903931939225 0.06139277673908233 17 16 18
0.9084073699335163 2.380203244187734 0.0644813891433011 16 16 18
0.913391949662328 2.347686297203001 0.06648639725164779 19 19 21
0.9033913090722837 2.337486124329787 0.06905790172571552 21 21 22
0.8861704832944021 2.3379367970557867 0.07191125687841654 28 28 28
0.8615780556433665 2.3491507537993788 0.075062069358133 32 32 32
0.8368548197221216 2.3604261809396774 0.07822948182167419 34 34 34
0.8241286466219212 2.35408398560682 0.0809215933593484 33 33 35
0.8023912618290397 2.360822339849106 0.08398403045457359 27 27 29
0.7808580380532051 2.3671661093884016 0.08704666341803541 17 16 20
0.7621243845011431 2.369374537102884 0.09000049698321802 25 25 30
0.7325089984336186 2.3871607735436386 0.09342057939571813 45 46 50
0.6982870149021689 2.4113736560516204 0.09705272144611354 63 63 63
0.6574489910914912 2.444816580868048 0.1009894229588246 154 152 153
0.6202452951626007 2.4728065819295804 0.10479227299361821 171 170 171
1.3197758282445076 3.3284864529873674 -0.0721645773678179 62 61 65
1.3334210481179145 3.2724377071271022 -0.06964675827804179 66 65 70
1.3591974789862062 3.1946401385846004 -0.06730648862894811 58 56 61
1.364082473766794 3.155298968278503 -0.0647466877383941 36 35 39
1.3695768641189736 3.1150903108581303 -0.0622151672625304 41 40 41
1.3743867707758541 3.0763562930537507 -0.05969492280074573 59 59 60
1.3851720536480734 3.0271244957990064 -0.057280619136827526 53 54 56
1.3926435810162834 2.984127960638373 -0.054843142368525166 40 40 43
1.3986981449316116 2.943917847976355 -0.05240610024488168 53 53 56
1.3920800803569051 2.9264459045180873 -0.04978519298158496 51 52 54
1.396688726921443 2.889188616750608 -0.04735801243601295 34 35 37
1.3960216586826952 2.861445892454202 -0.044858458885227326 37 36 38
1.3516236987933299 2.910624150505276 -0.04159156058348834 41 40 42
1.3042543399270008 2.7925818328867664 -0.02343570873010431 68 67 68
1.3088868587174587 2.756549611921839 -0.02111796070889832 54 53 54
1.3190279605519388 2.711367847080308 -0.018943318228021228 65 65 66
1.316362195866076 2.6881299577923974 -0.016493801597858265 54 54 56
1.1334020468533026 2.6895924796420934 0.01427914961692281 57 56 60
1.1323643449091945 2.6641181347510523 0.016646132465281738 62 61 65
1.1286526429486385 2.643087061372656 0.01908242213307157 57 57 60
1.129464013898146 2.5614741098541502 0.025967119148504858 54 53 57
1.1197905453212336 2.5503727195025987 0.02855592843183022 51 51 54
1.125054365317196 2.5156043908546684 0.03065831932935792 52 52 55
1.1058256573678018 2.519735395549398 0.033550294399501274 53 53 55
1.1085762934544579 2.489169374692872 0.03571556484329666 52 52 54
1.0687728051453078 2.525542606793576 0.03930824136716082 47 44 48
1.0737584921890175 2.465545893989818 0.04362817544850239 29 26 31
1.064951971111517 2.45332708615188 0.046166711511621356 24 22 26
1.0381179567370125 2.4690335556501344 0.04934717351720072 21 20 23
1.0395693563707669 2.4409639339787788 0.05151707997684532 16 15 18
1.0251886924808902 2.437362061906961 0.054255617421377716 23 22 24
0.9755328583234022 2.3853364376921102 0.06711774502060869 28 27 29
1.0009220336039268 2.32184397780195 0.06829264852535263 26 25 28
0.9797200650439198 2.3285972482399013 0.07129226138465358 19 18 21
0.964147141624459 2.3268399354054847 0.07407345057932826 14 14 16
0.9422351989846091 2.3344809547661773 0.07711658654858511 14 14 16
0.9220010788026407 2.339526624945155 0.08009966326930731 17 17 18
0.9030786934272913 2.342544826013088 0.08303564794105858 20 20 21
0.8716604333051426 2.3389225219616234 0.08865329650025527 31 31 31
0.8562148756973146 2.3366649872048817 0.09145601335982059 34 34 34
0.8372325633695193 2.3395286129470403 0.09441541782814183 33 33 34
0.8162004101702425 2.3452993283465347 0.0974708877977257 28 28 29
0.7927120045242081 2.354535780618372 0.10064299484252653 17 17 19
0.767341796612949 2.366372848214584 0.1039091566895545 22 22 25
1.3278510390762894 3.351109558229889 -0.06009784810002994 76 76 78
1.3372287465991484 3.3026295128683447 -0.0575855971288019 59 58 61
1.3514620072385004 3.2455641492703884 -0.05517089421649363 70 68 72
1.3745102956765791 3.1727898560150023 -0.052922898010246355 46 44 48
1.3739661600384268 3.1433708303985783 -0.0503398157982019 35 34 37
1.3735491296386289 3.1138822176981966 -0.04777242283628663 41 41 41
1.3807910235984804 3.0707423297144296 -0.04534965313478745 56 56 57
1.3903900191263292 3.023630644988564 -0.0429908229334352 56 56 58
1.4023246594301895 2.97263093411393 -0.040699381419187886 42 42 44
1.3894156453670035 2.9662550171750244 -0.037967809496826654 55 55 57
1.371575698880466 2.9686278885080135 -0.03513973099089768 59 59 61
1.40724456312968 2.8762142728354316 -0.033371812226119346 45 44 47
1.4056336774106941 2.8501679194314464 -0.030893150540612646 32 30 33
1.4035130552435624 2.8251521239251955 -0.028415192632484876 40 38 41
1.3539324701729387 2.8833358899706663 -0.02492310340012427 47 45 48
1.3085317229948128 2.8190430242941407 -0.011771483422002127 90 88 89
1.323319120718852 2.765431406900711 -0.009743268855834264 67 65 66
1.3290454437341235 2.7276110797412647 -0.007513545147389139 72 70 71
1.332578933840634 2.6937369694115336 -0.00524560678394928 70 69 70
1.3150041962641317 2.69579711321422 -0.002436080652755329 55 55 57
1.170818951477255 2.606935234610122 0.029567839624337566 65 64 68
1.1640425276479853 2.5910494620992925 0.03206331439722496 63 62 66
1.1578336919405565 2.494798966035825 0.04126631921438795 53 52 57
1.160810106484778 2.4377499132876803 0.045590895549686344 52 52 54
1.130929179371242 2.458879958021236 0.04887532953831866 53 53 55
1.1000343392883407 2.481398849170616 0.05221432814941987 57 55 60
1.1142720936320436 2.4072540872512915 0.05607425693165316 53 52 56
1.0723294887563455 2.4467212228166697 0.05985412583149466 37 35 38
1.0616427510313726 2.437463998464725 0.06245232585793714 29 27 30
1.0563351555453093 2.4199184608812727 0.06483893448660955 26 24 27
1.036043185935497 2.4254798932938115 0.06781337972486534 34 32 35
1.0142621225250448 2.433230119673744 0.0708553428560488 37 36 41
0.868337117466343 2.323474139448953 0.10492360210049753 34 34 34
0.8468641495987766 2.3300232467210584 0.10801494498353059 33 33 33
0.8240516136647207 2.3384230339652814 0.11117704405099271 29 29 29
0.7758161796290234 2.3835627026583497 0.11554509469158017 19 19 21
0.7417994287535636 2.407801479254628 0.11926853967004997 24 24 25
1.3313964098938238 3.382263253792776 -0.04791297323352983 90 90 90
1.347704668340162 3.3207159296262416 -0.04557047759660027 59 59 61
1.3644071124880093 3.2588475467521167 -0.043268525120265466 55 53 55
1.3690135099711374 3.219547536616148 -0.040781573904789925 68 66 68
1.3859592736773447 3.157959991613432 -0.03854454399515306 41 39 40
1.3656465430926923 3.164526367142395 -0.035624268112475765 38 36 38
1.375665920687267 3.1160342904148575 -0.033295669185418875 47 47 47
1.393530649484485 3.023867286645718 -0.02866859762150703 55 55 57
1.4147903631212508 2.9561295659908184 -0.026655679551125744 41 41 43
1.4150266789209947 2.9263561261775353 -0.024216248279117225 58 58 60
1.3829438282592008 2.954206286540547 -0.021059615338632376 63 63 65
1.4186831730730958 2.8616578926779273 -0.01945179299172739 53 53 55
1.4202645316791704 2.8300173472852572 -0.017086439444311652 33 31 34
1.412140235120288 2.815617538699809 -0.014500374842668307 35 33 36
1.3718044089448638 2.8576895222015493 -0.01111954937917381 42 40 43
1.3198909458097456 2.8050391637341594 0.002126687608101474 84 82 83
1.3325999011368261 2.7550055706390926 0.0041245927807729565 66 64 65
1.3458967520852227 2.704277496591444 0.006079992051066019 78 76 77
1.323326575686972 2.714864810182723 0.009050695299360478 74 73 74
1.3171335705026395 2.697566182987558 0.011548544768534008 59 59 61
1.1755103007525536 2.4979117585376494 0.052350992907762156 62 61 65
1.1841695854713352 2.4578099314202966 0.054212939334158244 59 58 63
1.1237520472846323 2.4231142693195977 0.06741532571281153 52 52 54
1.1321094255150383 2.384266773467865 0.0692243338474968 53 53 55
1.059812463852532 2.445136495770692 0.07649497410511583 65 63 66
1.074440484585649 2.3967778072201367 0.07802581509093073 64 62 65
1.0701407211483815 2.377823965130619 0.08033836693984389 52 50 53
1.0297877332383698 2.4142219323274636 0.08419469876983676 43 42 47
1.018654532436434 2.405672154533786 0.08680711568198474 37 36 41
1.0001061591353508 2.408417221752078 0.08974450262794684 32 31 36
0.8618746697344865 2.3624704534130814 0.11716601705873747 32 32 32
0.8505713970722645 2.3291583042644053 0.12186986998173807 38 38 38
0.8247595021585608 2.341934898028306 0.12521156087522797 36 36 36
0.7529487090624192 2.3962469896885574 0.13294538856034613 32 32 33
1.3512181972523198 3.351809533701112 -0.03338747768007355 76 76 77
1.3626663314885306 3.299315012986196 -0.031051957910348815 51 51 53
1.3775578740254566 3.240818464258296 -0.028815666146122965 53 51 52
1.381594124889616 3.2026068695716754 -0.026378259711999363 63 61 62
1.380409374686804 3.1437097248000825 -0.021350557460489417 41 39 40
1.3961042996733157 3.08497483187905 -0.01923259802732702 47 47 47
1.4067910554130085 3.035666108891628 -0.017027386531499322 50 50 51
1.4160078883550824 2.9893121590624867 -0.01481197752461616 58 58 60
1.4225212013249657 2.9480920398371087 -0.01255318484304535 39 39 41
1.4214065596051881 2.9207434866394117 -0.010121733455086546 55 55 57
1.3931016606594535 2.941917474216936 -0.006999192296527512 63 63 65
1.424987438689075 2.8561818467330773 -0.005447792632433668 61 61 63
1.4275370869348816 2.8228326139546853 -0.0031535816899649904 40 38 41
1.3926378199876817 2.855561865422821 0.00015399466854548738 33 31 34
1.382635674743316 2.844348154063609 0.0027888455499576192 40 38 41
1.3789412593625414 2.8221434283773457 0.005241627607204091 53 52 56
1.354614735375502 2.8359441828848686 0.008285462336165006 50 50 54
1.3369280221623046 2.7812452748093017 0.015800916175342072 86 84 85
1.3429430507592646 2.7427440139634838 0.01792250330804221 75 73 74
1.3575334636440322 2.68981897149875 0.019754091722586464 75 73 74
1.3332933351072918 2.703312838629115 0.022808239383248635 71 70 71
1.3294261621998533 2.6821040092419706 0.025209089359794157 55 55 57
1.1835743012225821 2.4375691938361 0.07026683780108409 66 65 69
1.169681502389238 2.3817345211593732 0.07722431157979176 61 61 63
1.15821203156979 2.373992894700432 0.07982654006101697 59 59 61
1.1015737286393192 2.4367748171227035 0.08440272013490782 56 56 58
1.0828178458781832 2.440123135377502 0.08734684986895905 54 53 55
1.100055931151285 2.387591009499717 0.08869192863039196 53 51 54
1.0892747670588903 2.378660700336199 0.0912734155961755 49 47 50
1.0809452795516337 2.3659651475180694 0.09374262948888051 47 45 48
1.0611187666376083 2.3709424951324136 0.09673703532724218 49 48 53
1.042689665958642 2.3736954099909893 0.09967386210722395 46 45 50
1.0216160029773338 2.380404411333573 0.10274042761496843 41 40 45
0.97761412875471 2.4218200124210116 0.10689843782700917 36 35 39
0.882176386135808 2.3622092780812753 0.12815784768627042 27 27 27
0.8788003903198094 2.3421635153513467 0.1303791450060957 38 38 38
0.8492085035546603 2.335701860308224 0.1359862273054145 42 42 42
0.823244683390929 2.3486886351642973 0.13937768739187334 40 40 40
0.7873065224518677 2.3760092953091307 0.143306562475353 40 40 42
0.6558946510649931 2.4401665181214724 0.16060079029333393 161 161 159
0.6290612928301127 2.453360805304915 0.16412446013599122 171 171 169
1.354502220428363 3.3835449905734 -0.02112952589577244 79 77 80
1.3705575883487582 3.322205419982735 -0.018959004607091656 65 63 68
1.3830789083378408 3.2678037575492778 -0.016737616649405984 47 45 50
1.383386251934675 3.236250161118531 -0.014249427491686728 52 52 54
1.357133047498534 3.2536115380311044 -0.011118998856875839 55 55 57
1.3969906448728553 3.119550895701409 -0.007197658479997815 44 44 46
1.4277780697351696 2.915138160210251 0.003954163744191774 52 52 54
1.3967656357069813 2.9411736853194155 0.007206971353056091 62 62 64
1.43128295001533 2.850713925873729 0.00853805657153861 63 62 65
1.4301379778197347 2.8238941625325884 0.010895523767326665 49 47 50
1.396189727782739 2.82621170786616 0.016564911306678476 36 34 37
1.367681614611262 2.818791995424137 0.022080082923120414 61 59 62
1.3496051402119178 2.764925965024222 0.029536417166940943 95 95 97
1.3588842331657778 2.7208608050104957 0.03148462328759055 78 78 80
1.3744014507133735 2.666397870514997 0.033194157008804764 76 76 76
1.3585180599929516 2.6657579039329757 0.035985563934004955 65 65 65
1.3471230215391234 2.6574496862899 0.03862030681431086 57 57 57
1.2045758961120825 2.40911116524763 0.0832097520791269 68 68 70
1.1747295523377472 2.430470918155147 0.08663797922215738 67 67 69
1.1579518621817302 2.4309896484200753 0.08949033476486865 64 64 66
1.1677739184625113 2.389597616704665 0.0911295968463442 62 62 60
1.1569711530758617 2.380781294329624 0.09370309411496675 61 61 60
1.1068669724762445 2.433375931496485 0.0981102368923176 58 58 58
1.123326781281889 2.3819167331787883 0.0994152653299305 53 53 55
1.1185827608222363 2.3636605283048544 0.10170388803907532 50 50 52
1.1075569984447753 2.3551900645628576 0.10428799790281304 46 46 48
1.1059088435324456 2.332279493650178 0.10641743217657051 46 46 48
1.080476746308951 2.345986711268198 0.1097005127367687 46 46 48
1.0972369484981517 2.2950022931892926 0.1109154866857194 44 44 46
1.0657120830031748 2.317925669280338 0.11450732866736443 44 44 46
1.01953872218226 2.3628882374101154 0.11885106714580893 46 46 48
0.882807225797547 2.3408524009937572 0.1442117733500648 48 49 51
0.8426828193662131 2.349803396792546 0.1504123080572867 47 47 48
0.8139590177100452 2.366775165627618 0.15400028938581065 48 48 48
0.7930442279044875 2.3722371524767354 0.1571681789026464 52 52 52
0.7853142682816232 2.3585269354884097 0.15960575623400727 56 55 55
0.7755989540832225 2.3229708475017388 0.16414518754445173 66 64 65
0.7406115210401764 2.3484550337256045 0.1681280805899676 82 80 81
0.6991438236406988 2.3829639156083378 0.172501997362365 109 108 108
0.6425781258193022 2.4386653359341106 0.1777735359707532 162 160 159
1.3553620390503642 3.4200383218626715 -0.00873853234012667 73 72 73
1.3751219791708973 3.3514381418671775 -0.006734648854921754 77 75 79
1.3934500573364088 3.285957244081296 -0.004729394667217834 55 53 58
1.3898366057291782 3.2615117589610287 -0.0021677217538261795 43 41 46
1.3854768218465412 3.2385656676095778 0.0004046773518950886 48 48 50
1.4108044346114776 3.100400168164139 0.006949840804642005 45 45 47
1.436445758648275 2.9642284970981025 0.013282775533603575 60 60 62
1.4265404099168744 2.9525251867396665 0.0159268282267076 36 36 38
1.4341412183010644 2.909540145750668 0.01801147987348639 51 51 53
1.4375706629112803 2.845252449936816 0.02250576464713594 64 63 66
1.4381318960693619 2.8154198947652294 0.024769966584869074 52 50 53
1.4106940329747002 2.8350856660103947 0.02797107614241312 32 30 33
1.4079134727723226 2.8112625078541544 0.030339059383210187 33 31 34
1.3987345612144866 2.79874841648095 0.03292132572119527 48 46 49
1.3818412020102717 2.7997115490974522 0.03577446194405437 50 48 51
1.3606934086159552 2.807995917105727 0.038785790980795765 61 59 62
1.3552118768388441 2.789064321328049 0.04123492135307322 80 78 83
1.3607048782173088 2.7513021327871137 0.043271638321120215 82 81 86
1.3678190747066952 2.7109765008706534 0.04523015367575395 80 80 83
1.382157257522033 2.658531817780369 0.04689533521730227 75 75 76
1.3736398068917015 2.6177832821340266 0.051597918365519496 56 56 57
1.2180035580062363 2.3926681838931625 0.09640581311660573 68 68 70
1.202338421870053 2.391617047953904 0.09920541841846264 66 66 68
1.1722143854159133 2.3874768502207853 0.10475678347305925 61 61 60
1.1628343867712587 2.3507498676843044 0.10929059290739071 55 55 56
1.149485385819653 2.3459897646618977 0.11198216993893303 50 50 53
1.140254309031259 2.3348171556919737 0.1144672912278257 49 49 51
1.1289379193634388 2.3268955932558533 0.11705666389969932 46 46 48
1.128863044267299 2.301647569795114 0.11906826159840714 46 46 48
1.1077699263533414 2.3088095152055286 0.12215895979158883 46 46 48
1.0721156635765685 2.312861194176725 0.12802082589997024 45 45 47
1.029303488250823 2.352764948433419 0.13228588048653583 43 43 45
0.8027394408728409 2.3378331646094566 0.1727549944282957 55 55 56
0.8142565858457941 2.271865090023171 0.17597985661728272 54 53 54
0.7795877197748954 2.297086203723652 0.1799950948204598 64 63 64
0.7011676257272458 2.3597865782515965 0.18863014418044022 103 101 101
1.3745587173615343 3.390473455683775 0.005701152959080524 68 67 69
1.3891337911248318 3.3316129858988948 0.007738836596312526 75 73 78
1.404763972087052 3.2711771690583866 0.009715137771079185 49 47 52
1.3936939208421344 3.2605817243019652 0.012468886079884556 40 38 41
1.4101406702879955 3.107626466174363 0.02149916072244501 44 44 46
1.4278372720305483 2.985611937154339 0.027904954809694626 58 58 60
1.4266438858472197 2.9581721937031524 0.030247280538263976 36 36 38
1.4137466999445798 2.95182666117589 0.03298895128222795 50 50 52
1.4084722031918395 2.931877016278966 0.03546006255634493 55 55 57
1.4452302840473115 2.808518810782083 0.03864776845561135 57 55 58
1.421082675646554 2.8224270258070403 0.04177512872702821 38 36 39
1.4140764937706045 2.80606092977966 0.04426935545474742 33 31 34
1.4118856095997052 2.7813303768459194 0.04657482965109139 42 40 43
1.3939581471127238 2.7841659382519683 0.04947920651220605 48 46 49
1.3736668840885133 2.791029701340489 0.052482296897765124 50 48 51
1.3670497623952653 2.774116665059101 0.05495124852886041 53 51 56
1.374899613147651 2.732321919606115 0.056833804861358306 58 57 62
1.3758595110878886 2.7026154125744113 0.05897710466957859 72 71 76
1.39829622349914 2.636304130371178 0.060223964154016735 70 70 72
1.3509496098548424 2.6340650717120084 0.06865109764574104 51 50 55
1.2340438181273674 2.3720432175402166 0.10940939248882492 64 64 66
1.2183275800145865 2.371149328550054 0.11221841398665891 61 61 63
1.2028029736369787 2.344156337576332 0.11702406187298384 58 58 58
1.193094257790814 2.3337784945779525 0.11952359075055125 56 56 58
1.1588593684228286 2.3361813754650944 0.12530416554188648 47 46 50
1.1465081910140051 2.3044630731591687 0.12992419607920008 46 46 48
1.1282454489548226 2.307335821019169 0.1328841230140704 46 46 48
1.0937166630187964 2.33513806163936 0.13674032423869784 47 47 49
1.101248705001142 2.298266928171886 0.13829531136356799 48 48 50
1.068902556338838 2.3224692775033904 0.14205106292152184 49 49 51
1.0233307507820868 2.3665663901805436 0.14656472896498884 50 50 52
0.695137923796812 2.348125374614701 0.20520630706231835 89 87 88
1.3778473468342658 3.422549175420748 0.01811026211228617 68 68 69
1.3926613257732565 3.362914722001139 0.020070883677850315 65 64 66
1.406155401894352 3.3061376598275523 0.022044459208866996 68 66 70
1.3967800893274707 3.2610800443422 0.027129711116441357 40 38 41
1.4136854470347464 3.1071827165478427 0.03592587976814182 41 41 42
1.4335911490883633 2.9811083371207725 0.04207057677585091 55 55 57
1.4164660992721942 2.95277544520958 0.04723588253415839 43 43 45
1.4515076808753613 2.8030623532616445 0.05253460744999683 63 61 64
1.453807875949133 2.7703356548768605 0.054632002821888626 44 43 45
1.4523830919622154 2.74434296746292 0.05686757337950324 33 32 34
1.419548017856809 2.773501022482379 0.06039302981152356 39 38 41
1.4074244968930578 2.7662436516767057 0.06307174997695705 46 45 48
1.3769122926035378 2.7909525160214512 0.06653013534144858 37 35 40
1.3820087750512418 2.7537417914697513 0.06848017091414202 39 37 43
1.3843310120468315 2.721535463898544 0.070533946170319 40 39 45
1.391034461256124 2.6819756928932277 0.07238189042080154 55 54 59
1.4122950769473013 2.617711516310111 0.07356668471383734 58 57 60
1.1883855250714879 2.3460034100838403 0.13355857714094846 49 49 51
1.1658635821996475 2.3556575670328206 0.136767170337639 48 47 51
1.1612361514868028 2.3372757539990134 0.13898239994516984 47 47 50
1.1293413043116118 2.285091306640142 0.14855794515191265 48 48 51
1.0617130258160419 2.36357517420335 0.15441107134580434 50 50 53
1.0442280549110907 2.364869835600185 0.15737579966177365 52 52 55
1.0101472541792655 2.365923596868451 0.16326678654240925 54 53 56
1.0108032894226664 2.339617972621171 0.16516167390766123 56 55 58
0.9888854177976333 2.347442233798771 0.16840423420855405 56 55 58
0.9787199148184796 2.3375193330990673 0.17094353366414194 56 55 57
0.807918505410192 2.3146022972899862 0.2026215897852315 48 49 52
0.8141971540249293 2.2808878536917883 0.20409736384214935 52 52 55
0.8225144290733128 2.244425205675311 0.20542590991074197 52 53 56
1.3983304007589175 3.3904011452659404 0.03239977609522404 64 64 66
1.4137421780887078 3.1131102958536374 0.05048894043770907 37 37 38
1.4338041565307726 3.0163928140463705 0.05421172677806341 34 32 35
1.4402088168934588 2.975038639823153 0.05618628599316483 48 46 49
1.4231834491288609 2.9760919505044487 0.059105812407356295 46 45 46
1.419943981845956 2.9523667102588576 0.061456322700863264 35 35 37
1.4214804943954849 2.891009713178307 0.06578896808629447 60 60 60
1.4579953514373183 2.797225807411211 0.06639394323236411 62 62 64
1.4613551815537729 2.7626297463492184 0.06839774348622382 44 44 46
1.4162481757967096 2.7564034183840582 0.07680922706840482 44 43 47
1.3938260945610592 2.767095144917533 0.0799561216434346 29 28 33
1.3886263109372736 2.7477972945289886 0.08231972634175513 24 23 29
1.393736706466562 2.7107784944082933 0.08419697671860293 25 24 30
1.4000411141019344 2.67192050021701 0.08600191877644375 39 38 43
1.4208598221783015 2.608408791604064 0.08710019133782707 45 45 48
1.2454646935817575 2.4947850731455414 0.1265157475022311 62 62 62
1.2622490409753335 2.441141891348808 0.12758418336386493 63 63 63
1.2501682430462662 2.3046781407888677 0.13994996773479237 49 49 51
1.2200381663500797 2.326668142169207 0.1436067696176115 48 48 50
1.1469090050464883 2.3901823066247445 0.1517213602214049 48 48 50
1.178478676815637 2.3151670571098544 0.15178919024714116 47 47 49
1.1177877620265466 2.282328824215625 0.16494188769103038 51 50 55
1.115667669438913 2.260429142475629 0.16695828985107647 54 53 58
1.0604818811550376 2.319449800063868 0.17224977064398667 57 56 60
1.073849141113707 2.2739625442614493 0.17330814061457428 66 64 67
1.0154199645990052 2.312132416576971 0.18073516857465916 65 63 65
0.9691674143084321 2.281319480075061 0.19119299902590614 56 55 59
0.8183696092777394 2.2793533558638095 0.21789939123252872 49 49 51
0.8187569776426799 2.2542641535055017 0.21971346436184488 52 52 54
1.4023965115398174 3.421102997830676 0.04484907388032838 73 72 75
1.4452425495848442 3.001572633357216 0.0681601422392954 33 31 34
1.4401666574225058 2.9809974091471174 0.0705739763249928 43 41 44
1.4320691132966994 2.96595797181424 0.07311505214841912 50 50 51
1.4264465750338937 2.946532194312967 0.07554100838180006 32 31 36
1.4550753000181622 2.8369459852281986 0.07854329400229432 58 58 59
1.4610565892043748 2.7974590767934693 0.08039242071946492 54 54 56
1.3978851700955721 2.79405991197411 0.09182595910853542 37 36 41
1.393410685653993 2.773375590614279 0.09414136064766612 26 25 30
1.3922959984187502 2.7469583485105744 0.0962841765598538 16 15 20
1.3983148366225606 2.708349936445617 0.09806195960711292 19 18 24
1.4107280506261963 2.6589582080433884 0.09950188051893835 37 36 41
1.4076674735025532 2.636419046333221 0.1017035773636572 43 43 45
1.2858675234918284 2.407930878347462 0.14009265527781015 59 59 60
1.1384794649767946 2.4082550906931894 0.16616082252062955 48 48 50
1.1727740468666732 2.328873342307343 0.16593569301023584 47 47 49
1.1672144884930256 2.31203086652589 0.16816025410188618 46 46 48
1.1482165376009315 2.3160969616644183 0.17122400771005344 46 46 48
1.1437124732038342 2.2976799825793455 0.17337766859654366 47 47 49
1.1426462182622386 2.27404447270932 0.1753070514150382 50 49 51
1.1377632818599044 2.2563793178942304 0.1774724161609451 53 52 55
1.1319385998878388 2.2152547371965614 0.18153215427682085 64 62 64
1.0774705615859004 2.2232149987949574 0.19058837822628172 75 72 73
1.4172512098130394 3.3994334555884373 0.05924852312321205 67 64 68
1.4153025661220568 3.1835168818799184 0.07519825341264613 40 39 43
1.4245027465591693 3.135952022444088 0.07699842678280355 35 35 39
1.437314154058198 2.9920489243717707 0.08511781491945775 34 32 35
1.4423690441283747 2.953261131872827 0.0870213233052487 51 50 53
1.4307868104389438 2.9445714610596516 0.08971018269327685 38 37 42
1.424348189305205 2.897408518086727 0.09426403494911528 47 47 49
1.466402883785289 2.793637141822102 0.0942798788912369 49 49 51
1.3940567643671624 2.7494325432485915 0.11034733837334737 12 12 14
1.4025465549154283 2.7065176231460333 0.11193789326460982 15 14 20
1.2874639998854214 2.436659486303908 0.1519163763456409 53 52 57
1.3082796741891785 2.298847991733382 0.15817130486434955 48 48 51
1.278707525588441 2.320402205974742 0.16187569354358006 48 48 50
1.3095981407459323 2.2455501179004753 0.16178821805927424 50 50 52
1.2810382027177283 2.265429576135018 0.16543352148652568 51 51 53
1.2468424235691073 2.294018372698307 0.16945227854543682 50 50 52
1.1860506984399728 2.3642180610871533 0.17519647176857195 49 49 51
1.180671163555482 2.346948158088612 0.17740168278756138 45 45 47
1.174048107931589 2.3316903525071355 0.17968276008035738 46 46 48
1.1798350033085514 2.2971577523410263 0.18114852036670814 48 48 50
1.1605124398694247 2.30178627663875 0.18425224558164122 51 51 53
1.1452063558495151 2.3001172764560347 0.18709637438261 55 55 57
1.155335550988708 2.2592072468086677 0.18825033698314772 62 58 61
1.1320533085304492 2.194844233279588 0.19704424016445482 84 80 79
0.6033750187675919 2.3966354554538967 0.2765334811230249 85 85 83
1.4001476463761706 3.502971334978514 0.0704095757973407 93 91 94
1.4241610845632169 3.4248582506936778 0.07165176678860113 78 76 78
1.4315616681849432 3.378762239671884 0.0735956245267056 62 60 62
1.4380185802881085 3.1172010507200967 0.09098103545009734 29 30 33
1.4326054328982938 3.03639416041049 0.09767697160990996 27 27 29
1.4456865492490298 2.9531372631278057 0.10123896280213496 39 39 41
1.4363898914406361 2.9403397632162487 0.10380874751960523 46 46 48
1.3362673946295112 2.2845222281424373 0.1682013698466788 47 47 49
1.3023449746544007 2.3132524099547895 0.1722317516838366 49 48 52
1.3007386503092644 2.290089046621477 0.17416091972596304 51 50 55
1.2885717532094638 2.2838510596388097 0.17677907581181906 51 50 55
1.2592464405593844 2.3048254382768247 0.18053704084007002 50 49 54
1.226316767314405 2.331295538852764 0.18455007575165455 46 45 50
1.1823895257641925 2.3748482175591175 0.1893191103113641 47 45 50
1.1903441892060234 2.3366027331794297 0.19060740602341286 48 46 51
1.180294192945455 2.3267349598727156 0.1931042543090208 50 50 54
1.1810192485717526 2.3000897036355377 0.19486327290502703 54 55 59
1.163043245312527 2.302623147793609 0.19789861526227348 58 58 61
1.139128264784933 2.31427679655262 0.2013496486512216 70 68 71
1.1487732285423538 2.2740403029535177 0.2024767708119244 88 84 84
1.1423698721273254 2.2586954143624727 0.2047096688851817 84 79 84
1.13854806090787 2.2394519280095375 0.20675721390915258 93 88 91
0.7245751532940614 2.279497741175836 0.27795567826108625 51 51 53
1.4182966818989675 3.474860061956929 0.08470871876962871 76 74 77
1.4200719695060213 3.343239072035522 0.09353739010313139 53 52 57
1.4356550007912947 3.036811057851042 0.11203332693474943 26 26 28
1.4442500104902054 2.9615931354599776 0.11571606140469021 30 30 32
1.4425353716129505 2.9351272766115937 0.11786367653595436 50 50 52
1.4191020430428933 2.716976060507812 0.13723762048006397 18 16 19
1.3036188700632767 2.341994964082396 0.184057679526279 47 47 49
1.2822374707510797 2.350419091838301 0.18731557719889183 47 47 49
1.2653781536462851 2.3514990053490017 0.1902710444566248 46 46 47
1.2562046874455453 2.340272346869304 0.1927002712538055 42 42 44
1.2135554434943456 2.3822158144820413 0.1974515133244753 43 43 45
1.2004720571320884 2.377037540858204 0.2001631936197827 49 49 51
1.1911475222191905 2.365917105651766 0.20261219293611624 56 56 58
1.198955687348802 2.3279113865782026 0.203850081538714 67 65 67
1.192647924177134 2.31221422411196 0.206074892345332 67 66 69
1.1890417003955143 2.292361193026816 0.20810292869893282 68 67 71
1.1781262421846024 2.283954258041306 0.21064931126397057 75 74 77
1.115560676136119 2.2793544810339554 0.2222153834961452 94 92 93
1.1320677010649665 2.2290019794932174 0.2227477343487422 88 87 86
1.1229026671121756 2.1931507131127357 0.22688687939170835 83 82 80
1.425603776765226 3.402950016165038 0.10384735840895543 54 52 57
1.424709688630098 3.3726712593307724 0.10607142667086727 51 49 54
1.4213031761273254 3.3472933780710497 0.10841555603527425 45 43 48
1.4437277828662252 2.968411087566068 0.13017312121610813 29 29 31
1.4461148691228893 2.934524348090986 0.13205017430119315 42 42 44
1.4369657383094325 2.921510416153773 0.13458956710247877 52 52 54
1.4200975889893828 2.749094042306924 0.14938173421838305 17 15 18
1.4378536942271403 2.6898769105309173 0.15020764753559784 17 15 18
1.3537224381687543 2.2919517253251858 0.19251303143773874 44 44 46
1.3327400707315995 2.300005643516209 0.1957551382605908 44 44 46
1.3049531692419607 2.3188747480582323 0.1994898560972982 39 39 40
1.2560453813645363 2.3713488019571134 0.20475121090815163 42 42 42
1.2255397938518378 2.394056774460373 0.20871559583704177 43 43 43
1.2118360286472225 2.3898576677410768 0.21147738855171397 56 56 56
1.2096668408556406 2.3673756327125224 0.213400719379344 67 67 67
1.197875267076122 2.3601769775645085 0.21602137523106554 78 77 77
1.2052915788945968 2.3227856568244056 0.21722856232811538 70 68 69
1.2062023335246805 2.2957942093542445 0.2189026369915764 75 71 74
1.2024192295398617 2.27626559316178 0.22091635980962931 79 75 78
1.17655044409456 2.291167865766711 0.22457476021920997 90 88 89
1.1090022889779179 2.268907141081757 0.23829454274614742 83 83 83
1.1289172987149558 2.2134959279730664 0.23847116996139342 79 79 77
1.120731757351452 2.201056929351278 0.2407973147636867 78 78 76
1.1130875068158725 2.1878338548961063 0.24307907859841557 75 75 73
1.1013046082846798 2.1808865675241336 0.24568104439074895 75 73 71
1.0978951591061876 2.161362525474688 0.2476269502180046 72 71 69
1.4385770810158915 2.9836050564685594 0.14493900933948317 37 37 39
1.4442933100092965 2.9436459027721513 0.146567781102592 40 40 42
1.445239230256483 2.912484156294944 0.14847561093426642 50 50 52
1.4437888224512074 2.885779184933139 0.1505211232183225 51 51 53
1.4374750724822722 2.8678735810170686 0.15286245500784257 37 36 37
1.432273269714228 2.84807082209763 0.1551284952839821 30 29 33
1.4296776929169772 2.8237518789326206 0.15722270622180728 26 25 28
1.4182487617118704 2.8151067078684635 0.1598748151642358 21 20 22
1.4270771350842004 2.770937572558391 0.16121946256675862 22 20 23
1.4312916877677082 2.7351006249757446 0.16284580067712373 21 20 22
1.439943174779081 2.6917471107911863 0.16416813510973982 20 18 21
1.3698158709542907 2.322619547236112 0.20153504761260174 41 41 43
1.3650348081579242 2.304423540764647 0.20361746655001386 42 42 44
1.3495254299929158 2.303667017514763 0.2064840202094767 43 43 44
1.3172944835419398 2.329827340155095 0.21059044203913815 42 42 43
1.2594738068647693 2.3968648778645516 0.216615294232824 43 42 43
1.239574367805175 2.402654967176404 0.21984207065499276 48 47 48
1.2274474719766642 2.395949575795626 0.22249145895214306 58 57 58
1.2301612483763702 2.3656459140909796 0.22402103143730343 54 53 54
1.2206211142065997 2.3549142223514257 0.226469432116425 58 56 58
1.212134632486022 2.3168559710370866 0.23055015989648203 65 62 64
1.2166961053960308 2.284149555319951 0.2319045906823093 69 65 66
1.2138929675721157 2.2631222524077264 0.23381682091622827 70 66 66
1.207585037317307 2.2476443563295643 0.2359950826773302 73 70 70
1.1149398747549029 2.239434381580568 0.2533647328332874 77 76 76
1.1052443046587395 2.2291927021190556 0.2558086552865866 75 74 73
1.1062739826524135 2.177976522205939 0.25903961174204565 69 69 68
1.1070558153821932 2.152156045403876 0.26062078507280173 65 66 64
0.7015697962079782 2.350060384672711 0.3210384788253293 46 46 48
0.7026602159038495 2.2747979590178353 0.32586313497539543 42 42 44
1.4267320620612374 3.413746783930538 0.13386822150791977 43 43 45
1.4351194278624688 2.9957602612635656 0.15965356371996892 45 45 47
1.439982832860641 2.957266431087754 0.16128169564153433 48 48 50
1.4482092982970172 2.883649012326735 0.16459149594474443 55 55 57
1.4566242435592285 2.8395008328274796 0.16594105461588637 48 48 50
1.4611311433094154 2.773808109239556 0.1694117201193676 34 34 36
1.456808853931863 2.7528265253222317 0.17157162882194726 30 30 32
1.4440935552623366 2.746674833597022 0.17429395856646024 29 29 31
1.3894742444836097 2.3739682751181626 0.20861777298912784 44 44 46
1.3700021496751957 2.379679937702328 0.21179781129231004 45 45 47
1.3819007831020054 2.3339392662294416 0.2126157315947541 39 39 41
1.3613340467226216 2.3414314292552705 0.2158791643187128 40 40 41
1.3576723094408913 2.321339612044838 0.21786038708151448 41 41 41
1.336470091561894 2.3297449571106266 0.22118010611677216 42 42 42
1.2848587868620112 2.387107083756085 0.22684954827679793 42 42 42
1.2660335246667191 2.391287705916139 0.23001160662910916 45 43 45
1.249073741404914 2.39239550070116 0.23303406181534078 45 43 46
1.2388693115271014 2.382656716618289 0.23553262431532 44 42 45
1.2445036060863548 2.3477377696095347 0.2367864603822481 40 37 40
1.2290239935520606 2.2696135164910425 0.24471671373521547 51 47 48
1.2348811569385658 2.2350935101828324 0.2459038090924355 68 64 63
1.2170171066820976 2.2377030838678014 0.2489931335772047 79 75 77
1.1742455662809423 2.2788905671872985 0.2541065110427585 84 79 83
1.1533520651596718 2.285906307610711 0.2574607071123013 84 84 86
1.1414439234398106 2.278974948903479 0.26008669755293523 82 82 84
1.125035411329435 2.278948978007682 0.26308264866479825 79 79 81
1.0835487990498196 2.1920526678927024 0.2763319683178427 59 57 58
0.6656117233459414 2.4057016341628357 0.33863565707369975 45 45 47
1.4356103908140905 3.4355590698758793 0.14633672500555528 51 51 53
1.4357147531289918 3.403144558456287 0.14839102568097406 39 39 41
1.432277809554599 3.006819305185072 0.17437283713297003 45 45 47
1.4371598668284515 2.968225672506615 0.1759462026473015 42 42 44
1.4436221275908807 2.897637170385262 0.17927636828177346 41 41 43
1.4651368035107217 2.8300515463153317 0.1796539570457128 48 48 50
1.4804549368588993 2.745256956012586 0.18226873833974538 41 41 43
1.470135315463239 2.7349442374061868 0.18482094262560284 40 40 42
1.4619059266138978 2.720979150512494 0.18722344372590913 29 29 31
