ply
format ascii 1.0
element vertex 695
property float x
property float y
property float z
property float nx
property float ny
property float nz
property uchar diffuse_red
property uchar diffuse_green
property uchar diffuse_blue
property uchar class
property uchar detection
end_header
1.2722 3.3146 -0.1015 -0.014 0.398 -0.917 31 31 33 0 0
1.2534 3.3390 -0.0879 -0.055 0.466 -0.883 32 30 35 0 0
1.2881 3.3521 -0.0822 -0.070 0.552 -0.831 44 44 46 0 0
1.2954 3.3705 -0.0725 -0.097 0.576 -0.812 59 59 61 0 0
1.3247 3.3658 -0.0771 -0.045 0.514 -0.857 51 51 53 0 0
1.3829 3.2842 -0.0745 0.137 0.647 -0.750 41 41 43 0 0
1.2361 3.4315 -0.0003 -0.056 0.796 -0.602 38 38 40 0 0
1.4627 3.0446 0.0492 0.684 -0.163 -0.711 48 48 50 0 0
1.5303 3.3624 0.0100 0.903 0.301 -0.307 56 55 57 0 0
1.5289 3.3777 0.0216 0.132 0.796 -0.591 46 45 50 0 0
1.3258 3.5000 0.0699 -0.032 0.804 -0.594 33 31 34 0 0
1.5499 3.4019 0.0410 0.158 0.554 -0.817 45 45 47 0 0
1.5594 3.3909 0.0410 0.251 0.461 -0.851 47 46 51 0 0
1.5964 3.3923 0.0609 0.533 0.442 -0.721 20 18 21 0 0
1.6152 3.3860 0.0720 0.941 0.268 -0.208 54 52 55 0 0
1.6193 3.3888 0.0845 0.837 0.410 -0.362 51 50 52 0 0
1.4435 2.9908 0.2059 0.436 -0.477 -0.763 38 36 39 0 0
1.4356 3.5442 0.1242 -0.062 0.889 -0.454 33 31 34 0 0
1.4378 2.9899 0.2217 0.307 -0.234 -0.922 40 38 41 0 0
1.6427 3.4590 0.1226 0.703 0.481 -0.524 37 37 38 0 0
1.6507 3.4476 0.1229 0.703 0.481 -0.524 21 21 21 0 0
1.4412 2.9787 0.2520 0.989 0.034 -0.145 31 31 33 0 0
1.4353 3.5804 0.1884 -0.014 0.962 -0.273 37 35 40 0 0
1.7229 3.4343 0.1509 0.365 0.536 -0.761 67 65 67 0 0
1.4470 3.5856 0.1990 0.000 0.978 -0.208 29 29 33 0 0
1.7354 3.4400 0.1609 0.365 0.536 -0.761 66 66 67 0 0
1.7510 3.4468 0.1700 0.335 0.493 -0.803 22 22 24 0 0
1.6183 3.1273 0.2580 0.919 -0.389 0.064 48 48 50 0 0
1.3163 3.6059 0.2534 -0.113 0.919 -0.377 48 49 53 0 0
1.3735 3.6089 0.2398 0.001 0.891 -0.454 37 38 41 0 0
1.7305 3.4971 0.1793 0.705 0.548 -0.450 24 23 28 0 0
1.7391 3.4860 0.1793 0.705 0.548 -0.450 16 16 19 0 0
1.7593 3.4650 0.1786 0.891 0.412 -0.191 10 10 13 0 0
1.6227 3.1449 0.2680 0.257 -0.453 -0.853 24 24 26 0 0
1.4500 3.6055 0.2373 -0.014 0.741 -0.672 65 66 66 0 0
1.5038 3.5939 0.2271 0.101 0.640 -0.762 43 43 45 0 0
1.5364 3.5899 0.2204 0.666 -0.176 -0.725 37 36 38 0 0
1.6925 3.2158 0.2533 -0.094 0.068 -0.993 10 11 13 0 0
1.6874 3.1706 0.2628 0.269 -0.549 -0.791 15 15 17 0 0
1.5369 2.9502 0.3375 0.671 0.266 -0.692 26 27 31 0 0
1.5397 3.5925 0.2332 0.504 -0.358 -0.786 37 37 39 0 0
1.7513 3.5348 0.1952 0.920 0.205 -0.333 31 31 34 0 0
1.7519 3.5210 0.1976 0.786 0.431 -0.443 45 45 47 0 0
1.7539 3.4799 0.2047 0.878 0.108 -0.467 18 18 21 0 0
1.5568 3.5994 0.2421 0.420 -0.472 -0.775 28 28 30 0 0
1.7579 3.5245 0.2093 0.825 0.032 -0.564 50 50 50 0 0
1.7717 3.2334 0.2599 -0.106 0.195 -0.975 24 24 26 0 0
1.5686 3.6047 0.2524 0.674 -0.288 -0.681 26 26 28 0 0
1.4791 3.6350 0.2819 0.067 0.994 -0.088 34 32 36 0 0
1.5730 3.6077 0.2649 0.861 -0.468 -0.201 37 37 39 0 0
1.7685 3.5031 0.2385 0.906 0.042 -0.422 17 15 20 0 0
1.7630 3.4873 0.2427 0.898 0.268 -0.349 12 12 14 0 0
1.7812 3.4656 0.2425 0.636 0.461 -0.618 18 18 20 0 0
1.3601 3.6433 0.3227 -0.198 0.954 -0.227 61 59 60 0 0
1.7730 3.5061 0.2507 0.735 0.079 -0.673 15 13 18 0 0
1.7885 3.4849 0.2648 0.690 0.422 -0.588 11 11 13 0 0
1.7959 3.4734 0.2652 0.690 0.422 -0.588 11 11 13 0 0
1.8103 3.4644 0.2634 0.603 0.366 -0.709 12 12 15 0 0
1.8138 3.4516 0.2650 0.542 0.572 -0.616 13 12 16 0 0
1.6334 3.6172 0.2909 0.183 -0.231 -0.956 39 39 41 0 0
1.7939 3.5160 0.2715 0.978 0.074 -0.196 18 18 21 0 0
1.7941 3.4882 0.2767 0.714 0.642 -0.279 12 12 14 0 0
1.8131 3.4807 0.2735 0.934 0.300 -0.193 11 11 13 0 0
1.8217 3.4558 0.2762 0.776 0.543 -0.321 11 10 14 0 0
1.8281 3.4440 0.2768 0.881 0.404 -0.246 11 10 14 0 0
1.8338 3.4321 0.2777 0.881 0.404 -0.246 12 10 14 0 0
1.7991 3.5191 0.2835 0.879 0.061 -0.473 66 66 68 0 0
1.7984 3.5050 0.2863 0.711 0.251 -0.657 56 56 58 0 0
1.8050 3.4933 0.2869 0.736 0.446 -0.509 25 25 27 0 0
1.8094 3.3149 0.3475 -0.013 0.895 -0.447 19 19 21 0 0
1.6196 3.0550 0.4435 0.739 -0.642 -0.207 32 32 34 0 0
1.8077 3.2729 0.3700 0.997 -0.032 -0.075 22 22 24 0 0
1.6251 3.0585 0.4559 0.782 -0.600 -0.168 32 32 34 0 0
1.8329 3.5914 0.3167 0.287 0.681 -0.674 36 36 38 0 0
1.8381 3.5656 0.3204 0.429 0.085 -0.899 27 27 29 0 0
1.8355 3.5509 0.3238 0.474 -0.082 -0.877 19 19 21 0 0
1.8370 3.5375 0.3260 0.598 0.080 -0.798 17 17 19 0 0
1.7989 3.3138 0.3784 0.073 0.993 0.097 13 13 15 0 0
1.5807 3.0276 0.4874 0.952 -0.006 -0.305 36 36 38 0 0
1.7931 3.5938 0.3400 0.586 0.449 -0.675 25 25 27 0 0
1.8439 3.5413 0.3374 0.730 0.061 -0.681 13 13 15 0 0
1.8512 3.5299 0.3378 0.399 0.319 -0.860 13 13 15 0 0
1.5676 3.0387 0.5031 0.820 0.155 -0.551 32 32 34 0 0
1.5859 3.0309 0.5001 0.954 -0.141 -0.263 35 35 37 0 0
1.4078 3.6867 0.4327 -0.173 0.969 -0.175 60 59 62 0 0
1.8316 3.6077 0.3415 0.602 0.108 -0.791 18 18 20 0 0
1.8700 3.5652 0.3401 0.832 0.373 -0.411 22 21 24 0 0
1.8757 3.5533 0.3409 0.832 0.373 -0.411 19 19 21 0 0
1.8815 3.5415 0.3418 0.832 0.373 -0.411 14 14 16 0 0
1.5761 3.0433 0.5147 0.887 -0.152 -0.436 32 32 34 0 0
1.5627 3.0082 0.5249 0.514 0.858 -0.012 44 43 46 0 0
1.8504 3.6153 0.3491 0.578 0.801 0.156 23 23 24 0 0
1.8741 3.5404 0.3576 0.820 0.535 -0.204 16 16 18 0 0
1.8844 3.5301 0.3570 0.782 0.413 -0.467 15 15 17 0 0
1.8267 3.3137 0.4136 0.452 0.880 -0.149 47 47 49 0 0
1.8404 3.3044 0.4119 0.736 0.576 -0.355 49 49 51 0 0
1.8827 3.5447 0.3684 0.776 0.309 -0.549 18 18 20 0 0
1.8404 3.3058 0.4257 0.700 0.692 0.179 54 54 56 0 0
1.5162 3.7096 0.4439 -0.089 0.959 -0.270 56 56 60 0 0
1.8142 3.6204 0.3850 0.167 0.985 -0.038 59 59 58 0 0
1.8475 3.2955 0.4399 0.747 0.358 0.559 46 46 48 0 0
1.8559 3.2843 0.4400 0.668 0.449 0.593 50 50 52 0 0
1.4515 3.7063 0.4756 -0.189 0.950 -0.248 64 62 66 0 0
1.8509 3.6199 0.3895 0.174 0.764 -0.621 48 47 51 0 0
1.8737 3.5998 0.3876 0.925 0.311 -0.218 46 42 47 0 0
1.8773 3.5872 0.3891 0.926 0.052 -0.374 75 70 76 0 0
1.9008 3.5537 0.3897 0.727 0.473 -0.498 54 54 56 0 0
1.9139 3.5443 0.3881 0.784 0.131 -0.607 58 58 60 0 0
1.9232 3.5198 0.3905 0.693 0.547 -0.470 29 28 31 0 0
1.9289 3.5080 0.3914 0.788 0.354 -0.503 25 23 26 0 0
1.9287 3.4941 0.3941 0.803 0.278 -0.527 26 25 27 0 0
1.8754 3.2928 0.4474 0.808 -0.290 -0.513 31 31 33 0 0
1.4685 3.7129 0.4843 -0.004 0.920 -0.393 59 57 60 0 0
1.5155 3.7127 0.4721 -0.069 0.924 -0.376 53 51 54 0 0
1.8606 3.6245 0.3999 0.202 0.806 -0.556 50 48 53 0 0
1.8782 3.5890 0.4024 0.986 -0.034 -0.165 24 22 27 0 0
1.9066 3.5570 0.4013 0.727 0.473 -0.498 44 44 46 0 0
1.9271 3.5226 0.4028 0.819 0.503 -0.276 49 48 51 0 0
1.9342 3.5112 0.4032 0.819 0.503 -0.276 42 41 44 0 0
1.9384 3.4988 0.4045 0.914 0.378 -0.148 31 31 33 0 0
1.4778 3.7174 0.4954 0.027 0.930 -0.367 65 63 64 0 0
1.5271 3.7178 0.4825 -0.069 0.924 -0.376 68 66 67 0 0
1.8627 3.6267 0.4128 -0.018 0.842 -0.539 41 39 44 0 0
1.9373 3.4998 0.4184 0.959 0.271 0.088 62 63 65 0 0
1.9391 3.4866 0.4205 0.988 0.097 0.119 39 40 42 0 0
1.9407 3.4594 0.4255 0.855 0.379 -0.355 24 24 25 0 0
1.8626 3.3758 0.4624 0.890 -0.406 0.206 29 28 32 0 0
1.4865 3.7216 0.5067 0.027 0.930 -0.367 80 78 79 0 0
1.5386 3.7228 0.4928 -0.069 0.924 -0.376 77 76 77 0 0
1.8764 3.6326 0.4219 -0.042 0.792 -0.609 31 28 33 0 0
1.9367 3.4871 0.4349 0.983 0.103 0.149 47 48 50 0 0
1.9454 3.4624 0.4375 0.858 0.234 -0.457 52 53 53 0 0
1.5923 3.0437 0.6134 0.959 -0.227 -0.168 31 32 34 0 0
1.8988 3.6413 0.4281 0.417 0.031 -0.908 33 33 37 0 0
1.5557 3.7312 0.5153 -0.067 0.939 -0.338 54 53 58 0 0
1.8599 3.6440 0.4518 0.216 0.809 -0.547 21 20 25 0 0
1.8840 3.6380 0.4465 0.931 -0.100 -0.352 26 25 31 0 0
1.8518 3.6567 0.4653 0.210 0.827 -0.521 30 30 32 0 0
1.8922 3.6558 0.4546 0.970 -0.240 0.031 26 25 28 0 0
1.9181 3.5680 0.4653 0.957 0.275 -0.091 13 12 17 0 0
1.9362 3.5189 0.4703 0.808 0.227 -0.544 9 9 11 0 0
1.8691 3.4118 0.5097 0.731 -0.519 0.444 23 21 24 0 0
1.7584 3.1705 0.5878 0.320 -0.788 -0.527 21 21 23 0 0
1.4364 3.7278 0.5769 -0.235 0.922 -0.307 76 75 76 0 0
1.8528 3.3933 0.5320 0.900 -0.357 -0.251 16 16 18 0 0
1.6307 3.0338 0.6641 0.632 0.774 -0.037 38 41 41 0 0
1.4568 3.7354 0.5844 -0.240 0.923 -0.301 73 72 73 0 0
1.5591 3.7371 0.5563 0.316 0.944 -0.094 51 51 54 0 0
1.6147 3.7115 0.5464 0.055 0.519 -0.853 47 47 49 0 0
1.8790 3.5579 0.5057 0.498 0.156 -0.853 30 28 31 0 0
1.9567 3.4733 0.5018 0.490 0.656 -0.574 9 8 12 0 0
1.5047 3.7369 0.5856 -0.088 0.981 -0.173 60 61 63 0 0
1.5632 3.7400 0.5690 0.221 0.851 -0.476 53 53 56 0 0
1.9072 3.5410 0.5155 0.230 0.739 -0.633 31 31 31 0 0
1.9320 3.4939 0.5182 0.498 -0.017 -0.867 28 28 30 0 0
1.9310 3.4796 0.5214 0.528 0.590 -0.611 23 23 25 0 0
1.9496 3.4722 0.5179 0.564 0.628 -0.536 18 18 20 0 0
1.8979 3.4121 0.5441 0.422 -0.591 -0.687 10 10 12 0 0
1.8837 3.3929 0.5519 0.422 -0.591 -0.687 10 10 12 0 0
1.8481 3.3376 0.5728 0.411 -0.479 -0.775 11 11 13 0 0
1.5594 3.7405 0.5843 0.292 0.477 -0.829 52 52 55 0 0
1.9015 3.5683 0.5255 0.627 0.315 -0.713 52 52 52 0 0
1.9547 3.5031 0.5241 0.546 -0.118 -0.829 31 31 33 0 0
1.9584 3.4905 0.5256 0.790 0.256 -0.558 33 33 35 0 0
1.9732 3.4817 0.5234 0.621 0.767 -0.161 32 32 34 0 0
1.5622 3.7430 0.5975 0.264 0.791 -0.552 64 65 67 0 0
1.9002 3.5693 0.5396 0.916 0.388 -0.103 22 22 24 0 0
1.9586 3.4920 0.5392 0.872 0.461 -0.162 25 25 27 0 0
1.5713 3.7473 0.6085 0.245 0.861 -0.445 63 63 65 0 0
1.8546 3.6666 0.5463 0.197 0.961 -0.195 27 27 29 0 0
1.9245 3.5373 0.5534 0.661 0.746 0.088 41 41 43 0 0
1.9656 3.4819 0.5533 0.411 0.840 -0.354 42 42 44 0 0
1.5773 3.7507 0.6206 0.291 0.879 -0.378 54 52 55 0 0
1.9267 3.6636 0.5408 0.915 0.388 -0.109 39 38 41 0 0
1.9265 3.6787 0.5517 0.770 0.607 0.199 26 24 27 0 0
1.9730 3.5703 0.5610 0.949 -0.051 0.312 9 9 11 0 0
1.8084 3.1708 0.6897 0.478 -0.851 -0.217 24 24 26 0 0
1.8671 3.6889 0.5803 0.245 0.392 -0.887 31 31 33 0 0
1.9178 3.6774 0.5683 0.729 0.555 -0.401 28 26 29 0 0
1.9262 3.6664 0.5682 0.729 0.555 -0.401 33 32 34 0 0
1.9264 3.6527 0.5710 0.845 0.355 -0.399 33 34 36 0 0
1.9739 3.5720 0.5743 0.938 -0.244 0.245 8 8 10 0 0
1.8261 3.1788 0.6975 0.489 -0.836 -0.248 23 23 25 0 0
1.9782 3.5887 0.5835 0.696 0.615 -0.370 10 9 11 0 0
1.8264 3.6930 0.6192 -0.063 0.952 -0.300 39 36 39 0 0
1.9075 3.6909 0.5964 0.573 0.805 -0.151 41 37 40 0 0
1.9321 3.6024 0.6078 0.927 0.281 -0.250 26 26 28 0 0
1.9682 3.5868 0.6007 0.617 0.609 -0.498 29 26 30 0 0
1.9760 3.5908 0.6116 0.682 0.670 -0.293 32 31 34 0 0
1.5591 3.7695 0.7089 -0.123 0.988 -0.094 61 61 61 0 0
1.9254 3.6996 0.6174 0.326 0.676 -0.661 50 48 47 0 0
1.9746 3.5918 0.6258 0.825 0.565 -0.028 21 21 23 0 0
1.6760 3.0369 0.8288 0.902 -0.383 -0.199 39 37 40 0 0
1.9647 3.6037 0.6402 0.755 0.653 -0.054 38 37 42 0 0
1.9766 3.5939 0.6388 0.811 0.536 0.236 44 43 48 0 0
1.9721 3.5938 0.6541 0.811 0.536 0.236 16 16 19 0 0
1.9700 3.5946 0.6686 0.970 0.222 0.102 11 11 13 0 0
1.9637 3.5786 0.6739 0.543 0.655 0.526 15 15 17 0 0
1.6596 3.0193 0.8822 0.950 -0.212 -0.231 38 38 40 0 0
1.9342 3.7084 0.6690 0.273 0.959 -0.074 22 22 24 0 0
1.9618 3.7034 0.6619 0.116 0.953 -0.279 25 25 27 0 0
2.0024 3.6890 0.6530 0.478 0.826 -0.298 28 28 30 0 0
1.9406 3.6278 0.6843 0.922 -0.123 -0.366 14 14 16 0 0
1.6580 3.0199 0.8976 0.987 0.063 -0.150 37 37 39 0 0
1.9743 3.6952 0.6740 0.847 0.484 0.219 36 36 38 0 0
1.8878 3.5000 0.7415 0.267 -0.171 -0.948 11 10 15 0 0
1.6670 3.0096 0.9121 0.957 -0.287 -0.040 44 44 46 0 0
1.6681 3.0113 0.9265 0.957 -0.287 -0.040 41 41 43 0 0
1.9732 3.7008 0.7292 -0.069 0.899 -0.433 30 29 32 0 0
1.9735 3.6459 0.7411 0.941 0.327 -0.087 30 30 32 0 0
1.9845 3.6357 0.7399 0.998 -0.064 0.010 20 20 22 0 0
1.9856 3.6223 0.7425 0.873 0.452 -0.183 17 17 19 0 0
1.9927 3.6108 0.7428 0.640 0.735 -0.226 27 27 29 0 0
1.9847 3.6510 0.7506 0.644 0.419 -0.640 24 24 26 0 0
1.9922 3.6397 0.7508 0.644 0.419 -0.640 28 28 30 0 0
1.9808 3.5944 0.7641 0.967 0.244 -0.072 11 11 13 0 0
1.9838 3.5816 0.7660 0.986 0.087 -0.145 18 18 20 0 0
1.9962 3.6425 0.7631 0.685 0.642 -0.344 11 11 13 0 0
1.9726 3.5793 0.7841 0.604 0.275 0.748 16 16 18 0 0
1.9886 3.5707 0.7811 0.695 0.185 0.695 15 15 17 0 0
1.9991 3.6449 0.7757 0.977 -0.203 0.061 9 9 11 0 0
1.9526 3.7278 0.7861 0.257 0.966 0.006 20 19 21 0 0
1.9760 3.7215 0.7803 0.275 0.958 0.083 28 28 30 0 0
2.0155 3.6928 0.7742 0.954 0.260 -0.149 22 22 24 0 0
1.8331 3.7338 0.8365 0.512 0.524 0.681 31 31 33 0 0
1.9998 3.7167 0.7880 0.700 0.695 -0.166 38 38 40 0 0
2.0026 3.7039 0.7899 0.802 0.596 -0.026 36 36 38 0 0
2.0101 3.6926 0.7900 0.898 0.272 -0.346 32 32 34 0 0
2.0190 3.6680 0.7927 0.386 -0.032 -0.922 21 21 23 0 0
2.0155 3.6531 0.7971 0.253 -0.417 -0.873 16 16 18 0 0
1.9966 3.7173 0.8030 0.780 0.626 -0.018 41 41 43 0 0
2.0054 3.7063 0.8026 0.780 0.626 -0.018 37 37 39 0 0
2.0141 3.6954 0.8023 0.780 0.626 -0.018 35 35 37 0 0
2.0172 3.6827 0.8041 0.892 0.445 -0.084 30 30 32 0 0
2.0105 3.6668 0.8098 0.891 0.186 -0.414 23 23 25 0 0
2.0129 3.6538 0.8119 0.898 0.135 -0.418 17 17 19 0 0
2.0101 3.6391 0.8160 0.883 -0.062 -0.466 13 13 15 0 0
1.9635 3.6099 0.8371 0.354 -0.324 -0.877 12 12 14 0 0
2.0094 3.7091 0.8149 0.554 0.396 -0.732 43 43 45 0 0
2.0138 3.6693 0.8223 0.786 -0.221 -0.577 33 33 35 0 0
2.0166 3.6427 0.8273 0.857 -0.034 -0.514 21 21 23 0 0
2.0091 3.6125 0.8364 0.810 -0.258 -0.527 16 16 18 0 0
2.0185 3.7135 0.8251 0.726 0.488 -0.486 44 44 46 0 0
2.0294 3.7032 0.8239 0.893 0.203 -0.401 42 42 44 0 0
2.0484 3.6422 0.8456 0.784 0.499 -0.370 36 36 38 0 0
2.0111 3.5883 0.8696 0.810 0.202 -0.550 33 33 35 0 0
2.0247 3.5790 0.8673 0.997 -0.081 0.008 32 32 34 0 0
1.7323 3.0821 1.0721 0.473 -0.855 -0.212 26 25 30 0 0
2.0499 3.6442 0.8589 0.797 0.564 -0.216 33 33 35 0 0
2.0274 3.6091 0.8740 0.908 -0.398 -0.134 27 27 29 0 0
1.9990 3.5857 0.8884 0.846 0.324 0.423 24 24 26 0 0
2.0337 3.7228 0.8606 0.599 0.489 -0.634 23 25 25 0 0
2.0392 3.7397 0.8691 0.661 0.529 -0.532 22 21 21 0 0
2.0457 3.7281 0.8696 0.730 0.467 -0.500 21 22 21 0 0
2.0503 3.7022 0.8740 0.866 0.350 -0.357 17 17 19 0 0
1.6452 2.9601 1.1735 0.942 0.336 0.011 41 41 43 0 0
2.0218 3.7495 0.8867 0.671 0.729 0.133 34 29 33 0 0
2.0415 3.7420 0.8820 0.704 0.709 0.045 26 23 27 0 0
2.0503 3.7311 0.8816 0.776 0.627 -0.062 24 23 26 0 0
2.0555 3.6779 0.8919 0.840 0.445 -0.310 13 13 15 0 0
2.0244 3.7518 0.8995 0.570 0.814 0.110 32 28 33 0 0
2.0295 3.7397 0.9006 0.800 0.514 -0.308 38 35 40 0 0
2.0359 3.7280 0.9012 0.734 0.585 -0.344 36 34 39 0 0
2.0505 3.7190 0.8984 0.803 0.584 0.123 31 31 34 0 0
2.0068 3.6359 0.9317 0.839 0.227 0.495 11 11 13 0 0
2.0538 3.6666 0.9235 0.935 -0.257 -0.244 15 15 17 0 0
1.9975 3.5645 0.9654 0.667 0.304 -0.680 10 10 12 0 0
2.0457 3.7341 0.9249 0.605 0.791 -0.090 33 33 34 0 0
2.0579 3.7243 0.9231 0.714 0.692 -0.107 29 29 31 0 0
2.0670 3.7135 0.9226 0.752 0.646 -0.129 33 33 35 0 0
2.0624 3.6983 0.9276 0.990 0.137 0.034 34 34 36 0 0
2.0538 3.6542 0.9406 0.347 0.236 -0.908 19 19 21 0 0
2.0426 3.7347 0.9401 0.480 0.807 -0.345 33 33 33 0 0
2.0582 3.7259 0.9369 0.738 0.670 -0.082 32 32 34 0 0
2.0633 3.7138 0.9380 0.836 0.486 -0.254 33 33 35 0 0
2.0693 3.7020 0.9386 0.771 0.535 -0.346 35 35 37 0 0
2.0769 3.6907 0.9387 0.733 0.506 -0.454 32 32 34 0 0
2.0610 3.6718 0.9484 0.733 -0.191 -0.653 32 32 34 0 0
2.0723 3.6617 0.9469 0.343 0.537 -0.771 34 34 36 0 0
2.0804 3.6506 0.9467 0.495 0.561 -0.664 32 32 34 0 0
2.0507 3.6270 0.9621 0.428 0.631 -0.647 31 31 33 0 0
1.5865 2.9429 1.2744 0.939 -0.335 0.071 36 36 38 0 0
2.0265 3.7448 0.9574 0.318 0.664 -0.677 33 33 33 0 0
2.0405 3.7355 0.9549 0.318 0.664 -0.677 32 32 32 0 0
2.0545 3.7262 0.9523 0.710 0.498 -0.498 37 37 39 0 0
2.0621 3.7149 0.9523 0.873 0.283 -0.396 51 51 53 0 0
2.0618 3.7011 0.9556 0.901 -0.359 0.246 41 41 43 0 0
2.0637 3.6742 0.9612 0.507 -0.253 -0.824 30 30 32 0 0
2.0799 3.6657 0.9577 0.458 0.594 -0.661 28 28 30 0 0
2.0597 3.6314 0.9724 0.541 0.593 -0.596 29 29 31 0 0
2.0525 3.5874 0.9849 0.546 -0.534 -0.646 33 33 35 0 0
2.0130 3.5600 1.0045 0.304 0.502 0.809 33 33 35 0 0
1.9119 3.2956 1.0994 0.754 0.046 0.656 39 38 41 0 0
1.5856 2.9439 1.2901 0.939 -0.335 0.071 35 35 37 0 0
1.9157 3.7534 1.0071 -0.091 0.983 -0.162 53 53 53 0 0
2.0316 3.7480 0.9692 0.264 0.745 -0.612 34 34 34 0 0
2.0479 3.7393 0.9657 0.287 0.711 -0.642 48 48 48 0 0
2.0600 3.7295 0.9639 0.642 0.486 -0.593 45 45 46 0 0
2.0921 3.6712 0.9665 0.541 0.700 -0.467 36 36 38 0 0
1.9172 3.2843 1.1151 0.573 0.742 0.348 37 37 39 0 0
2.0413 3.7525 0.9792 0.215 0.786 -0.579 23 23 24 0 0
2.0939 3.6732 0.9797 0.767 0.640 0.039 13 13 15 0 0
1.9595 3.5023 1.0650 0.286 0.485 0.826 24 23 26 0 0
2.0511 3.7571 0.9890 0.140 0.797 -0.587 24 24 27 0 0
2.0671 3.7484 0.9856 0.491 0.693 -0.528 20 19 23 0 0
2.0941 3.6747 0.9935 0.705 0.702 -0.097 11 11 13 0 0
1.9408 3.7796 1.0359 0.120 0.731 -0.672 19 19 21 0 0
2.0770 3.6706 1.0146 0.946 -0.127 0.299 11 11 13 0 0
1.9305 3.2932 1.1530 0.133 -0.179 -0.975 30 30 32 0 0
1.9547 3.7716 1.0474 -0.130 0.931 -0.341 21 21 23 0 0
2.0734 3.7671 1.0076 0.376 0.474 -0.796 28 28 30 0 0
2.0199 3.7794 1.0375 -0.129 0.938 -0.323 28 28 32 0 0
2.0395 3.7443 1.0390 0.495 0.750 0.438 39 39 41 0 0
2.0782 3.7427 1.0259 0.959 0.229 0.164 39 39 41 0 0
2.0790 3.7293 1.0288 0.979 0.107 0.176 38 38 40 0 0
2.0690 3.7123 1.0363 0.774 0.629 -0.065 35 35 37 0 0
2.0781 3.7015 1.0356 0.761 0.613 -0.212 26 26 28 0 0
2.0802 3.6884 1.0380 0.853 0.164 -0.496 14 14 16 0 0
2.0262 3.7416 1.0586 0.495 0.750 0.438 40 40 42 0 0
2.0780 3.7305 1.0432 0.993 0.099 0.064 37 37 39 0 0
2.0706 3.7144 1.0495 0.900 0.423 0.103 31 31 33 0 0
2.0245 3.7717 1.0809 0.333 0.935 0.120 38 38 40 0 0
2.0118 3.6707 1.1093 0.723 -0.554 0.412 39 39 41 0 0
1.9634 3.7698 1.1320 -0.243 0.811 -0.532 45 44 47 0 0
2.0260 3.7615 1.1117 0.575 0.166 -0.801 34 34 36 0 0
2.0181 3.7898 1.1367 -0.249 0.934 -0.255 33 32 36 0 0
2.0624 3.7759 1.1241 0.201 0.606 -0.770 26 26 28 0 0
2.0469 3.6880 1.1508 0.153 0.012 -0.988 14 14 16 0 0
2.0537 3.7885 1.1387 0.555 0.375 -0.743 39 39 41 0 0
2.0737 3.7825 1.1473 0.769 0.367 -0.524 42 42 44 0 0
2.0937 3.7337 1.1518 0.649 -0.065 -0.758 39 39 42 0 0
2.1019 3.7088 1.1549 0.553 0.008 -0.833 25 25 27 0 0
2.1067 3.6965 1.1561 0.252 0.725 -0.641 14 14 16 0 0
2.1011 3.7376 1.1627 0.947 0.270 0.175 39 39 41 0 0
2.1075 3.7258 1.1632 0.827 0.561 -0.006 33 33 35 0 0
2.0998 3.7524 1.1740 0.920 0.222 0.324 40 40 42 0 0
2.0610 3.7556 1.2020 0.654 0.716 0.243 40 39 42 0 0
2.0741 3.7459 1.1995 0.500 0.849 0.169 41 40 45 0 0
2.1113 3.6330 1.2134 0.708 -0.408 0.577 36 36 38 0 0
1.5383 2.8691 1.6109 0.944 0.309 0.113 35 35 37 0 0
2.0557 3.7846 1.2259 0.335 0.836 -0.435 38 38 40 0 0
1.9515 3.8099 1.2731 0.135 -0.166 -0.977 53 51 54 0 0
1.6352 3.9053 1.3983 0.031 0.997 -0.067 95 94 91 0 0
2.0299 3.8228 1.2699 0.342 0.860 -0.380 22 20 23 0 0
2.0621 3.8051 1.2622 -0.208 0.820 -0.533 32 30 33 0 0
2.0162 3.8341 1.2869 0.989 -0.139 -0.051 25 23 26 0 0
2.0328 3.8253 1.2828 0.392 0.767 -0.508 24 22 25 0 0
2.0877 3.8007 1.2681 -0.054 0.939 -0.341 31 29 32 0 0
2.1220 3.7425 1.2697 0.033 0.894 -0.447 33 32 37 0 0
1.9909 3.8281 1.3127 0.857 0.180 0.483 36 36 37 0 0
2.0393 3.8289 1.2941 0.228 0.916 -0.331 35 35 35 0 0
2.0937 3.4248 1.3743 0.198 0.432 -0.880 45 45 47 0 0
2.0764 3.4042 1.3861 0.810 -0.424 0.404 50 50 52 0 0
2.0697 3.3873 1.3929 0.782 -0.423 0.457 53 53 55 0 0
1.9646 3.8497 1.3321 0.441 0.876 0.194 49 49 51 0 0
1.9994 3.8323 1.3232 0.853 0.485 0.192 48 48 48 0 0
2.0287 3.8272 1.3132 0.221 0.973 -0.063 46 46 46 0 0
2.1327 3.7902 1.2827 0.912 0.402 0.076 47 47 48 0 0
2.1393 3.7785 1.2831 0.951 0.267 0.154 46 46 48 0 0
2.1426 3.7658 1.2851 0.951 0.267 0.154 42 42 44 0 0
2.1179 3.7304 1.3034 0.624 0.195 -0.757 29 29 31 0 0
2.1240 3.7185 1.3040 0.522 0.106 -0.846 21 21 23 0 0
2.0580 3.3699 1.4167 0.903 -0.065 0.425 38 38 40 0 0
2.0607 3.3564 1.4190 0.976 0.166 0.142 42 42 44 0 0
2.0280 3.8148 1.3313 0.204 0.968 0.148 48 48 48 0 0
2.0440 3.8058 1.3274 0.136 0.990 0.028 45 47 46 0 0
2.0789 3.8026 1.3148 0.509 0.845 0.161 44 46 45 0 0
2.1277 3.7902 1.2992 0.889 0.410 0.202 45 46 47 0 0
2.1330 3.7781 1.3002 0.887 0.441 -0.138 44 44 46 0 0
2.1278 3.7489 1.3096 0.597 0.768 0.231 38 38 40 0 0
2.1260 3.7345 1.3139 0.552 0.236 -0.800 33 33 35 0 0
2.1315 3.7224 1.3148 0.720 -0.077 -0.690 30 30 32 0 0
2.1948 3.6877 1.2992 0.546 -0.607 -0.578 34 34 36 0 0
2.0526 3.3693 1.4339 0.954 0.228 0.195 48 48 51 0 0
2.0411 3.3359 1.4467 0.897 0.243 0.370 41 41 43 0 0
2.0729 3.8162 1.3284 0.095 0.955 -0.283 44 46 46 0 0
2.0737 3.8026 1.3315 0.509 0.845 0.161 44 46 45 0 0
2.1170 3.8022 1.3149 0.453 0.846 0.283 44 46 46 0 0
2.1198 3.7893 1.3171 0.737 0.614 0.284 45 45 47 0 0
2.1145 3.7738 1.3230 0.708 0.665 0.239 43 43 45 0 0
2.1644 3.6095 1.3452 0.859 -0.460 0.223 39 39 41 0 0
2.1485 3.5900 1.3562 0.817 -0.565 0.116 42 41 43 0 0
2.0584 3.7994 1.3529 0.044 0.258 -0.965 36 36 38 0 0
2.1222 3.8053 1.3267 0.448 0.867 0.220 37 37 39 0 0
2.1195 3.7631 1.3384 0.835 -0.371 0.407 40 41 43 0 0
2.2036 3.6797 1.3269 0.711 -0.699 -0.076 36 36 38 0 0
2.1845 3.6595 1.3394 0.877 -0.204 0.435 35 35 37 0 0
2.1681 3.6261 1.3542 0.843 -0.321 0.431 29 29 31 0 0
2.0950 3.8261 1.3466 -0.088 0.449 -0.889 35 35 37 0 0
2.1519 3.6361 1.3726 0.784 -0.159 0.600 12 12 14 0 0
2.0795 3.8229 1.3682 0.616 -0.486 -0.620 37 37 39 0 0
2.0960 3.8295 1.3747 0.925 -0.285 -0.252 37 37 39 0 0
2.0910 3.8142 1.3805 0.832 -0.456 -0.314 27 27 29 0 0
2.0897 3.3752 1.4932 0.814 -0.533 -0.229 56 54 56 0 0
2.1153 3.8369 1.3798 0.951 0.198 0.237 36 36 38 0 0
2.1172 3.8237 1.3825 0.825 0.500 -0.264 25 25 27 0 0
2.1220 3.8114 1.3837 0.833 0.320 -0.452 24 23 28 0 0
2.1112 3.8372 1.3961 0.877 0.478 0.044 35 35 37 0 0
2.1182 3.8256 1.3963 0.689 0.538 -0.485 25 25 27 0 0
2.1177 3.8270 1.4108 0.788 0.613 -0.056 42 42 44 0 0
2.1279 3.8026 1.4130 0.774 0.355 -0.525 40 40 43 0 0
2.2059 3.7168 1.4040 0.977 -0.202 -0.061 35 35 37 0 0
2.1962 3.6998 1.4123 0.725 -0.411 -0.553 30 30 32 0 0
2.1423 3.4416 1.5003 0.628 -0.351 -0.695 49 48 51 0 0
1.9924 3.8463 1.4707 0.190 0.975 0.114 48 48 50 0 0
2.1258 3.8173 1.4248 0.734 0.030 -0.679 48 47 52 0 0
2.2072 3.7187 1.4176 0.982 -0.127 -0.139 16 16 18 0 0
2.1493 3.5453 1.4857 0.974 -0.222 -0.038 41 40 45 0 0
2.1475 3.4592 1.5087 0.888 0.050 -0.457 38 36 39 0 0
2.0949 3.8232 1.4504 0.418 0.871 0.258 41 40 45 0 0
2.1543 3.8138 1.4289 0.779 0.626 -0.045 44 44 47 0 0
2.1372 3.4425 1.5321 0.930 -0.053 0.364 37 35 38 0 0
2.1449 3.7710 1.4586 0.673 -0.411 0.615 41 41 43 0 0
2.1429 3.7565 1.4632 0.697 -0.137 0.704 41 41 43 0 0
2.1249 3.5111 1.5343 0.830 0.273 0.486 19 19 21 0 0
2.1240 3.6555 1.5269 0.733 0.257 -0.630 12 12 14 0 0
2.1275 3.6426 1.5288 0.748 0.000 -0.664 12 12 14 0 0
2.1533 3.4681 1.5790 0.536 -0.662 -0.524 25 24 28 0 0
2.1148 3.6836 1.5531 -0.189 0.771 -0.608 11 11 13 0 0
2.1401 3.4648 1.6004 0.352 -0.497 -0.793 45 43 48 0 0
1.9287 3.8951 1.5892 0.803 0.444 -0.398 22 22 24 0 0
2.1604 3.4303 1.6162 0.844 -0.384 0.375 53 53 56 0 0
1.9023 3.9173 1.6095 0.257 0.791 -0.555 48 47 52 0 0
1.9183 3.9078 1.6053 0.347 0.825 -0.447 44 43 47 0 0
1.9224 3.8949 1.6070 0.665 0.674 -0.321 38 38 40 0 0
2.1501 3.4279 1.6362 0.821 -0.266 0.506 34 34 36 0 0
2.1457 3.3829 1.6500 0.984 0.015 -0.176 26 27 29 0 0
1.8962 3.9173 1.6272 0.438 0.829 -0.349 61 59 62 0 0
1.9149 3.8945 1.6255 0.463 0.742 -0.484 50 50 52 0 0
2.0332 3.8590 1.5855 -0.040 0.905 -0.424 35 35 37 0 0
2.1484 3.3852 1.6634 0.977 0.138 -0.162 19 20 22 0 0
1.8957 3.9188 1.6423 0.595 0.802 0.043 61 59 62 0 0
1.9098 3.9088 1.6390 0.611 0.783 0.118 59 58 61 0 0
2.0128 3.8686 1.6066 0.010 0.938 -0.346 48 47 50 0 0
2.1068 3.8549 1.5708 -0.141 0.966 -0.217 46 46 49 0 0
2.0176 3.8716 1.6188 0.199 0.980 -0.022 52 51 56 0 0
2.0533 3.8543 1.6084 -0.040 0.998 -0.051 51 50 55 0 0
2.1354 3.8374 1.5784 0.441 0.882 -0.163 46 45 50 0 0
2.0239 3.8611 1.6341 0.059 0.997 -0.053 53 52 57 0 0
2.1225 3.8489 1.5956 0.168 0.985 0.047 46 45 50 0 0
2.1600 3.8050 1.5916 0.323 0.933 0.162 43 42 47 0 0
2.1946 3.5069 1.6569 0.968 -0.215 -0.126 17 17 19 0 0
2.1729 3.4848 1.6720 0.880 -0.341 0.331 16 16 18 0 0
2.1624 3.4667 1.6813 0.807 -0.550 0.213 16 16 18 0 0
2.1448 3.4459 1.6943 0.807 -0.550 0.213 16 16 18 0 0
2.1575 3.4361 1.6916 0.886 -0.054 0.461 15 15 17 0 0
2.1334 3.8400 1.6084 0.285 0.959 0.013 47 46 51 0 0
2.1729 3.4574 1.6946 0.602 -0.785 -0.147 15 15 17 0 0
1.9310 3.9075 1.6914 0.746 0.208 -0.632 53 53 55 0 0
2.0404 3.8709 1.6697 0.083 0.903 -0.422 36 36 38 0 0
1.8012 3.9309 1.7716 0.009 0.827 -0.563 53 52 57 0 0
1.8189 3.9216 1.7664 0.104 0.859 -0.501 44 43 48 0 0
1.8556 3.9177 1.7517 0.098 0.754 -0.649 37 37 40 0 0
2.0251 3.8820 1.6885 0.163 0.883 -0.440 36 36 38 0 0
2.1380 3.8461 1.6496 0.109 0.644 -0.757 34 34 36 0 0
2.2528 3.6037 1.6660 0.910 0.154 -0.386 12 12 14 0 0
2.0640 3.8951 1.6832 0.320 0.930 -0.179 26 25 28 0 0
1.9853 3.9017 1.7307 0.211 0.922 -0.326 36 36 38 0 0
2.1736 3.3338 1.8041 0.883 -0.399 0.247 15 15 17 0 0
1.8505 3.9499 1.7916 0.390 0.909 0.145 50 48 53 0 0
1.9586 3.9098 1.7554 0.334 0.934 0.130 56 56 58 0 0
2.1131 3.8851 1.6948 0.129 0.981 -0.145 28 27 32 0 0
2.2426 3.7028 1.6883 0.731 0.191 -0.655 16 14 19 0 0
2.2486 3.6908 1.6890 0.581 -0.148 -0.801 13 11 16 0 0
2.2517 3.6778 1.6912 0.703 0.211 -0.679 14 13 17 0 0
2.2376 3.5744 1.7257 0.796 0.039 0.604 30 29 32 0 0
1.9583 3.9114 1.7705 0.472 0.852 0.225 59 59 61 0 0
2.1526 3.8151 1.7118 0.150 0.988 -0.030 42 43 47 0 0
2.2362 3.6037 1.7333 0.833 -0.051 0.551 28 26 29 0 0
1.9128 3.9424 1.7973 0.245 0.910 -0.333 47 47 49 0 0
1.9270 3.9324 1.7938 0.415 0.899 -0.140 45 44 47 0 0
2.1541 3.8172 1.7257 0.197 0.975 -0.106 44 44 49 0 0
2.2137 3.8079 1.7020 0.377 0.926 0.030 40 41 45 0 0
2.2116 3.6109 1.7573 0.744 0.080 0.663 18 18 20 0 0
2.2203 3.5996 1.7565 0.828 -0.004 0.561 14 13 16 0 0
2.2068 3.5808 1.7677 0.705 0.262 0.659 12 12 14 0 0
2.2456 3.4515 1.7863 0.787 -0.548 0.281 11 11 13 0 0
2.2280 3.4307 1.7997 0.770 -0.511 0.382 13 13 15 0 0
1.5960 4.0160 1.9323 0.011 0.485 -0.874 59 59 61 0 0
1.6193 4.0075 1.9244 -0.039 0.445 -0.895 76 76 78 0 0
1.9086 3.9430 1.8144 0.213 0.723 -0.657 57 57 59 0 0
1.9177 3.9314 1.8136 0.340 0.645 -0.684 53 52 55 0 0
1.9361 3.9225 1.8079 0.481 0.747 -0.459 48 47 52 0 0
1.9535 3.9134 1.8028 0.399 0.872 -0.285 45 44 49 0 0
2.0742 3.8923 1.7553 0.227 0.974 0.003 51 50 55 0 0
2.1066 3.8880 1.7422 0.327 0.945 0.029 51 50 55 0 0
2.1284 3.8805 1.7346 0.390 0.918 0.068 47 46 51 0 0
2.1482 3.8726 1.7280 0.390 0.918 0.068 47 46 51 0 0
2.1646 3.8637 1.7233 0.434 0.901 -0.002 48 47 52 0 0
2.1774 3.8259 1.7280 0.757 0.643 0.113 45 45 50 0 0
2.1534 3.7625 1.7562 0.648 0.331 0.686 39 40 44 0 0
2.1590 3.7502 1.7571 0.621 0.328 0.712 37 38 41 0 0
1.9276 3.9359 1.8234 0.220 0.374 -0.901 54 53 57 0 0
1.9372 3.9245 1.8223 0.322 0.289 -0.901 55 54 59 0 0
1.9561 3.9158 1.8163 0.412 0.631 -0.658 50 49 54 0 0
1.9880 3.9109 1.8035 0.252 0.881 -0.400 44 43 48 0 0
2.0135 3.9042 1.7941 0.268 0.961 -0.061 38 37 42 0 0
2.0743 3.8940 1.7699 0.236 0.937 -0.256 41 40 45 0 0
2.1068 3.8896 1.7567 0.617 0.750 -0.237 46 45 50 0 0
2.1186 3.8792 1.7544 0.617 0.750 -0.237 45 44 49 0 0
2.1445 3.8731 1.7446 0.373 0.927 0.045 43 42 47 0 0
2.1646 3.8653 1.7378 0.373 0.927 0.045 45 44 49 0 0
2.1635 3.8371 1.7461 0.615 0.749 -0.245 47 45 50 0 0
2.1666 3.6837 1.7873 0.448 0.469 0.761 20 20 22 0 0
1.7433 3.9865 1.9069 0.093 0.583 -0.807 70 71 74 0 0
1.9405 3.9272 1.8355 0.139 0.025 -0.990 42 41 45 0 0
2.0250 3.8952 1.8068 0.077 0.964 -0.255 40 38 43 0 0
2.0539 3.8896 1.7955 0.062 0.952 -0.300 35 34 38 0 0
2.0938 3.8874 1.7783 0.303 0.790 -0.533 34 33 38 0 0
2.1098 3.8782 1.7737 0.340 0.703 -0.625 40 39 44 0 0
2.1261 3.8691 1.7690 0.301 0.791 -0.533 31 31 35 0 0
2.1660 3.8395 1.7595 0.615 0.749 -0.245 36 35 39 0 0
2.1547 3.8081 1.7732 0.809 -0.274 0.520 38 39 42 0 0
2.1751 3.6028 1.8213 0.130 0.800 -0.586 11 11 13 0 0
2.2229 3.5907 1.8033 0.188 0.975 0.122 11 11 13 0 0
2.2205 3.5756 1.8086 0.357 0.921 0.158 11 11 13 0 0
2.2153 3.5595 1.8154 0.739 0.513 -0.436 11 11 13 0 0
2.1294 3.2508 1.9396 0.887 -0.197 0.417 36 35 40 0 0
1.7203 3.9965 1.9302 -0.005 0.247 -0.969 61 61 61 0 0
1.9761 3.9249 1.8357 0.131 0.330 -0.935 34 32 35 0 0
1.9928 3.9156 1.8308 0.137 0.779 -0.612 34 32 35 0 0
2.0105 3.9067 1.8254 0.145 0.939 -0.313 37 35 38 0 0
2.0365 3.9002 1.8156 0.152 0.978 -0.144 41 39 42 0 0
2.0643 3.8943 1.8048 0.152 0.978 -0.144 40 38 41 0 0
2.0992 3.8906 1.7902 0.285 0.943 -0.170 38 37 39 0 0
2.1174 3.8821 1.7844 0.292 0.887 -0.358 53 53 55 0 0
2.1360 3.8737 1.7785 0.183 0.900 -0.395 31 31 33 0 0
2.1535 3.8651 1.7730 0.204 0.839 -0.504 33 33 35 0 0
2.1691 3.8420 1.7725 0.412 0.670 -0.618 33 33 35 0 0
2.2414 3.5558 1.8200 0.261 -0.204 -0.944 11 11 13 0 0
2.2549 3.5463 1.8166 0.867 -0.183 0.464 11 11 13 0 0
2.2464 3.5290 1.8252 0.868 -0.218 0.445 12 10 13 0 0
2.2429 3.5134 1.8312 0.864 -0.277 0.420 12 10 13 0 0
1.7114 4.0103 1.9462 0.028 0.526 -0.850 50 50 51 0 0
1.7859 3.9730 1.9231 -0.022 0.420 -0.907 73 74 74 0 0
1.9877 3.9299 1.8445 0.304 0.886 -0.349 32 30 33 0 0
2.0062 3.9212 1.8387 0.303 0.881 -0.362 27 25 28 0 0
2.0191 3.9108 1.8357 0.250 0.941 -0.228 26 24 27 0 0
2.0635 3.8957 1.8200 0.171 0.983 -0.074 37 35 38 0 0
2.1012 3.8929 1.8039 0.341 0.937 -0.076 38 36 39 0 0
2.1188 3.8842 1.7984 0.215 0.934 -0.285 41 41 43 0 0
2.1403 3.8766 1.7908 0.130 0.938 -0.321 35 35 37 0 0
2.1775 3.8461 1.7827 0.412 0.670 -0.618 32 32 34 0 0
2.1850 3.5948 1.8497 0.999 0.044 -0.004 12 12 14 0 0
2.1952 3.5840 1.8481 0.356 0.687 0.634 12 12 14 0 0
2.2296 3.5673 1.8373 0.775 0.630 0.058 12 12 14 0 0
2.2324 3.5111 1.8518 0.873 -0.285 -0.395 25 23 26 0 0
1.7539 4.0091 1.9432 -0.086 0.557 -0.826 49 49 49 0 0
1.8493 3.9493 1.9169 0.254 0.748 -0.613 65 66 68 0 0
1.8660 3.9397 1.9121 0.254 0.748 -0.613 60 60 62 0 0
2.0111 3.9243 1.8510 0.396 0.884 0.246 41 39 44 0 0
2.0242 3.9140 1.8479 0.337 0.930 0.149 34 32 35 0 0
2.0387 3.9042 1.8441 0.330 0.930 0.160 29 27 30 0 0
2.0703 3.8994 1.8312 0.326 0.943 0.066 31 29 32 0 0
2.1006 3.8943 1.8190 0.341 0.937 -0.076 33 32 35 0 0
2.1230 3.8870 1.8109 0.215 0.934 -0.285 41 41 43 0 0
2.1480 3.8805 1.8014 0.069 0.952 -0.298 35 35 37 0 0
2.1854 3.8501 1.7931 0.432 0.643 -0.633 31 31 33 0 0
2.1837 3.6243 1.8572 0.884 0.450 0.130 15 13 16 0 0
2.1892 3.6119 1.8583 0.887 0.440 0.136 15 14 16 0 0
2.1899 3.3517 1.9310 0.872 0.217 -0.439 23 22 28 0 0
2.1942 3.3387 1.9327 0.600 0.112 -0.792 22 21 26 0 0
2.1831 3.3198 1.9430 0.429 -0.288 -0.856 24 24 27 0 0
2.1942 3.3093 1.9410 0.495 -0.370 -0.786 27 27 29 0 0
1.8742 3.9437 1.9229 0.243 0.780 -0.577 68 68 70 0 0
2.0171 3.9136 1.8666 0.284 0.948 0.146 49 48 53 0 0
2.0307 3.9035 1.8633 0.298 0.949 0.100 44 43 48 0 0
2.0555 3.8967 1.8540 0.298 0.949 0.100 36 35 40 0 0
2.0890 3.8925 1.8400 0.206 0.978 -0.042 30 29 33 0 0
2.1266 3.8897 1.8237 0.173 0.959 -0.223 39 37 41 0 0
2.1551 3.8843 1.8123 0.051 0.966 -0.255 44 43 47 0 0
2.1851 3.8794 1.8001 0.066 0.946 -0.317 36 35 39 0 0
2.1939 3.8543 1.8032 0.432 0.643 -0.633 30 29 33 0 0
1.9124 3.9420 1.9217 0.369 0.900 0.232 66 66 69 0 0
1.9596 3.9270 1.9044 0.355 0.914 0.194 62 61 66 0 0
1.9833 3.9196 1.8957 0.355 0.914 0.194 58 57 62 0 0
2.0052 3.9118 1.8879 0.240 0.971 0.012 55 54 59 0 0
2.0305 3.9051 1.8783 0.243 0.967 -0.077 53 53 57 0 0
2.0582 3.8991 1.8674 0.134 0.982 -0.134 50 50 53 0 0
2.0871 3.8936 1.8558 0.134 0.982 -0.134 43 43 45 0 0
2.1188 3.8890 1.8427 0.183 0.978 -0.103 47 45 50 0 0
2.1668 3.8894 1.8207 -0.063 0.930 -0.362 49 48 53 0 0
2.2012 3.8720 1.8100 0.191 0.842 -0.505 43 42 47 0 0
2.2046 3.6058 1.8836 0.500 0.288 -0.817 40 39 44 0 0
2.2129 3.4214 1.9319 0.478 0.227 -0.849 23 23 25 0 0
1.9786 3.9200 1.9132 0.459 0.831 0.313 64 63 69 0 0
2.0035 3.9130 1.9038 0.356 0.932 0.069 62 61 66 0 0
2.0226 3.9044 1.8976 0.280 0.952 0.123 59 58 62 0 0
2.2053 3.8609 1.8264 0.562 0.797 -0.222 46 45 50 0 0
2.2066 3.6648 1.8813 0.976 0.035 -0.213 41 41 44 0 0
2.2101 3.6376 1.8874 0.649 0.351 -0.675 44 43 47 0 0
1.9878 3.9102 1.9273 0.398 0.836 0.378 57 56 63 0 0
1.8766 3.9656 1.9783 0.427 0.890 -0.160 45 44 49 0 0
1.8871 3.9561 1.9919 0.259 0.937 0.236 43 42 47 0 0
2.0359 3.9009 1.9543 0.369 0.909 0.194 37 34 40 0 0
2.0734 3.8978 1.9378 0.339 0.916 0.214 42 40 45 0 0
2.2586 3.5745 1.9444 0.911 -0.209 0.354 16 16 18 0 0
2.1858 3.4912 2.0020 0.698 0.356 0.621 13 13 15 0 0
1.7440 2.7614 2.4165 0.621 -0.742 0.254 50 50 52 0 0
1.9932 3.9185 1.9847 0.910 0.323 0.261 32 31 36 0 0
2.0411 3.9041 1.9665 0.489 0.825 0.285 31 29 35 0 0
2.0684 3.8980 1.9555 0.464 0.865 0.191 30 29 35 0 0
2.0996 3.8931 1.9423 0.565 0.768 0.303 34 33 38 0 0
2.2626 3.5916 1.9529 0.888 0.029 0.458 13 13 15 0 0
2.0755 3.9017 1.9665 0.642 0.762 0.079 29 29 33 0 0
2.0756 3.9034 1.9814 0.419 0.786 -0.454 29 29 32 0 0
2.0868 3.8926 1.9793 0.382 0.868 -0.318 27 26 32 0 0
2.1589 3.8439 1.9595 0.992 0.014 -0.122 29 29 31 0 0
2.0392 3.9085 2.0126 0.155 0.885 -0.439 29 29 31 0 0
2.0660 3.9022 2.0018 0.129 0.897 -0.423 28 28 31 0 0
2.1372 3.8389 1.9866 0.858 -0.422 -0.293 27 27 29 0 0
2.1478 3.8280 1.9847 0.927 -0.280 -0.251 28 28 30 0 0
1.9817 3.9521 2.0585 0.443 0.873 0.206 33 33 35 0 0
1.9979 3.9425 2.0536 0.688 0.703 0.181 27 27 29 0 0
2.0772 3.9088 2.0257 0.039 0.922 -0.384 26 25 30 0 0
2.1649 3.8505 2.0009 0.930 0.219 -0.295 28 28 30 0 0
2.1972 3.7619 2.0114 0.602 -0.101 -0.792 26 26 28 0 0
2.2008 3.7489 2.0134 0.668 -0.458 -0.586 25 25 27 0 0
2.2011 3.8492 1.9994 0.650 0.439 -0.620 31 31 33 0 0
2.2343 3.6649 2.0684 0.385 -0.686 -0.617 37 38 42 0 0
2.0375 3.9323 2.1003 0.327 0.788 -0.522 53 51 56 0 0
2.1990 3.8673 2.0412 0.580 0.813 -0.043 45 44 49 0 0
2.0324 3.9467 2.1141 0.869 0.447 -0.213 44 43 48 0 0
2.0417 3.9352 2.1130 0.470 0.879 -0.082 47 45 50 0 0
2.1097 3.9126 2.0867 0.229 0.969 0.092 47 47 49 0 0
2.2204 3.6775 2.1024 -0.062 0.271 -0.961 40 41 45 0 0
2.2254 3.6649 2.1038 -0.121 0.549 -0.827 40 41 45 0 0
2.2471 3.6579 2.0953 -0.080 0.472 -0.878 40 41 45 0 0
2.0475 3.9385 2.1249 0.469 0.870 0.150 42 41 46 0 0
2.1911 3.8681 2.0757 0.394 0.889 0.234 49 48 53 0 0
2.2195 3.8487 2.0677 0.319 -0.291 -0.902 48 47 52 0 0
2.2600 3.7771 2.0691 0.615 0.526 0.588 44 43 48 0 0
2.2432 3.5719 2.1382 0.580 0.478 0.660 43 43 47 0 0
2.0495 3.9550 2.1347 0.628 0.680 0.377 42 41 46 0 0
2.2126 3.8622 2.0824 0.520 0.782 0.343 49 48 53 0 0
2.2440 3.6024 2.1444 0.991 0.105 0.082 45 44 49 0 0
1.9795 3.9510 2.1861 -0.030 0.721 -0.693 45 44 49 0 0
2.1810 3.8683 2.1117 0.307 0.942 0.139 43 42 47 0 0
2.2215 3.7252 2.1345 0.708 0.423 0.566 47 46 51 0 0
2.2446 3.6184 2.1550 0.806 0.043 -0.591 45 44 49 0 0
2.0391 3.9270 2.1797 -0.068 0.949 -0.308 46 45 50 0 0
2.0977 3.9015 2.1584 0.767 0.423 0.482 45 44 49 0 0
2.2891 3.6636 2.1351 0.349 0.789 -0.506 42 42 47 0 0
2.0761 3.9252 2.1777 0.393 0.920 0.002 44 43 49 0 0
2.0946 3.9164 2.1712 0.437 0.894 0.097 43 42 47 0 0
2.0973 3.9031 2.1738 0.858 0.297 0.419 43 42 47 0 0
2.1126 3.8651 2.1776 0.690 0.516 0.507 43 42 47 0 0
2.0282 3.9130 2.2209 0.362 0.917 0.167 45 44 50 0 0
2.0615 3.9085 2.2057 0.538 0.826 0.165 43 42 47 0 0
2.0866 3.9016 2.1953 0.895 0.435 0.093 43 42 47 0 0
2.1021 3.8777 2.1948 0.997 0.041 0.067 46 45 50 0 0
2.1004 3.8630 2.2000 0.985 -0.169 -0.032 45 44 49 0 0
2.1154 3.8692 2.2065 0.518 0.855 0.012 45 44 49 0 0
2.1424 3.8489 2.1991 0.434 0.845 -0.312 48 47 52 0 0
2.2846 3.6950 2.1745 -0.205 0.555 -0.806 41 42 46 0 0
2.1273 3.8602 2.2190 0.588 0.784 0.200 46 45 50 0 0
2.2963 3.7146 2.1783 -0.086 -0.049 -0.995 42 43 47 0 0
2.1187 3.8592 2.2394 0.561 0.761 0.325 47 46 51 0 0
2.1083 3.8577 2.2609 0.561 0.761 0.325 39 38 43 0 0
2.0995 3.8567 2.2815 0.793 0.580 0.184 27 27 31 0 0
2.0877 3.8388 2.2930 0.974 0.010 0.226 23 22 26 0 0
2.0916 3.8416 2.3060 0.993 -0.116 0.003 25 25 27 0 0
2.0487 3.8480 2.3741 -0.015 0.532 -0.847 32 32 36 0 0
2.0608 3.8678 2.3778 0.135 0.892 -0.431 42 41 46 0 0
2.0767 3.8581 2.3725 -0.028 0.802 -0.597 37 36 41 0 0
2.0284 3.8921 2.4354 0.075 0.928 -0.364 45 46 50 0 0
2.0542 3.8852 2.4240 0.262 0.960 -0.099 47 48 51 0 0
2.0806 3.8803 2.4278 0.389 0.920 -0.038 49 50 52 0 0
2.0609 3.8411 2.5479 -0.103 0.651 -0.752 46 46 48 0 0
2.0773 3.8315 2.5421 0.795 0.290 -0.533 53 53 55 0 0
2.0725 3.8608 2.5516 0.104 0.220 -0.970 48 48 48 0 0
2.2651 4.0155 2.6532 0.939 -0.343 -0.003 38 39 41 0 0
2.2310 4.0358 2.6821 0.345 0.703 -0.622 31 32 36 0 0
2.2626 4.0165 2.6704 0.920 -0.389 0.050 34 35 37 0 0
2.2428 4.0409 2.6898 0.240 0.692 -0.681 29 30 34 0 0
2.2736 4.0089 2.6989 0.831 0.424 -0.359 24 25 27 0 0
2.2392 4.0627 2.7656 0.071 0.964 -0.258 40 39 44 0 0
2.2342 4.0807 2.8114 -0.058 0.915 -0.399 47 46 51 0 0
2.2700 4.0922 2.8024 -0.253 0.738 -0.625 50 49 54 0 0
2.4961 3.8143 2.8439 0.986 0.146 -0.084 44 45 49 0 0
2.4662 3.7502 2.9170 0.869 -0.389 0.305 40 40 45 0 0
2.3968 3.8602 2.9536 0.671 0.325 0.666 34 35 39 0 0
2.2817 4.1201 3.0154 -0.182 0.636 -0.750 41 40 44 0 0
2.3012 4.1112 3.0063 0.015 0.906 -0.423 41 40 44 0 0
2.3460 4.0812 2.9890 0.929 -0.248 -0.276 41 40 45 0 0
2.3405 4.0514 3.0031 0.999 0.044 -0.021 40 39 44 0 0
2.3398 4.0670 3.0144 0.994 0.107 0.005 40 39 44 0 0
2.3413 4.0533 3.0184 0.994 0.107 0.005 40 39 44 0 0
2.4341 3.9100 3.0115 0.573 -0.814 -0.098 29 29 31 0 0
2.3590 4.1024 3.0062 0.927 0.126 -0.352 42 41 46 0 0
2.3529 4.0724 3.0208 0.911 -0.129 -0.391 40 39 44 0 0
2.3530 4.0583 3.0257 0.911 -0.129 -0.391 40 39 44 0 0
2.3194 4.2387 3.2982 -0.091 0.941 -0.326 45 45 47 0 0
2.3623 4.2356 3.2706 -0.140 0.943 -0.303 45 45 47 0 0
2.3645 4.2221 3.2742 0.081 0.984 -0.156 43 43 45 0 0
