ply
format ascii 1.0
element vertex 732
property float x
property float y
property float z
property uchar diffuse_red
property uchar diffuse_green
property uchar diffuse_blue
end_header
0.8933913137110303 3.354166586634163 1.6367306113252902 42 41 46
0.919956573906503 3.343880042124607 1.6385299267588187 35 33 38
0.9420145557082791 3.3391229065725567 1.6388622926024239 29 27 30
0.881855938194132 3.4327014307130588 1.61321152848897 27 25 28
0.864260536471184 3.47502348102109 1.6011191091619525 27 27 30
0.857273571402259 3.504528730844277 1.5924187545706643 25 26 30
0.9136941781832781 3.4588747755099214 1.603548573892848 24 25 28
0.9671037464262773 3.4171295472551777 1.613632453112957 25 26 29
1.0622709734318088 3.32663779628677 1.6365453556347043 22 23 25
1.1423718160956697 3.2544502420840082 1.654609618397379 17 18 20
1.227526288959285 3.1768965228566812 1.6740627780587993 17 18 20
1.334179287141226 3.074894561735393 1.699921777224746 18 19 19
1.4673711359415558 2.9428422889073036 1.7336486122902612 19 19 19
1.5542467268360842 2.8652649757151782 1.7530210004068134 19 19 21
1.6378969417031162 2.791976330916467 1.7712417731215662 26 25 29
1.7430767396042053 2.6945061037175018 1.795784936783654 32 32 34
0.5754763460097043 4.054674959494289 1.4379429420542253 36 36 38
0.610586704382766 4.033762650578288 1.442567223130707 35 34 39
0.6000591759134255 4.064937596337117 1.4335353551043446 36 35 39
0.621095139156981 4.060184213945487 1.4339188327663122 38 37 41
0.6094331886132458 4.1491663314970335 1.407199071836132 39 40 42
0.6353176513631604 4.139064964415496 1.4089763552886045 38 39 41
0.6650494319015583 4.124805034291345 1.411833508963563 37 38 40
0.6771429979467773 4.130227401912918 1.4095504854957246 32 33 35
0.6884314724611074 4.136554499723802 1.4070308946619434 30 31 33
0.7104285439727611 4.131107004434157 1.407578305065543 29 29 31
0.7549605981216654 4.101028163370266 1.4145347626747498 10 10 12
0.7455969568557219 4.130121250810126 1.4060824739978144 13 13 15
0.6185635719020166 4.287305048148342 1.364325719278122 18 18 20
0.6592365242355365 4.261355761873649 1.3702118143601476 21 21 23
0.6977540693073774 4.237959225933872 1.3754244778970608 17 17 19
0.7233877752472988 4.228668631550704 1.3769656899093028 14 14 16
0.7680097825568231 4.199065266007198 1.3837715838855087 15 15 17
0.79780133325999 4.185605091181953 1.3863801685639339 12 12 14
0.8261056085975371 4.173872861467876 1.3885343571798245 14 14 16
0.8749390042329883 4.1404016746199614 1.3963122503376892 13 13 15
0.898123822908723 4.134430033217706 1.3969598264576735 13 13 15
0.9201253666585933 4.129801097186337 1.3972557231660379 14 14 16
0.9331837474204108 4.134687301772388 1.3950879547419845 15 15 17
0.9521472189409261 4.1333852451335975 1.3945179120107445 17 17 19
0.9895967631845759 4.11277074330591 1.3989311496545858 19 19 21
1.0291431779301903 4.0901515478558474 1.4038525673873756 22 22 24
1.1177039607234676 4.016698030587507 1.4218728367923235 29 29 31
1.1956767931151016 3.954761111175049 1.4368991358726402 33 33 35
1.3028572380146215 3.8630644293073884 1.4595676016062074 33 33 36
1.3222111610547573 3.8625736318528867 1.4587285479824605 34 34 37
1.2521096884751466 3.9540805527093843 1.4342221916174795 38 38 40
1.254521196862539 3.9707646015402513 1.4289771277419594 46 46 48
1.2793107822850727 3.9645436610745195 1.4296191702524332 54 55 57
1.2928789541097727 3.9698384081077664 1.427299915941773 72 74 74
1.3147666398119624 3.9667123616659623 1.4271402713328702 94 96 95
1.571199047314159 3.7463207332165336 1.4816836430300353 70 70 72
2.0620627887362972 3.3365597447520927 1.5823721220659734 66 67 69
2.0651408670724454 3.354575429977087 1.5766841794241897 86 87 89
2.1157458567486174 3.325546284025407 1.5830078391685143 112 112 113
2.16100310716218 3.3020343164927315 1.5879112833926001 121 121 121
2.1842600215571077 3.300345703671941 1.5872403493503588 172 172 172
2.1300667445934183 3.3745657430659186 1.5672272841869361 175 175 175
2.0758072388468447 3.448434030200803 1.547325588317502 176 176 176
2.0229275579008297 3.520545311132429 1.527892704621557 176 176 176
2.0158504834403335 3.547835225150961 1.5198770317693353 176 176 176
1.7153186159627212 1.7924977891396205 2.0920508198069716 173 173 173
1.8127564817960495 1.7213355141303632 2.1091182135576334 173 172 173
1.6727637972251594 1.9287748552961237 2.05215775175989 157 158 159
1.5176539244716887 2.154252181829364 1.9903916055130118 93 94 96
1.391955700654943 2.340731030922683 1.9391791950305532 79 80 84
1.1388578681740287 2.7122911047968183 1.83727049746692 80 78 83
0.926161863008273 3.028240314403581 1.7504881601520026 43 42 48
0.9030339842530298 3.0802454889888264 1.7356091631312156 45 42 49
0.873999289190339 3.139352205055052 1.7188359291523083 46 43 50
1.9667541983694803 1.7992593570229471 2.077382380493905 57 55 59
1.978600417792347 1.811567305920748 2.0729942071525604 82 80 82
1.966563728441305 1.8534462364166735 2.060682694154859 75 75 75
1.9954212879269722 1.844630575561083 2.0619569017707864 54 54 55
0.8430364678363402 3.4199116439433865 1.6338714058211807 65 64 67
0.8696035845756431 3.409432070152038 1.6357733305222806 54 52 55
0.8249625526074342 3.484388143384634 1.614893783735759 43 41 44
0.8151150194300738 3.517358239085085 1.6052198649229341 33 31 36
0.8325595733931737 3.517685582864276 1.6042458887109794 28 28 31
0.8543350383715356 3.5129294601861245 1.6046227184077824 24 25 27
0.9668063599411221 3.4010375538414466 1.6334972469311686 22 23 25
1.042858565174838 3.332855225011464 1.6507160094988977 18 19 21
0.40631129863063364 4.2526884704388115 1.3989304828722715 22 22 24
0.46396987974908055 4.205453416258893 1.4106104178883214 22 22 26
0.5070756142546478 4.175114904259473 1.4178084038759509 25 24 28
0.5380704646741403 4.1587422533192395 1.4213059427004178 26 26 28
0.6011314533606849 4.1063300717258695 1.4343119407321923 25 25 27
0.596945395609876 4.129974822513317 1.4272302755692778 22 22 24
0.6021884153655253 4.142941584502468 1.4229694145489598 20 21 23
0.621116590128306 4.140577557680312 1.4227511072042747 18 18 20
0.6485528891860599 4.128801029019659 1.4250094651914476 18 18 20
0.6609514209662644 4.133851672237218 1.4228315338619917 18 18 20
0.685645069762741 4.125311845308904 1.4242290729185978 22 23 25
0.6862367231233311 4.143468860215621 1.418600514625476 27 27 29
0.7004577406162298 4.1465715624780035 1.4169320471663482 27 27 29
0.7146140389121247 4.149776184718643 1.4152353903328612 13 13 15
0.594544133940887 4.299645749920113 1.3750302450877727 11 11 13
0.6375355147794246 4.271034559476593 1.3817013123174426 13 13 15
0.6835823230124798 4.239343801319257 1.3891690908479215 14 14 16
0.721061894154222 4.217177865756176 1.3941285268794885 14 14 16
0.7568145971680433 4.197068981421149 1.3985400681825284 13 13 15
0.7831683250094967 4.187243514431929 1.400250969995953 13 13 15
0.8127848268459965 4.1740378016853406 1.4028409241057167 17 17 19
0.8502476417326259 4.152591116346979 1.4075794087021736 17 17 19
0.8764018056940883 4.143371102995192 1.4091135985636036 14 14 16
0.8996116989354264 4.137386048897728 1.4097975971699617 13 13 15
0.9200841888866671 4.134386155134436 1.409698080267787 14 14 16
0.8739087328107529 4.201702294180654 1.3912511973572328 14 14 16
0.9178278011082395 4.173985005635085 1.3976001911469331 16 16 18
0.9726548683148004 4.135076704136443 1.4068541720920642 18 18 20
1.02334037942068 4.100795085675986 1.414888725634497 19 19 21
1.1015148248315736 4.038189303982961 1.4302816781393992 27 27 29
1.1990006585220487 3.9560158033854034 1.4507421237928262 32 32 34
1.2687199483875646 3.9031279222643724 1.4635615864622813 32 31 36
1.255095708345151 3.936504106088745 1.4539514554166355 34 33 38
1.2782856153742217 3.9319122388636045 1.4542068472336565 42 41 46
1.2548751315273003 3.975105969200535 1.4420591153060598 53 53 56
1.2453312692291791 4.0039262206854005 1.4336496565295318 61 61 63
1.2785228135075097 3.989150978604213 1.4365446774390447 81 81 82
1.3149589937369512 3.9712356299110576 1.440245608404249 92 93 93
1.4035148109167654 3.9201161307737653 1.451577069134299 77 77 79
2.093831092200367 3.3102200548724268 1.605098556945666 62 63 65
2.093224113415914 3.33197959695162 1.5984191003495822 83 84 86
2.145423147005233 3.3014930524027113 1.605207648002163 109 109 109
2.190829275084651 3.2779521991105636 1.6101943626057411 101 101 101
2.266944731588168 3.2244811316819084 1.622873553705511 154 154 154
2.2123608852626058 3.299289082371216 1.6025372835771607 176 176 176
2.15321935314649 3.3781223364643758 1.5811878549185658 176 176 174
2.099786275852209 3.4509605248438433 1.5614013944964433 176 176 174
2.073128590623699 3.497446105810722 1.548401088690968 176 176 174
1.6771105696571489 1.820977155854669 2.103054538289687 173 173 173
1.760584197727539 1.7399120096843912 2.124077450177271 173 173 173
1.7502990063001607 1.7806995958204808 2.1119473240794164 174 173 173
1.8136172157551431 1.726430234304926 2.1256571448017794 174 172 173
1.6331048551436749 1.985760003335412 2.054168629859195 147 147 149
1.4813404105156176 2.206615003728742 1.9931900406419485 82 83 85
1.3625960224353406 2.3839273458387154 1.9440819769915751 85 86 90
1.2241785495734598 2.5851260066838493 1.8885383937100182 102 101 106
1.1423563978077742 2.7133226550199403 1.8528360313858472 77 75 80
0.9633776547653271 2.9634194187998353 1.784132288960921 60 59 64
0.9365460296308256 3.0203997254734296 1.7677966114629982 44 43 49
0.912365579878649 3.0737322606253423 1.7524610163148748 45 43 49
0.8766705433502273 3.141162835982489 1.733322351266453 46 43 50
0.839973149474259 3.2094500210414907 1.7139674276208507 56 54 57
1.9823847006591917 1.8130396618992697 2.0905687314428523 79 77 79
1.9685720288217632 1.8571039068806954 2.0775963707783265 76 76 76
1.925276964147415 1.9373129560287765 2.054871727723329 54 54 55
0.7964751835556805 3.4809900049138442 1.6319894976423195 68 67 68
0.8267803899446013 3.4658452761336678 1.635196895417862 66 64 65
0.8151718717972076 3.5010324237244204 1.6248662422632658 59 57 60
0.8416894106389776 3.4905527787017503 1.626814089205462 53 51 56
0.8450456722268589 3.5077415276461954 1.6213257099842364 44 44 47
0.8757148383801685 3.4925001470405226 1.6245452276093726 37 38 41
0.9108599189444337 3.4721282322708698 1.6291347731725403 33 34 36
0.9999048969586359 3.388485248197407 1.6506834099190797 28 29 31
1.0425023884790348 3.359958547453208 1.657434009785652 24 25 27
1.1266733435518863 3.2830518111791327 1.6771347506915908 19 20 22
1.1961409768798372 3.2238512328872715 1.6920709374541756 19 20 22
1.3254493096034747 3.095569300666545 1.7254750785158353 20 20 23
1.415495277202282 3.0136617755287447 1.7464371683829885 18 17 21
1.516251066677033 2.919992113688436 1.7705181972486146 17 17 19
1.624698051822893 2.8181518185111845 1.7967534995501284 17 17 17
1.7322927001501172 2.7180210454780473 1.8225010163773117 20 20 22
0.5308657762086462 4.133659568979988 1.4428329801515565 19 18 22
0.5533803989047561 4.126977375187156 1.4438005557389542 21 21 25
0.5725576280990265 4.124166902164854 1.4437322755999586 20 20 22
0.5769318339368021 4.1381232082457515 1.439195287167851 18 18 20
0.6065447360828897 4.123664161131593 1.4422241916003802 18 18 20
0.613229871102819 4.135043281756452 1.4383723364896515 16 16 18
0.6345804441766381 4.130019162165251 1.4388833217699717 15 15 17
0.6559895274655139 4.125013975524969 1.4393855784133278 15 15 17
0.6612366924938569 4.138026080252854 1.4350983139425668 13 14 16
0.6832955348767389 4.1324111516042885 1.4357576249842068 13 14 16
0.6866107801096564 4.147546280985493 1.4309073458360624 16 16 18
0.6971303698462672 4.15471804713582 1.4281709731731185 27 27 29
0.7064184041764747 4.163242970552405 1.4250757604503042 16 16 18
0.7160666061607617 4.171370312190935 1.422086063850879 15 15 17
0.6589326011558989 4.2521565211387085 1.399860121308191 15 15 17
0.6936112721445271 4.232898271226464 1.4041275507318969 15 15 17
0.7291328182199359 4.2129049707695465 1.4085813940709584 17 17 19
0.7557275926625375 4.202710539810726 1.4104371172589016 20 20 22
0.7861543007532616 4.188518285391214 1.413343545762934 28 28 30
0.8106078518819111 4.180863251516682 1.4145175324973973 31 31 33
0.8465563956184488 4.161044884796294 1.418896288284773 17 17 19
0.87622704899711 4.148083076465942 1.4214586078815423 13 13 15
0.9011538267857744 4.14028565470976 1.422653531792767 13 13 15
0.9130663031229971 4.146341084763683 1.420194747932054 14 14 16
0.9273171039090509 4.149946493362622 1.418380368257949 16 16 18
0.936021957185597 4.159402024798636 1.4150254562083127 17 17 19
0.9772028377014736 4.134868118963965 1.4206086686705979 20 20 22
1.05755778184798 4.069689900528844 1.4368634043100224 24 24 26
1.1084073913491916 4.0356581767310855 1.4449151668684834 32 32 34
1.1449009668863948 4.016774990442407 1.4489775765585107 35 35 37
1.1798293297003304 3.999683799334174 1.4525615535222385 42 41 47
1.1986970946871032 3.9992904904714974 1.4517597257086872 45 44 50
1.2203583969675336 3.99608672298311 1.4516916601216763 53 52 58
1.2603152421121089 3.974244257705031 1.4565011418920024 62 61 66
1.301955869857207 3.950880081303116 1.4616995336070728 73 73 75
1.3381482296974412 3.933257487368923 1.4653862306491199 90 90 90
1.3714527404978518 3.9187281655383863 1.4682561831969076 75 75 75
1.2740975876837295 4.05512780352487 1.4307734128640595 88 88 90
2.5907953044668957 2.7530632420788126 1.7696198634970919 52 51 55
2.125603195358164 3.283925726646111 1.627962476560421 60 61 63
2.10871245684608 3.321899454121584 1.6170272883534125 80 81 83
2.1504178426580873 3.3018494590767684 1.6211959688568331 104 104 104
2.2220234505022276 3.2525697704366148 1.6329545774125498 94 94 94
2.3500165162054505 3.1483660674882037 1.6589650679655772 124 124 124
2.2864840891826472 3.2321285116183667 1.6361304886723833 173 173 173
2.226967793974886 3.3115009686361843 1.6144590670032184 176 176 174
2.1393864180902034 3.417684764579876 1.5858569457479879 176 176 174
2.103764294032431 3.4729402285560798 1.5704858542713636 176 176 174
1.6906583949074618 1.8094747591493574 2.123868968892212 173 173 173
1.7961722610024768 1.6999598117238988 2.1528914741233036 174 174 174
1.762321226896292 1.7713241799794213 2.1323085973260563 174 174 175
1.7524284809238981 1.8114263220051046 2.1203054177030785 171 171 173
1.5729446307385866 2.0689762225495167 2.0487662671056146 132 132 134
1.4147499610293248 2.297630536279196 1.9851982463602802 80 80 82
1.3217584073672541 2.4416959612566185 1.9448269993454617 92 92 94
1.2144720202141626 2.6030186671778885 1.8997707984323164 98 98 102
1.1343429191762842 2.72893534971727 1.8644304137039582 75 74 79
0.9659744714941768 2.9654207051472876 1.798912911115676 57 57 61
0.9318192561257951 3.0315821771829246 1.7799633278944111 43 44 48
0.9115175313737193 3.079995038233201 1.765872685231519 43 44 49
0.8145200115106817 3.246243101760024 1.7187916621846382 59 57 62
1.9016612195761946 1.9725078388350499 2.063046997938778 57 55 59
1.7388122031105897 2.1989708878052143 2.0003834893555625 39 38 43
1.6701527093598059 2.3086640568384857 1.9695416489050461 39 38 43
1.5755164951370721 2.4493932168854147 1.9302871021795691 39 38 43
1.5491191583545403 2.5308011224567095 1.9062227192798786 44 43 48
0.7978820177691905 3.4842185252240654 1.6455485977384265 46 45 49
0.832710660852046 3.4636651685410005 1.6502762647565197 60 58 61
0.8515511348813578 3.4624292153402063 1.6497590732654501 62 60 63
0.861144898293914 3.4722818542035796 1.6462345341884124 60 58 61
0.8753008823896204 3.47670439553061 1.6441810652103057 56 54 59
0.9014939784144191 3.466898088618473 1.645978395053001 51 50 56
0.9412998672494146 3.441144467046626 1.6520857626823766 47 47 50
0.9142081244498539 3.4943225466125014 1.6368375329473401 43 43 45
0.9757777377618768 3.4432408213733448 1.6497833960107648 41 41 43
1.0816104201969003 3.34082150370895 1.6765830362870124 35 35 37
1.135248569829634 3.299935340414593 1.6867364440127905 31 31 33
1.211948083945702 3.232602037670082 1.7040143974262891 33 32 35
1.3093961028231962 3.1417610854734703 1.7276130524439988 32 31 37
1.4075600682183553 3.050752125458236 1.7512297124743852 28 27 34
1.5186710036730582 2.945518955930946 1.7786521814093357 29 29 32
1.6389640679476878 2.8305184787247515 1.808674008318565 29 29 31
1.777681190788097 2.695295687535107 1.8441056471750839 28 28 30
0.573610207677129 4.108502939402534 1.4620538899906421 28 28 30
0.5805929455562953 4.11956257435655 1.4582787942036015 24 24 26
0.6044879416190738 4.111539328786549 1.4596313638720515 24 24 26
0.6121018389724933 4.1219098971041035 1.4560404439189276 37 37 39
0.624839488072815 4.126526699690323 1.453994418911303 39 39 41
0.6386698785054128 4.129944978247849 1.4522689813469303 14 14 16
0.6673237122836497 4.116902907499844 1.4549552549758056 14 14 16
0.6630504946907314 4.140504831859989 1.4478166989050003 14 14 16
0.6764675636396955 4.144454112851181 1.4459458368071612 13 14 16
0.6932304687786237 4.144743429360469 1.445053534939965 12 13 15
0.6963600475731619 4.1600500315978035 1.4401415304459446 25 26 28
0.7108096058880087 4.162920451554427 1.43855690972705 24 24 28
0.7358673386506305 4.154252700870725 1.440054349352349 24 23 28
0.7549623206583194 4.152175299964722 1.4397867697004436 25 24 29
0.7042871519078233 4.225767428500562 1.4193160074630764 26 26 30
0.7450068438485824 4.200216355982463 1.4253166221212092 31 32 34
0.7684874929338588 4.19344168481545 1.4263005639547666 36 37 39
0.8008807033866425 4.177198479498232 1.4298038105268236 38 39 41
0.825285157793008 4.16965677662243 1.430982178520259 33 33 36
0.8523964677652953 4.159329788659754 1.4328975570369762 17 16 20
0.878241770769463 4.150466768519575 1.4344180553866017 11 11 14
0.9008491735878248 4.145142502774724 1.4349925386992726 14 14 16
0.9256935448386423 4.137542979361111 1.4361678410769985 18 18 18
0.9316548114348624 4.149915367262103 1.4320332076693694 24 24 26
0.9902715482612419 4.107029968304323 1.442570341383858 29 28 32
1.0106391000585964 4.104463556664216 1.4423939972560147 35 34 39
1.0477460781129897 4.084522181277649 1.446822220110197 39 38 43
1.0863566316293736 4.063200757677347 1.451607843637906 42 41 46
1.130227199960624 4.036624256455552 1.4577766876146776 47 46 51
1.1515558016530236 4.033535946537242 1.4577167206964385 53 51 54
1.1907011064165773 4.0121936914345495 1.4624832316400707 55 53 58
1.2270463911878555 3.993913784503473 1.4664309905974557 64 64 69
1.2657632985871494 3.9733818763317634 1.4709658883524241 70 70 74
1.3007454775477385 3.956841075459625 1.4744378128473232 83 83 85
1.3453939408763504 3.9306459989361917 1.4804507564113913 71 71 72
1.3752671418997544 3.919628821082223 1.4824486813189046 62 62 61
1.136130613244537 4.198527228308241 1.4071225778827263 94 93 94
2.2545277248413873 3.0958288914108683 1.6966686352108762 54 54 56
2.1870453103330183 3.2282274664196713 1.658706308651998 60 61 66
2.1289784587177936 3.3071149643448607 1.6369418140454841 78 79 83
2.1785528927579243 3.279388875924292 1.6431953271888098 103 103 106
2.519399076333328 2.965545560379306 1.7245256339815143 93 93 95
2.4319204571456865 3.0735251293553434 1.6951176339866554 100 100 102
2.3623954449512783 3.1633365503015485 1.6705028661199908 161 161 162
2.223868284505779 3.3198181421359516 1.6284480561955728 176 176 174
2.1391201300664564 3.4231613011349715 1.6003518623306932 176 176 174
2.1349679755710005 3.447931327023594 1.5928440900481189 176 176 174
2.084211399002485 3.5175430093997795 1.5736156281969826 176 176 174
1.7316036493216735 1.7623841737870314 2.154595578801642 173 173 173
1.8002108305207782 1.7009469306513318 2.170586309814168 174 174 174
1.790884656749879 1.7406140827382777 2.158626376589489 174 174 175
1.7767806160546527 1.7862321831908614 2.145030203857118 169 169 171
1.7593999506762523 1.835815077953035 2.1303482610839044 115 115 117
1.3684200764779035 2.3626198446437807 1.984005419758391 77 77 79
1.2725842171086992 2.510002084482174 1.9424300549897608 98 98 100
1.1916965140698106 2.637481410679234 1.9063753196445332 95 95 98
1.1224649289509316 2.749420111472216 1.874631946600574 75 74 79
0.9725126444397726 2.9624552979584045 1.8150707377637085 54 54 58
0.9366975090863506 3.0306828563197357 1.7954244177777818 44 45 49
0.9104189787295952 3.08656818213225 1.779189077561048 44 45 50
0.820974663949062 3.243288424893117 1.7343966457575632 68 66 71
2.014734580113544 1.839297256397254 2.1173187484071505 67 66 69
1.840992775197316 2.0794269535045076 2.0504030035195324 43 42 45
1.7711123263757618 2.1909517745560323 2.018819314659418 38 38 41
1.6603636009214595 2.351635803081951 1.9737845396521956 38 37 40
1.642968809695984 2.3978596237718786 1.9601529773489426 39 39 42
1.6774049756149652 2.3810591622846373 1.9637926795394332 44 44 47
0.7878551550955792 3.522399026180069 1.6487227303635752 43 41 44
0.8246143653445075 3.4995707884931244 1.6541374865022616 44 42 45
0.8503982692373493 3.4900247569726304 1.655914802784473 54 52 55
0.8635893347833219 3.495550172501131 1.6535711842117402 57 56 60
0.8712532831004063 3.507636007894267 1.6494359050662468 56 55 60
0.9056829624672553 3.488128042017596 1.6539220131478893 54 53 58
0.9415517658104515 3.467113523808754 1.6588116189512054 50 49 53
0.9873385989028485 3.4346734283423057 1.6668079090137464 48 48 50
1.039898522865583 3.3945945840743703 1.6768745695157077 47 47 49
1.0952405399340774 3.3515991712806152 1.6877225545602803 42 42 44
1.1320818351176913 3.3304080607087885 1.6926218651001972 42 42 44
1.2230784084001756 3.2467949789842474 1.7144955139731222 41 40 46
1.3425162591096593 3.131013170307809 1.7450918550690857 39 38 45
1.4590127271848856 3.0194319047839677 1.77451307558537 38 38 41
1.563950152700035 2.9218793649938695 1.8000908666288211 38 38 40
1.6843237285052672 2.8074151255034203 1.8302317023706849 37 37 39
0.630102851724412 4.04895381502279 1.4915505738267794 34 34 36
0.550558980329964 4.157986034537633 1.461197762374423 32 32 34
0.6329156033935452 4.084020909917306 1.4804604657668272 30 30 32
0.6417771446960041 4.093091056229164 1.4772115894706002 28 28 30
0.6234182778530593 4.132608231316963 1.4657209595303917 28 28 30
0.6457865548765878 4.12650064677458 1.4665834915165183 26 26 28
0.6743691082307199 4.113577144093373 1.4692853913794988 25 25 27
0.668240943521553 4.1392444419769605 1.4615508885229673 22 23 25
0.6782825707789804 4.146939920046196 1.458676410329639 21 22 24
0.6884027464194831 4.154549927914156 1.4558249683089173 20 21 23
0.6596859778758093 4.204766740624294 1.441475083875212 31 32 34
0.6878469824484568 4.192513960178909 1.4439870959204455 38 38 42
0.7154611346632946 4.18098808184821 1.4462975238974423 42 41 46
0.7254942984705239 4.188686980016115 1.443422372727003 43 42 47
0.7383783829711368 4.193299916582695 1.4413782630154626 42 41 46
0.7585226948532795 4.190098379943877 1.4414366560198728 41 42 46
0.7857953840494234 4.179300699668088 1.4435354894299448 33 34 38
0.816114518369947 4.165358136607102 1.4464746331718747 21 22 26
0.8417029055131475 4.156613617504094 1.4480106184288584 11 12 13
0.8661662508726171 4.149176005601021 1.4491908068245736 11 11 11
0.8837042665828603 4.149191654727316 1.4483657100206488 13 13 13
0.9042998842908105 4.1460230224292705 1.448392713953822 19 19 19
0.9262211928787083 4.141528350504601 1.4487721098587174 27 27 29
0.9560760598113416 4.128772914530802 1.451361985689159 36 36 38
0.9854773366755387 4.116627688604588 1.4537823824121845 41 40 44
1.0173238982956414 4.10205898444924 1.4568457632423506 44 43 48
1.0530698241272523 4.083576858986257 1.4609497360360577 47 46 51
1.087939529642739 4.0661765086413855 1.4647566296411667 52 51 56
1.1212893029720574 4.050514074299951 1.4680915029293968 55 54 59
1.146355740888509 4.043547582829946 1.4690962598633706 58 56 59
1.1895164711636657 4.018081461036046 1.475035979918084 64 62 67
1.2183797634192302 4.007481228140185 1.4769987222014769 70 70 75
1.2697584966059041 3.9740105984410716 1.4850555387185427 73 73 79
1.303721543388841 3.9585373409758624 1.488302612544753 59 58 64
1.347539085450032 3.9332198473152085 1.4941651685584547 51 50 55
1.3767458081239898 3.922896387588401 1.4960253571405442 57 56 60
1.4180212224059774 3.900528312295296 1.501085100405273 72 71 72
1.9150233032809933 3.4412945522383875 1.62135344022777 62 63 65
2.2604872395799545 3.1607231241140292 1.692876348805263 59 60 64
2.1593052756226587 3.282414098466596 1.6595795979307806 72 73 77
2.212412604600876 3.251329687951256 1.666809872588096 96 96 99
2.2473830938673083 3.2383229444841524 1.6692390386299476 91 91 93
2.2931323742325826 3.2149070470646532 1.6744169983442068 88 88 90
2.3449443869675064 3.1857860962086813 1.6810942649838272 136 136 137
2.2653831273569707 3.2847245606111226 1.653896592832141 175 175 173
2.1936797313757896 3.375468553469439 1.628892224057511 176 176 174
2.1646337429822484 3.4244563336367664 1.6149418123952721 176 176 174
2.092007431251065 3.515180367961058 1.5899868430352706 176 176 174
1.7536216150040764 1.739956525365223 2.1786757886653514 174 174 174
1.8353825963640686 1.6894007626469791 2.1908101785713816 174 174 175
1.7991621152197637 1.7636173927117453 2.1691690389659843 166 166 168
1.7820297450348226 1.8129446382672083 2.154468475656096 99 99 101
1.311469877911914 2.4410800442823564 1.9787984997356216 75 75 77
1.2408507804541344 2.5560122223235187 1.9459484761080132 99 99 100
1.1761293409453617 2.66275427409436 1.9153998410010187 90 90 92
1.1076752583200484 2.7735611370779014 1.883745806420773 72 72 75
0.9868985188927518 2.9496125998357092 1.8340022476775708 50 50 54
0.939703764394745 3.0321419187147898 1.8102531135901931 44 45 50
0.9106318020811179 3.0914961964611916 1.7929505392767635 44 44 51
0.809405605533791 3.262751044455803 1.7438196299843094 76 75 80
2.044116664661488 1.8362528558466122 2.1351820819717617 57 57 59
1.86348671144502 2.083923039607179 2.0656922056028266 39 39 41
1.824706864031214 2.1571722286467914 2.044471624665401 38 38 40
1.7427590331440241 2.2824247586037636 2.008899621780861 36 36 38
1.7661281636521133 2.2794393408457094 2.008769358279154 40 40 42
1.8055016266727508 2.257233899179491 2.013940993014222 50 50 52
0.7664956969084806 3.5528925175720563 1.6547085857955557 55 53 56
0.8138498623558816 3.517345865440979 1.6637033148235048 53 51 54
0.8500856452742629 3.4953258720624873 1.668960047658654 43 41 44
0.8664564450471139 3.4970763122990642 1.6676629075048635 39 38 41
0.8789466203862799 3.5034601653148343 1.6650886514970789 43 43 47
0.8902717188033069 3.511231075361496 1.6621322325964956 49 48 53
0.9180569049672915 3.4996714429198477 1.664491586255298 51 50 56
0.9458017014364586 3.4882917541370726 1.6667963031344415 51 50 55
0.9843059438436823 3.464488210412862 1.6725092570666225 49 49 53
1.0293194061197046 3.4333277765901924 1.680234127819475 49 48 53
1.0758757100060825 3.4006413337431045 1.6883675226575359 47 47 49
1.1634048793677776 3.3208876601964783 1.7094032293788917 47 46 50
1.268582069374576 3.221394144923579 1.7358289247714183 46 45 51
1.3836956187600058 3.11120971061259 1.765156508613119 44 44 46
1.476414655549308 3.0274297709432014 1.7872189602294364 44 44 46
1.571213754567851 2.9418897062078013 1.8097388847911364 42 42 44
0.6899944865383545 3.9856528084456997 1.5223659424668825 40 40 42
0.5266549967463052 4.189434188736669 1.465862366894962 39 39 41
0.6592941531486671 4.058856928304646 1.5007904920002033 38 38 40
0.6686008720772594 4.067521216959008 1.497645841072595 38 38 40
0.6383895598786695 4.1203598211845325 1.4824404723542894 38 38 40
0.6601480971409699 4.1149944382150725 1.483130803413667 38 38 40
0.6814308676432208 4.110244033227793 1.4836498322213583 38 38 40
0.681444834881344 4.129120770880997 1.4777240815810448 37 38 40
0.6851537146626574 4.143848639281256 1.4729318381884593 37 38 40
0.6948562444181954 4.151939993543291 1.4699489445185048 38 39 41
0.7289202191954254 4.133325551273149 1.4742359212238583 41 42 44
0.6604681270924322 4.2268917520102605 1.4479933699626617 42 41 45
0.685034162620314 4.2185998991771045 1.449474047135828 42 41 46
0.708386792412806 4.211730049523024 1.4505637996911025 41 40 45
0.7265732252171277 4.210545319062583 1.450105038216069 41 41 45
0.7603660772671885 4.192589471596111 1.454197675314696 38 39 44
0.8109250850224048 4.156780191077867 1.463128464365961 31 32 36
0.8342130930423777 4.1504729330749 1.464044579674364 22 23 28
0.8597825215686632 4.141822074230824 1.4655921152018303 16 16 19
0.8839536278182771 4.134767635255735 1.466702425142603 23 23 26
0.8879942455394279 4.149168290355737 1.461997737404105 29 29 31
0.9033745318304949 4.151535590555557 1.4605522143264673 34 34 37
0.9267945379269384 4.145465040686384 1.461388001899209 39 38 43
0.9539969183032633 4.135511945147986 1.4632697072679064 44 44 47
0.981685436727818 4.1251664010807225 1.465252392684941 50 50 51
1.014706434263021 4.109374001407158 1.4687012103071675 50 49 52
1.0455111407592308 4.096042272590787 1.4714788866019226 50 49 54
1.0799453160144141 4.079085514661589 1.4752286339345364 55 54 59
1.116728218391199 4.0598634685602155 1.4795821462659182 58 57 62
1.1443009864044322 4.050308509527648 1.4813219660796575 63 61 64
1.1953020626590096 4.016807368943164 1.4895080754891685 64 63 67
1.2252223988468434 4.005156465189204 1.4917985589736786 51 52 57
1.2563760290940145 3.992376134090624 1.4943872237371865 42 42 48
1.3143878967213725 3.952415434385332 1.5042806835080003 45 44 51
1.3740397535394007 3.91110449305611 1.5145230596998407 49 48 53
1.3743261885968425 3.9301041651373136 1.508546277429222 54 53 57
1.4187136341306938 3.9046154137030156 1.5145194878797992 77 75 77
1.6895139603406768 3.67213308611355 1.5751237778703466 70 70 72
2.3165978346514158 3.1105112513982798 1.722767255388423 57 58 60
2.112650392864289 3.3338099609406173 1.6619921844013799 68 69 72
2.2248421537310135 3.2444252405707577 1.6849245103382888 87 87 89
2.2758313649611877 3.215749887478295 1.6915964224420306 84 84 86
2.312306778107195 3.2015207292564787 1.6943967893283471 81 81 83
2.3660050207470618 3.1706487655918183 1.7016344534109373 112 112 113
2.3264837911280343 3.2306554513454393 1.6846043483257962 172 172 170
2.2600410700895845 3.3164243620198555 1.6607174703611867 176 176 174
2.1943796974776495 3.400948778580926 1.6371855330696632 176 176 174
2.1374031846413972 3.4766295269966374 1.6160328208661303 176 176 174
1.8438581009377004 1.6847101281632348 2.2101826190562797 173 173 174
1.8236967776438786 1.7382779938267046 2.1941932025240387 160 160 162
1.8048151487126942 1.7899170427104003 2.178754831557624 90 90 92
1.2642416990361593 2.507020862733686 1.9767735366458878 75 74 78
1.2062893675462878 2.6055554789307136 1.9482922475594615 95 95 96
1.1709949913122621 2.67477104393179 1.9280442335562264 86 86 86
1.093379404259431 2.797047908240005 1.8929543522711056 74 73 76
0.9596989753173183 2.9891532876070386 1.8383491220788866 47 46 51
0.9385447064892521 3.0388316360450984 1.823630204853323 44 44 51
0.9091865451786416 3.0984964425251302 1.8061286028192962 46 45 53
0.8241713917837288 3.249476034420454 1.762319562834211 79 77 82
1.967032505301509 1.856728035482456 2.1504602014999348 62 60 63
1.9653786078890432 1.9918352787424356 2.107939099764071 39 39 41
1.8311595647997065 2.180995416758756 2.05428641680729 36 36 38
1.854162750525739 2.178815686893267 2.0539481749606243 36 36 38
1.9029513220563083 2.1456362829409286 2.062233637898518 40 40 42
0.6947500033282661 3.6436772997613702 1.6438103477956232 60 59 62
0.8112641033017596 3.5253388031800075 1.6759245706417887 61 60 63
0.8531635773204496 3.4965918616992964 1.6831197281648993 61 60 63
0.8810112709899838 3.4847501516746275 1.6856116290017087 55 55 57
0.9189663917701287 3.4611004285575433 1.6913756345357462 45 45 48
0.9527621528763976 3.442562124933052 1.69571359551458 36 36 40
0.9785125275232942 3.4336466153234233 1.6973764569845946 36 36 40
0.9603591359591703 3.4762092559751747 1.6847671128324524 39 39 43
1.0117779440361103 3.4374250531364003 1.6947023318766343 42 41 45
1.0655447403307265 3.3962250431108325 1.7052945058870836 46 45 49
1.1217261468030864 3.3525572479382877 1.7165570519089717 48 47 49
1.1852804967590633 3.3007230233796276 1.7300655302421886 47 47 50
0.7588317991347107 3.931940334683399 1.55007393613686 41 41 43
0.7415175152480069 3.970943262909197 1.5385494453328556 41 41 43
0.7508636107686857 3.979863316595147 1.5353206172937899 41 41 43
0.7024626699745524 4.053285531190027 1.5143306520516315 41 41 43
0.6671862118560028 4.111665854864762 1.4974978312413625 41 41 43
0.6865885113376116 4.109034895737238 1.4974623676726004 41 41 43
0.7014786084089297 4.1114638312883205 1.4960328326712293 40 40 42
0.6990219090553103 4.133053510923568 1.4893358382741546 40 40 43
0.7177006383502265 4.131327790267676 1.4890472384462907 39 39 43
0.7568563030893221 4.107236309392521 1.4948969975694937 37 37 40
0.794195763144605 4.0853366937092845 1.500136697304574 37 36 41
0.6601474779935723 4.250129499367871 1.4541586133788789 39 38 43
0.6779053529962726 4.249247983778093 1.4536449136495344 38 37 42
0.781627591979803 4.155489514592229 1.4785801065785902 39 38 44
0.8100467456292972 4.143535631867857 1.4810818971440056 38 38 43
0.8369843579362215 4.133302489409098 1.4831072397170142 35 35 41
0.8532420557891083 4.134620921465759 1.4819668445627534 35 35 40
0.8747766443299043 4.130351969556342 1.4823527323542443 38 37 43
0.8958769410272636 4.126624613797185 1.4825872327615568 39 38 44
0.9266350515805852 4.112735191810924 1.4855949683563123 40 39 45
0.902449925970126 4.157044426355153 1.472703864368763 42 41 47
0.9261641402018153 4.150669103529928 1.473656657422671 44 43 48
0.9523427600723899 4.1417999697597185 1.475285807771218 46 45 49
0.9815275328956157 4.12989483707083 1.477738099220116 54 53 55
1.0042574655613348 4.124851490732458 1.4783148417009995 59 58 62
1.0344082446046103 4.112178384556633 1.4809661869775557 43 42 47
1.0761534954758638 4.087625260398366 1.4868460480744037 45 44 49
1.1206465827142795 4.060445727564819 1.4934314353256122 47 46 51
1.1627117421808184 4.035994816480068 1.4992648111155251 41 40 44
1.2037620331967385 4.012796902938109 1.504748399277236 39 38 43
1.242031630691956 3.9926469205844066 1.5093950339368465 41 41 47
1.2643724968823002 3.9889213467770928 1.5095736703224145 42 42 48
1.3090976423840204 3.9625255152281476 1.5159016378545096 44 44 49
1.371645821875185 3.9183001489399514 1.5270561488951646 48 47 51
1.3733206520803038 3.935878803873132 1.5214395217136452 58 57 60
1.425886631075549 3.9021799059065025 1.5297203742218728 81 79 80
1.5228029315171174 3.8438129743648917 1.543801185854205 78 77 80
2.1682207178924884 3.284223275021226 1.6914497453272344 65 66 68
2.260456683551583 3.2147267434856186 1.7092479908597662 76 77 80
2.3254790787033794 3.1724289069574687 1.7196845199110946 78 79 81
2.3511108419705042 3.168973315193013 1.7196313379792891 77 77 79
2.3813474756801334 3.1611150591537935 1.7207608935836038 94 94 96
2.3624314419814225 3.2011120728931113 1.708994403576739 164 165 164
2.2937340474046266 3.2891115422660127 1.6843134911046154 175 176 173
2.22657546031522 3.375121988537138 1.6601910544823824 176 176 174
2.160433340385506 3.4596628816396273 1.6364866070218853 176 176 175
1.8484143769531736 1.7127496525994788 2.2194039393878753 154 154 156
1.8311735155634277 1.7623603528382439 2.2044443827610865 85 84 87
1.2375427940849884 2.546689906387147 1.9818989110088447 72 71 76
1.1701940788653389 2.656979039941316 1.9499043380738754 89 89 92
1.1159200986790339 2.750029406798766 1.922799899908298 81 81 81
1.0521519740702796 2.8545013415730756 1.892491650426576 65 65 68
0.975213533834066 2.97490238468866 1.8577121256850655 47 46 51
0.9333176641457519 3.05061797560691 1.83555851459801 44 43 49
0.8960229013952843 3.120135915377233 1.8151673226395058 46 45 52
0.8122924574035895 3.2470805245763694 1.7786111104416333 68 68 71
0.8387007620428026 3.236520878119316 1.7808065243284243 79 78 81
1.9157500288613756 1.92632114424849 2.148848586568015 60 58 61
0.6932356120286927 3.650297991344889 1.6561091551806681 50 50 52
0.709655615086292 3.6514098937078465 1.6550430884650305 59 59 61
0.8326200216735962 3.5259369647915415 1.6894273023027166 60 60 62
0.8790909125651645 3.491965480686304 1.6981637051641902 61 61 63
0.9327678231042447 3.4497673679725462 1.7091917349249317 56 56 58
0.8685553331309162 3.5466323598245397 1.6813115466650876 52 52 54
0.939598243291264 3.4842769890960454 1.6979672568113542 45 46 48
0.9893717856144162 3.447253697212783 1.707526407326065 41 41 43
1.042080896204622 3.4071115609605 1.7179454943288508 36 36 38
1.0898895754357412 3.3729823570169657 1.7266736688121724 32 32 34
1.1522789758702054 3.3222598145806628 1.7400221191309453 30 30 32
1.2156162524869063 3.270836312142126 1.753551312468816 32 32 34
1.286317977505476 3.2113426004644157 1.7693157136218014 34 34 36
1.4011117049323196 3.1017700331225413 1.7990203581860913 38 38 40
1.4495688136146985 3.068750562341332 1.8073689402397655 38 38 40
1.5131761828009034 3.018760658859205 1.8204324400499607 38 38 40
1.595142607161463 2.948327907999805 1.8391708716054576 39 39 41
1.0879333428099187 3.5447721094507196 1.6723614913631004 39 39 41
1.0975601880003671 3.5547410733203826 1.6687862188575031 39 39 41
1.0490943022971393 3.629972229817354 1.6470716846743743 40 40 42
1.062803752938181 3.6351368012980085 1.6448402015355545 40 40 42
1.0184282459680811 3.7051580071142265 1.6245975387841205 42 42 44
0.7134461589984158 4.102755506875679 1.5119596403765703 41 40 43
0.7135954752948228 4.121503874927496 1.5060164754354743 39 38 43
0.7416335571987804 4.109558327902694 1.508579868066083 37 36 41
0.7759490631045942 4.0908722664170085 1.5130046870858411 38 37 42
0.8217158828455111 4.059868293776983 1.5208320419681824 41 40 44
0.656635588118246 4.2583741833702415 1.465153239083173 40 39 44
0.6681793063127643 4.264218741802049 1.4628006094754686 39 38 43
0.7804029170783935 4.161319631401395 1.4905038584379378 41 41 45
0.8288506154340807 4.127809596628089 1.4990081868048244 41 41 44
0.8663375807692413 4.1063325314630745 1.5041788743942746 40 40 43
0.8756117718349412 4.115226118955455 1.5009594541896294 40 40 43
0.8947167599957782 4.1136323289855525 1.5006333953173856 40 39 43
0.913924731968687 4.111991593683322 1.5003177236951686 40 39 44
0.9422050270501665 4.1008036988260885 1.5026306736703332 40 39 44
0.9029904093499015 4.161003448016238 1.4852735676182893 41 40 44
0.9324350914243822 4.1486078186414135 1.4879183163740242 39 37 41
0.9619362178430915 4.136285453475225 1.490537411670978 36 34 38
0.9878596752503246 4.127835879261585 1.492085753375725 24 22 27
1.0142236312210022 4.119034328226608 1.493726394592442 27 26 30
1.0450877984082148 4.105667519086229 1.496616944743603 26 25 29
1.081282857559706 4.086920250157074 1.5009794174362732 31 30 35
1.1277845246594114 4.057710244380173 1.5082067595645268 39 39 43
1.1624045797185933 4.040965208556216 1.5120037100900459 42 41 46
1.2044270315201717 4.016791642813783 1.5178310305320446 41 40 46
1.2341910004280043 4.005356907071187 1.5201576288506868 42 41 47
1.2663537286309146 3.9916061604922053 1.5231132881475682 42 42 47
1.316874770095702 3.9593563208978333 1.5311284214703609 42 43 48
1.3554482159596626 3.9394620733804286 1.5357506668338927 48 47 52
1.382121777209926 3.9317565391732847 1.5370307918205803 61 59 64
1.3953778643751376 3.9376484346027967 1.5345887148693074 88 86 87
1.3727772870076318 3.9794990011959968 1.5223194590398825 85 83 84
1.3648661688956343 4.006457085717613 1.5141271745172697 81 79 82
2.24828968313368 3.210560156105892 1.7277345424978514 60 61 63
2.295128248847185 3.1860101994389307 1.7334716304965756 67 68 71
2.375636723246017 3.128685174298917 1.7481228949233825 71 72 75
2.3691417651374707 3.1567768075375544 1.7395100939320107 75 75 77
2.3960586405145885 3.1522185774960993 1.739783044888205 84 85 87
2.3969243475889397 3.173035446587177 1.7331537384616493 148 149 150
2.324560242984672 3.2646232861442344 1.707299013474894 175 176 173
2.259201084598482 3.3489294927101825 1.6834454256217988 177 177 176
2.1972898358468687 3.4294410032717297 1.6606435048508845 178 178 178
2.285474722157158 3.3656898303713754 1.6769958199369397 178 178 178
1.8572504585258462 1.7352127863313307 2.2301606486398415 82 82 85
1.158670570807735 2.6771273761122223 1.9602097845471624 81 80 84
1.0973703620465367 2.77895280050294 1.930424104062216 79 79 79
1.0370891200540098 2.878870679404612 1.9012018980818903 66 65 68
0.9776951451326843 2.9770633888301066 1.872490747054562 46 45 51
0.9348673054855837 3.0539020799951135 1.8498687276354475 45 44 50
0.8958593793977155 3.1255154070210054 1.8287466408685509 49 48 53
0.8226720447366249 3.239244124610591 1.7956791568018309 68 68 70
0.8302856889541057 3.252050206501278 1.791283671245798 79 77 79
1.8662082319957591 1.9936630708805287 2.147584936840226 58 56 59
0.7418069404722056 3.533911549915285 1.7053924101697557 40 40 42
0.734695379980828 3.563596147084871 1.6962531258228037 31 31 33
0.7206448682027504 3.601462546991483 1.6848058645647783 28 28 30
0.714590939548106 3.6295723741184567 1.6761225818879044 32 32 34
0.7880489962417974 3.5628058846917394 1.6942429971316382 41 41 43
0.8255241074733706 3.539272004438686 1.7001391465122424 43 43 45
0.8723522557651724 3.504878994455308 1.7090924302934503 45 44 47
0.9216139641483536 3.467899024881678 1.7187653061977635 45 45 48
0.9818262940104341 3.4183442018262307 1.7319732597112558 46 45 48
0.9615842198257056 3.463462900440359 1.7184819565942062 45 45 48
1.0379907347587092 3.395447514623071 1.7368745895264621 45 45 47
1.0836035614883563 3.3637891167018132 1.7450096861012554 45 45 47
1.135397133174327 3.32522553433986 1.7550788888433497 44 44 46
1.1766974806383885 3.2991101663114586 1.7616339022049086 42 42 44
1.2264334683803728 3.263501514870475 1.7708505491468713 41 41 43
1.2746192352064099 3.229967285253691 1.7794731670704773 36 36 38
1.402783347313707 3.1051284410978073 1.8137437923336308 35 35 37
1.4695998033291278 3.051190200296326 1.828065898463557 33 33 35
1.4789623472268332 3.063026120496156 1.823904828209294 32 32 34
1.5647525074075737 2.9881882746140858 1.844069499231186 32 32 34
1.6495555299163855 2.9150190989867584 1.8637453171230742 32 32 34
1.133027985862224 3.5197272251833525 1.6933211214650954 31 31 33
1.0786378397243155 3.601685400555816 1.6695610137511059 30 30 32
1.0101606190761114 3.698925539176563 1.6415378174298922 32 32 34
1.0665254195059328 3.656343101296948 1.6526913964135255 34 34 36
1.097571900604563 3.6422410022141687 1.6558604024168992 37 37 39
0.6964180156648689 4.107177484626618 1.5249981119749618 38 38 40
0.7288797481631457 4.090238608770706 1.5290093227813597 40 39 42
0.7429495690341117 4.093707886009547 1.5273096072295649 38 37 42
0.7576588542071441 4.096504775869199 1.5257966293626124 32 31 36
0.8083682495701552 4.0599660099402275 1.5352678254188434 27 26 31
0.8550789360799342 4.0280768020371465 1.5434297933106023 27 26 29
0.6795277542423843 4.23792478649464 1.4841319151178884 26 26 28
0.7288788155366783 4.202907602141965 1.4931767708913148 27 27 29
0.7822608647333662 4.163818982193169 1.5033456239462428 26 26 28
0.7952693467843319 4.168472292888003 1.5013143314411121 25 25 25
0.8283098082256237 4.1516658483098565 1.5052588944306164 27 27 27
0.9056950127418044 4.0876231896494515 1.522346581350575 23 23 23
0.9261755685719315 4.084673378452474 1.5224166284083014 22 22 24
0.8632774789449755 4.170333832709181 1.4978396891774837 24 24 26
0.9007008657105882 4.149305858814391 1.5029410670787 22 22 24
0.9077048838518855 4.160558480079256 1.499065474862644 32 32 34
0.940839609435566 4.1443120415177095 1.5028279412928691 32 30 33
1.0086525922069585 4.091875639317216 1.5166301723865845 28 26 29
1.029472006789928 4.088927752224823 1.5166852445650887 23 21 24
1.0422278355898411 4.094448593507345 1.5143887566981715 26 25 28
1.0585590297282328 4.0962752593293335 1.5131155966202354 33 33 35
1.0942251541020533 4.078139120024513 1.5173717560103106 38 38 40
1.1219434400376664 4.0683694848754 1.5193039600564946 44 44 46
1.1540795394691674 4.0541751760925475 1.522456107073217 42 41 46
1.1829388450035956 4.0434832760680335 1.5246332593471312 40 39 44
1.2414011264292344 4.00268226504145 1.5351313793629526 38 37 43
1.2812736025224372 3.9811221266608494 1.5402981960760818 38 38 43
1.3109164366740744 3.9701348388007274 1.5425360809479174 42 42 47
1.3190033771837588 3.9810734447893084 1.5387144553175007 53 53 56
1.3230573886524637 3.9960611314099914 1.5337760243258978 75 73 76
1.3285090422621175 4.009601789239037 1.5292385571616753 99 97 98
1.3556230048974283 4.001412657797035 1.5306937219923622 74 72 73
1.542308102164326 3.8340242336896 1.576016083732842 81 79 82
2.245984302975063 3.218203734688831 1.74204186606123 55 56 58
2.3161392497271063 3.1707662910435324 1.7541549904019647 62 63 66
2.3993786963243067 3.110884572904929 1.76967121669067 66 67 71
2.389490841693271 3.1423446062651053 1.7600849596105828 73 73 75
2.5019363664005634 3.0546505307519616 1.7832085304786944 80 80 83
2.42828328244272 3.148050526999894 1.7566260160860987 130 131 133
2.353769079390175 3.241745124826532 1.7299863079207018 174 175 173
2.281507137070642 3.332729390204933 1.704113113262674 177 177 176
2.21641068739169 3.416308446934354 1.6802913098122332 178 178 178
2.291801534445563 3.3649206061686456 1.693438865356249 177 177 177
1.882678007198743 1.7364928476288473 2.246966680659711 67 66 71
1.0796384858188919 2.8068041391289578 1.9382457565514901 80 80 80
1.0266045942259856 2.8974386644140453 1.9114850904103209 69 68 71
0.9735169905033277 2.9875930160823163 1.8848800186379786 47 46 50
0.9234303826877697 3.0734456238979395 1.8595250969783286 46 45 50
0.893239820408764 3.1339572887106613 1.8414430625769043 51 50 55
0.8370280985298659 3.2264809058807224 1.8142101948490097 71 71 72
0.8579828628132965 3.222805255294329 1.814519059817593 80 78 80
0.8713670532359001 3.360748509681901 1.7699047235332541 74 74 76
0.8518980687724997 3.4059605820075416 1.7562669846903767 64 64 66
0.7800878755013985 3.513875262290468 1.7247619675843704 45 45 47
0.7044883292889532 3.6256706354499344 1.6921738428256334 30 30 32
0.7070514593210366 3.643403141413395 1.6864039115727285 25 25 27
0.8017545431000299 3.5513656957108948 1.7118922044679654 27 27 29
0.8193907651308072 3.551450112063672 1.71113705255804 30 30 32
0.8464564530158298 3.5404369544557626 1.7135373416037136 30 29 33
0.8957097982249644 3.5033969700673353 1.7233349831909286 30 28 33
0.9125833068167344 3.5047027374494535 1.7222212003409214 30 28 33
0.9885615467782458 3.436842036562592 1.7407601150022507 30 28 33
1.051420436074722 3.3847994834197555 1.7547881000681707 29 29 31
1.1230393805442795 3.3229676878531436 1.7715812595050058 29 29 31
1.200059437682857 3.2553399136442396 1.7900027570046397 35 35 37
1.2421879646678191 3.2285388049459454 1.796824084930635 37 37 39
1.295331832142633 3.189285861489014 1.8071679509021854 40 40 42
1.3595648803168041 3.137620539899161 1.8210187029064149 39 39 41
1.4263551081750787 3.083429464502651 1.8355706447290325 40 40 42
1.4778462394323995 3.047103484085592 1.845047823123667 39 39 41
1.5212565443998627 3.0202627543830087 1.8518288830073115 37 37 39
1.5786711175978714 2.977793400227678 1.8630237974751291 36 36 38
1.6620600569867736 2.906333696598452 1.882406319622051 34 34 36
1.7311185826691018 2.851534598469979 1.8970588190396034 31 31 33
1.0907553850401908 3.592997594769055 1.6866615303058097 28 28 30
0.9813841998046937 3.735934492286199 1.6455206156292472 26 26 28
1.0410943529308805 3.689554863574976 1.6578697635838764 23 23 25
1.0842622701453852 3.6619097075737272 1.664917780629907 21 21 23
0.7007888474139299 4.10686164735574 1.5386249852854967 24 24 26
0.732282854970618 4.091023037226855 1.5423837737670394 23 23 26
0.7652026338250233 4.0737717386736865 1.5465349327980147 24 23 28
0.7939264073036605 4.061285509884818 1.5493372876991547 22 21 26
0.8295274091673592 4.0414182134593855 1.5542133405627507 24 23 28
0.870993143883684 4.015345583780395 1.5608293446116548 23 23 25
0.7651707005725805 4.186755910302356 1.5104469473112672 23 23 25
0.7530603152950124 4.2183513770799825 1.5008547809496544 23 23 26
0.7781421601481324 4.209941094797051 1.502505573406197 21 21 23
