ply
format ascii 1.0
element vertex 730
property float x
property float y
property float z
property uchar diffuse_red
property uchar diffuse_green
property uchar diffuse_blue
end_header
1.01164416691107 3.0939357705153316 1.558676695120246 21 21 23
1.0191020834186775 3.1206923564406446 1.558602303065141 28 28 30
1.02990727757162 3.150652021546348 1.5585754970314338 31 31 33
1.0153653500838251 3.157219142975195 1.5581804153560288 22 22 24
0.9971411693928456 3.160331465880455 1.5577323526440847 14 14 16
0.9266567420587586 3.1145790246247733 1.5565308196848504 13 13 15
0.8707780453499132 3.0821426843022257 1.5555429996594587 14 14 16
0.8513713761964921 3.08371625714036 1.555081870746244 14 14 16
0.8275546609507674 3.0810712901762822 1.5545580331206215 14 14 16
0.7924139367741934 3.0676224211715857 1.5538729127892714 16 16 18
0.7893615645000078 3.0844875017675815 1.5536475764157593 22 22 24
0.7909567598568725 3.1058236392355485 1.5534880934569415 30 30 34
0.7786229550514268 3.1139179900424816 1.553129789662481 34 35 39
0.7195357679302472 3.0771597129953947 1.5521078664214036 35 36 40
0.6429994714947054 3.02330143071996 1.5508415828453164 36 37 41
0.6193757389919916 3.020100042009375 1.5503273034676992 37 36 41
0.5648746984900976 2.9869045433901293 1.549378172112956 37 36 41
0.5465732429119576 2.9885998424952147 1.5489413611785432 35 34 39
0.5346196357297532 2.9964287614886937 1.5485942487096684 33 33 38
0.4909236219146793 2.9731941520495067 1.547802207264351 32 33 37
0.4215372175817458 2.924528300234429 1.5466527365480311 31 32 36
0.7515299378220928 3.2687082997664754 1.5510828411102664 30 31 35
0.6875939124923807 3.225947304648252 1.5500045165324854 30 31 33
0.5019832830729465 3.0622430708595862 1.5472378996345078 29 30 32
0.4510720736177156 3.031333424911554 1.546350371254237 26 27 29
0.4270479016494724 3.0269776100821844 1.5458374910482657 23 24 26
0.43341921005843265 3.0529510888266733 1.545745290996387 19 19 21
0.41819110107947943 3.057339147118391 1.545354454029341 16 16 18
0.4134613266337084 3.072267687735481 1.5451083185425543 16 16 18
0.4302850952727044 3.1090162525225997 1.5451576068286117 16 17 19
0.44169234944423486 3.1404476259298764 1.545131124486433 21 22 24
0.41220999020576654 3.1304136652211376 1.5445448336975387 27 28 30
0.9615890673013543 3.754949936659232 1.5514462488877026 34 35 39
1.019844996803758 3.859253986324645 1.5518279194012328 36 37 40
0.9632473312416014 3.8228467826620287 1.5508600660516287 36 37 39
0.7027894892411588 3.5738651816821045 1.5471549569593093 36 37 39
0.7391093001834808 3.633196090633684 1.547445304141389 40 41 43
0.6658122536731876 3.5779605748265224 1.5462662387545436 46 47 51
0.6324509561438609 3.564284147944578 1.5456241657821053 58 60 61
0.641570705178435 3.59526473171177 1.5455491800539558 87 89 87
0.6694146980059108 3.64619852112711 1.5457216660821531 75 75 74
0.6969456956686342 3.697065380415205 1.5458875637514669 54 52 53
0.7226005407593143 3.7461978911047886 1.5460262286565316 58 56 57
0.7587075793909581 3.8067560811386794 1.5463003931965071 68 66 67
0.8269359370976508 3.9020912188526298 1.5469940607245833 80 80 80
0.8595367835837049 3.959647040208691 1.547215136062788 98 98 98
0.8960066219396055 4.021686078026334 1.5474840334966355 154 154 154
0.9470349401326075 4.099829019675293 1.5479399209636064 172 172 172
0.9978550202563259 4.178186751282402 1.5483890405629055 173 173 173
1.0497381754678472 4.258145322475581 1.5488479070276822 173 173 173
1.076817397403305 4.311423854856139 1.5489812300729406 173 173 173
1.3014836600120978 2.488640750800803 1.585191993282677 174 174 174
1.4905056556858425 2.656866365994287 1.5884115238161338 174 174 174
1.464212314432178 2.6546180366431473 1.5877933176209915 173 173 173
1.4491721480727153 2.661278723996556 1.5873756904065919 165 165 165
1.36602447056528 2.613290925032299 1.5857499679487215 101 101 101
1.3176792643190867 2.5929163906198 1.584744084657535 84 84 84
1.2736231305664374 2.575798599865686 1.5838157691747832 77 77 77
1.226451954200753 2.555973470889298 1.5828338731135163 77 77 77
1.227566397800583 2.5751926736714488 1.582706048919444 53 53 54
1.199432871470431 2.570619875130959 1.5820620307749194 46 46 48
1.2026573166802477 2.591605729275038 1.5819710410017163 44 43 48
1.1780474741796656 2.589812412587224 1.5813899117417156 43 42 47
1.1488896946843687 2.5841923795618476 1.5807295406445796 42 41 46
1.1150604839224747 2.574605719222236 1.5799880659394554 43 42 47
1.0905163357348213 2.5725860936166542 1.5794103492477176 40 39 44
1.0541314708099243 2.560633973185382 1.5786260779604162 37 36 42
1.007461455776379 2.5399490045860524 1.577663235582807 37 36 42
1.0149767400142595 2.5644400010314112 1.5776478557286084 24 24 30
1.0120601767827138 2.5802610621112643 1.5774498479109138 15 15 20
1.0002892591039496 2.5886550688062604 1.5770973780509747 13 11 17
1.0505548886165852 2.6495150933601654 1.5778236604103981 13 10 17
1.0126533005700562 2.6358830350582627 1.577016213992752 12 10 16
0.9490643399087683 2.600218457615914 1.5757645710707975 13 10 16
0.9124711875861098 2.587313885319812 1.574982930296746 13 11 17
0.9575075462161567 2.644230895849743 1.5756144188108065 15 14 19
0.9623249097300963 2.666868463671853 1.5755486754588928 23 22 27
0.972819478901058 2.694488204052132 1.5755801967001672 29 28 34
0.9731087662026835 2.7133884310095944 1.5754349723102161 43 42 47
0.936995640357153 2.700725257645638 1.5746630042001117 51 49 52
0.9086600702187096 2.6946889364286672 1.5740258839098389 71 69 72
0.8780168726343759 2.6865274020853454 1.573350034446512 86 84 84
0.8548110743553955 2.6847697401108945 1.5728025967278632 85 84 84
0.8306348968979214 2.6820794069281115 1.5722391871291668 84 84 84
0.8095785264424942 2.6820598434393186 1.571729767938563 77 77 77
0.7964382786620825 2.688988007811513 1.571355965589259 76 76 77
0.9212064871382329 2.8184994420079326 1.5733323259739536 74 74 74
0.8863406636619702 2.8064141050694325 1.5725858893442857 67 67 67
0.7327219345061992 2.6879066177769735 1.5698227016352415 54 54 54
0.8949528090237009 2.8521430405387287 1.5724260005794488 34 34 35
0.9411788197283885 2.912897132551902 1.5730553749446656 27 27 29
0.9589352567300821 2.948253752696499 1.5732003237187233 22 23 25
0.9597851095276946 2.9684446941952736 1.5730582697369027 17 17 19
0.9646150188441556 2.9923217756617975 1.5729828467686369 16 16 18
0.9614368742179769 3.008978085863384 1.5727717813007083 17 17 19
0.9692759859440732 3.035765868088369 1.5727457396017988 20 20 22
0.9784059400235177 3.0638479858606282 1.5727405122835802 26 26 28
0.9830956293598576 3.0879531191091285 1.5726598591440404 33 33 36
0.9796337116079612 3.1046084002749357 1.572441934484768 31 30 33
0.9756902673394305 3.120857476334831 1.5722156282337996 24 23 26
0.9727232446715959 3.138053574722017 1.5720053245070054 16 16 18
0.9526714874566082 3.139333991931476 1.5715097473144697 14 14 16
0.8980334656354381 3.1081377837049606 1.5704387335372363 14 14 16
0.8492687364068798 3.082189038945092 1.5694675930807929 14 14 16
0.829531861125892 3.083385945868033 1.5689803088239846 14 14 16
0.8217607700967349 3.0958484165341367 1.568691869130651 17 17 19
0.81105201577424 3.105534909445711 1.5683546943777023 26 26 28
0.7885099409838785 3.1039420737874486 1.5678219916280882 31 32 35
0.7622640523253519 3.0987296902699617 1.5672288067592584 35 36 40
0.6964883880928172 3.0555017459453375 1.5659851608155748 36 37 41
0.6268112835739745 3.008166451680162 1.5646801789076576 36 37 41
0.6015724241993075 3.0033537289166397 1.5641081458209818 37 36 41
0.5313332184520343 2.954854430512653 1.5627989357943488 37 36 41
0.5620606417068867 3.004089016690407 1.563146014934292 35 34 39
0.5040292201087286 2.9670412894805143 1.5620400078809489 34 33 38
0.45472805504969527 2.938223141134392 1.5610789959714855 33 34 38
0.3784021992204767 2.882625878942269 1.5596796534575457 31 32 36
0.6904408740455013 3.209012371365178 1.5646024093270152 30 31 35
0.7012386706803104 3.239881091321568 1.564615101076348 30 31 33
0.5061584673523198 3.066822701031133 1.5612878822035303 29 30 32
0.45791847413653275 3.038580368573153 1.560347913578174 27 28 30
0.4447986450028798 3.0451257374458836 1.5599776884657728 24 25 27
0.4328072952085331 3.0527778853854404 1.5596258590605696 20 20 22
0.4094930749682024 3.049042919353992 1.559091722974599 17 17 19
0.3943750075069419 3.053476010344025 1.558690151908409 17 17 19
0.42926056282914526 3.1084227270351663 1.5590918539592773 17 18 20
0.4309162070591268 3.1299619254740207 1.5589584415446347 22 23 25
0.4014167418545953 3.1198734235338033 1.5583257911803605 28 29 31
0.3641396991890735 3.101711693632692 1.5575699418015927 30 31 33
0.3128014925441134 3.068961303417564 1.556591303144299 32 33 37
0.5128113923026247 3.294235816587516 1.5596172669872577 34 35 39
1.039403220105283 3.8799802625142847 1.5676434288892611 36 37 40
0.9845900922100794 3.845488695183893 1.5665947187660296 36 37 39
0.6939754215218192 3.5651596274728226 1.5618194830737522 36 37 39
0.739299752740912 3.6338713539500764 1.56236294425235 40 41 43
0.6629782738364158 3.5754619954418847 1.560986356715993 46 47 51
0.6298416283812376 3.5620106276678185 1.5602927694496462 60 62 63
0.6390775231427843 3.5931065525988464 1.5602658322959597 83 85 83
0.6703938890233065 3.6477106074012786 1.560583917678967 70 70 69
0.694199247120981 3.694627420803166 1.5607821463983835 51 49 50
0.722601684787122 3.7466810916975777 1.5610502541575735 52 50 51
0.7568193964818632 3.8052234951864605 1.5614068337823979 60 58 59
0.8209057021005861 3.89611587998393 1.5622256995511268 74 74 74
0.8520440082326868 3.9520803149580996 1.5625285190719784 88 88 88
0.8964345088831298 4.022648231789939 1.5630344309516093 125 125 125
0.9467368864753241 4.1000115724400885 1.5636286824071723 172 172 172
0.9954002014473646 4.176029582094792 1.5641941030684634 173 173 173
1.0561413187234634 4.265642826555719 1.5649423156703968 173 173 173
1.1075129328306832 4.34552184957693 1.5655421815989028 174 174 174
1.3996758321230078 2.566781148567535 1.6014223101757898 174 174 174
1.277164138029922 2.487903758862463 1.5988575653429677 174 174 174
1.331729877657759 2.549509082598979 1.5998168732814941 172 172 172
1.3416867800130279 2.5757985632673592 1.599887899355359 170 170 170
1.3679962579473253 2.6153105939144043 1.6002826372755818 114 114 114
1.3305133459849419 2.6036806269494064 1.5994115141940506 96 96 96
1.2909789635263786 2.590246545067778 1.5985007851964683 92 92 92
1.2258229729535517 2.5558959036641 1.5970842333927269 84 84 84
1.234719251351195 2.5814398500803892 1.5971334888314255 67 67 68
1.1196942839495874 2.5060198030446053 1.594734897634957 55 55 57
1.0822109109687823 2.4934787356608195 1.5938700611034664 47 46 51
1.1206957789418102 2.543157883171977 1.5945035929383695 44 43 48
1.1332752539008024 2.5717613314852077 1.5946251980745012 42 41 46
1.102901106340758 2.5649861312122457 1.5939009737955931 38 37 42
1.0573754998069886 2.545533077365028 1.5928797631189568 37 36 41
1.0262886019026927 2.537895964758193 1.5921434036137048 35 34 40
1.0035767097507409 2.537132008672496 1.5915721342323674 34 33 39
1.0045938018666922 2.5561708107368566 1.5914663421286912 28 29 34
1.0024690093150408 2.572629015960063 1.591298631172329 21 21 27
0.9917354489836987 2.5818710046118523 1.5909622674544408 19 17 24
0.9835707917339657 2.593280558610266 1.5906761324260785 16 13 20
0.9343617676012372 2.56986077812322 1.5895888379022949 17 12 19
0.960736623157421 2.610586377808813 1.5899768463019108 17 12 19
0.9641403398437749 2.6318884670420726 1.5899159939693113 17 12 19
0.963778238562207 2.650036704933111 1.5897813467805255 17 15 21
0.967839035614222 2.67204263150165 1.5897323092101623 21 20 26
0.9930190547806753 2.7123531336345095 1.5900928556962433 26 25 30
0.9945421391953164 2.73238048094675 1.5899930747955688 36 35 41
0.9597309398353904 2.720908452325541 1.589188682409903 52 50 55
0.9284330242350364 2.7123546973150967 1.5884533026999363 69 67 71
0.8922073806127012 2.699367355623108 1.587623479134819 83 81 83
0.8615415520338487 2.6911047798250425 1.586902132343321 91 90 90
0.8455910228606172 2.6956744600268836 1.5864656325118898 98 98 98
0.8270209556968553 2.6978940241211173 1.5859788805400818 92 92 92
0.812805856118672 2.703920799591878 1.5855763626769073 92 92 92
0.9883902432876982 2.878669867286897 1.588825637478983 95 95 95
0.972640976433489 2.8838335834117372 1.588390140321566 86 86 86
0.9694128969748629 2.900169387116495 1.5881952681232925 85 85 85
0.9276146965742028 2.881910909537491 1.5872604212759376 81 82 82
0.9291136931598605 2.902470610993648 1.5871563488394256 70 71 73
0.8831531504929855 2.880199464544306 1.5861435780402793 47 48 50
0.8048204317840686 2.828354708501455 1.5845134630099995 28 29 31
0.9030992489552989 2.936796823310698 1.5862586716079734 21 21 23
0.9084867127607135 2.961088397502313 1.586227511782755 21 21 23
0.9170552310715963 2.9883860091355388 1.5862563241672616 24 24 26
0.9266884471392891 3.016774158520744 1.5863046256624405 30 30 32
0.9340989313161916 3.043232113937324 1.5863098452616708 34 33 38
0.9352639044606226 3.064018934768532 1.5861957234762962 32 31 36
0.9265010405579457 3.075660361322676 1.5858927998449253 25 24 29
0.9448827498417403 3.112585359088519 1.5861041718266864 20 20 23
0.9312098534739846 3.119739081611752 1.5857076276512518 14 14 16
0.8990683513630529 3.1095600262165077 1.584962068534004 13 13 15
0.8355389949064038 3.069727397920484 1.5836247053553032 14 14 16
0.8191208368741889 3.074012546550053 1.5831783014877647 17 17 19
0.8384255023165745 3.112073474320361 1.5834052506256293 18 18 20
0.8125045367444235 3.1073646151316083 1.5827797879519163 27 27 29
0.7813505851060842 3.097569721149841 1.5820566425676708 32 33 36
0.7534591996018687 3.090760871907347 1.5813956768039195 36 37 41
0.6870551866716441 3.0468988054308532 1.5800131940145457 37 38 42
0.669001858098593 3.0492089291783757 1.5795389336377021 37 38 42
0.6169651695659133 3.018655833854549 1.5784291688882348 38 37 42
0.6265211668067667 3.0474981225916724 1.5784723707790302 37 36 41
0.5620281955910298 3.004497000325098 1.5771324490135852 35 34 39
0.5267493896794244 2.989631698893747 1.5763396432583896 34 33 38
0.3568556608336475 2.8429086401169954 1.5730410899520415 33 34 38
0.6204310390053149 3.1206114550352657 1.577812352751537 32 33 37
0.6071843763720743 3.1274780860198526 1.5774286132955515 31 32 36
0.5463073688733919 3.087263900052986 1.5761612186858511 30 31 33
0.5006922212318197 3.0618458515610234 1.5751789697756373 28 29 31
0.460632250027758 3.041718355825435 1.5743011687158703 26 27 29
0.4411035534964638 3.041877944568395 1.5738043217481494 24 25 27
0.39754626651497005 3.057110166412004 1.572593305344291 17 17 19
0.41940499944351584 3.098900856776786 1.5728593074101107 18 19 21
0.41712848265432756 3.116419891156658 1.5726804115756645 23 24 26
0.3875398912068986 3.1061934899315133 1.5719999864076324 27 28 30
0.35274433503698077 3.0905171840479015 1.5712250544501611 30 31 34
0.29988527471318194 3.0561677495386586 1.5701206567902795 32 33 37
0.5336678579804586 3.316124905121871 1.5742582897480415 34 35 39
1.0300830477054603 3.8708337235970944 1.583025397626067 36 37 40
0.9778693767632232 3.8390055463096044 1.5819199544915137 36 37 39
0.6914953415944782 3.5630487207828074 1.5765578690042816 36 37 39
0.7512270964705763 3.6468092413433686 1.5774951639027528 40 41 43
0.6594154982848293 3.5721990555705023 1.5756802549500053 46 47 51
0.6281350799769778 3.560686160669242 1.5749657753521995 61 63 64
0.6377115808042602 3.592137407566317 1.5749914625339052 84 86 84
0.6694011597910896 3.647135350296207 1.5754157254861438 69 69 68
0.693403167484502 3.694260548684925 1.5756992590615415 47 45 46
0.716532302816052 3.7406955516650857 1.575965405604788 48 46 47
0.7565161944131282 3.805385152672418 1.5765332265199115 52 50 51
0.8150196290285014 3.890294256968866 1.5774314000904779 65 65 65
0.8516354451878261 3.952136212387468 1.5779334062639097 82 82 82
0.8780027783160635 4.003247597000341 1.5782494288701272 110 110 110
0.9418441349354993 4.095216825528766 1.5792343025103501 166 166 166
1.0021174981918062 4.183840597048727 1.5801517276822805 172 172 172
1.0410102244735753 4.249660149676796 1.5806840378026297 173 173 173
1.0794800957257578 4.3153755560966545 1.5812063335208295 174 174 174
1.3247237343797522 2.5078955418846425 1.614253468689902 174 174 174
1.277344880274445 2.488477145325944 1.6131066782863608 173 173 173
1.3195441249080386 2.540233864797101 1.6139292054129162 173 173 173
1.3332169790337605 2.5694630830275225 1.6141237991601232 172 172 172
1.3565732836071343 2.6065861906682586 1.6145301241866923 138 138 138
1.3326570419747235 2.6058427352717306 1.6138989568056352 106 106 106
1.2900965965537519 2.589969250611292 1.6128597328454057 93 93 93
1.2484800354769805 2.5746847786434857 1.61184218855772 84 84 84
1.242444609302042 2.5881533524147096 1.6116040926371504 81 81 81
1.1159832579856865 2.5034199494765836 1.6087330328984855 77 77 77
1.1647809281379014 2.5614757897871856 1.6096945259049813 62 60 63
1.1266293145032054 2.5484586690280344 1.6087559598135435 52 50 53
1.1222124843791468 2.5630780715307027 1.6085542282447804 44 42 45
1.0949245338762632 2.5588223874017335 1.6078537448268655 39 37 41
1.059765621314455 2.547942734735922 1.6069823588917724 36 37 41
1.0255205877048006 2.537683242336404 1.606131675613474 33 34 38
1.0040387976395688 2.537943557406463 1.6055593987360692 30 31 35
1.010388431183686 2.5614514201837193 1.6055924341206151 21 21 26
0.9984979816203702 2.5697191153069614 1.6052287861371937 23 22 27
0.9819182468419773 2.5740204936889075 1.6047634346740938 22 21 26
0.9420911024517449 2.55861506098857 1.6037941335869508 20 19 24
0.9204672608976568 2.5584921011602155 1.603220294446226 21 18 25
0.9805582726820089 2.6278965003676205 1.6044163552040793 20 18 24
0.9653531971437547 2.6333544375609117 1.6039808535830489 21 19 22
0.963712989325849 2.6504112348295465 1.6038388299011965 22 21 24
0.9658562419159535 2.67076870398 1.6037782835559053 24 23 26
0.9842864366778138 2.705250676267412 1.604068964367783 23 23 26
0.9923180505312155 2.7308899136087117 1.60413438902476 29 28 31
0.9646640541073509 2.7256282518208943 1.6034299856987013 38 35 39
0.9379227603262275 2.721059469190453 1.6027458340784795 46 43 46
0.9005737920043453 2.7071156525904505 1.6018339428109627 56 53 56
0.8761237589719518 2.70433038754915 1.6012003767908194 68 66 68
0.8621642889629408 2.71069523658774 1.6007927368694412 73 73 72
0.8445336914674683 2.7137926751693104 1.6003064123466089 75 75 74
0.8287242028803579 2.718457701541393 1.5998594276533395 82 82 82
1.0224683336846974 2.9094132401581296 1.603905141387286 88 87 87
1.0090362932282684 2.916744411087495 1.6035059382348142 90 90 89
1.0019534935234977 2.9297382755474013 1.6032427532174545 91 93 91
0.9596783122271553 2.9111459923291982 1.6022268002832802 84 87 85
0.9690632165258358 2.9389071917338647 1.6023159351964937 85 86 84
0.8863625396058703 2.883540904082383 1.6004381113543742 84 84 84
0.8311431361848982 2.8526642410397867 1.599149127599404 83 82 85
0.8806447972188856 2.91680770805452 1.6000941910852569 66 66 68
0.8594276185360727 2.9167438405973707 1.5995308159887467 45 45 47
0.8737259412295051 2.949143413954652 1.5997237308643655 32 32 34
0.8988187033533068 2.991609619830797 1.6001453562061758 30 30 32
0.8990587497356637 3.011372946320086 1.6000376704661647 33 33 35
0.9093567646691194 3.0405030805859354 1.600143166077981 31 31 33
0.9148925073021041 3.0653370509691333 1.6001469226409606 29 29 31
0.9530040051778144 3.1206015184599156 1.6008405927793392 30 30 32
0.9343311977646063 3.1231088909384583 1.600329982138069 20 20 22
0.8958957311251743 3.107038406110465 1.5994014964838317 14 14 16
0.8517023744678023 3.085377470663721 1.5983522880254672 17 17 19
0.8586352779431778 3.111746129383711 1.5983843099313897 21 23 22
0.8422535596607472 3.1161485691820934 1.5979236365223066 24 25 26
0.8061293657354505 3.1017597056959265 1.5970468562821596 31 32 34
0.7432623246549477 3.061722819442875 1.5956075417381164 35 36 39
0.6971388121784907 3.037361782336623 1.5945226323476147 37 38 42
0.6199200994046328 2.982944525862785 1.5927849878151086 37 38 42
0.6404702307872576 3.0221941502941947 1.5931044792206492 37 38 42
0.6152263949725565 3.0174183662656224 1.5924613099954932 37 38 42
0.6190137433113874 3.0406683894828332 1.5924277531853588 35 36 40
0.6140514407102211 3.055500664203044 1.5922102997392997 35 36 40
0.5457377923570572 3.008586349932849 1.5906659609967477 34 35 39
0.6903817372895729 3.1696470993483183 1.5935796126553934 33 34 38
0.6591561102369032 3.1590705525134446 1.5928109853505439 32 33 37
0.6188871861841836 3.139450234721741 1.591854272270068 31 32 36
0.5487392571710268 3.0901102825761777 1.5902751959485846 31 32 34
0.4323385776490296 2.994526252028625 1.587734074080939 28 29 31
0.4407530599245364 3.0223859663327928 1.587796856153873 25 26 28
1.1025261101730548 3.702329342854143 1.601455982763272 23 24 26
1.0013161337446426 3.62282175882973 1.599225695192986 20 20 22
1.0018030684865487 3.6448669709939394 1.5991113994380495 19 19 21
0.41240281115069255 3.0922625251738216 1.5866402939276045 19 20 22
0.4070631884818463 3.106651883610869 1.5864153713153946 22 23 25
0.3741356770508475 3.0929925287983475 1.585619317070834 28 29 31
0.34058813560772605 3.0785440999813183 1.584811342664771 30 31 33
0.2902966686405377 3.0467812843761157 1.5836584093599129 32 33 37
0.5291835091865604 3.311970997693784 1.5884751301699818 34 35 39
1.0144293012274108 3.8551330001875215 1.5982333324411915 36 37 41
0.9787982611506887 3.840461828466963 1.597371284713485 36 37 41
0.689016663166478 3.5609389137930254 1.5912850062615105 36 37 41
0.7506258651839333 3.646658282119759 1.5924272439129317 39 40 44
0.6554501778150936 3.568513599310398 1.5903494223641974 46 47 51
0.6241080649263409 3.5569208823655227 1.5895835648267271 61 61 63
0.6377322740645084 3.592631274821983 1.5897394600473216 82 82 81
0.6643696745389684 3.642284149401325 1.5901606488931286 66 66 66
0.688722983098353 3.689767951281172 1.5905336678427153 45 45 47
0.7153283464927522 3.739894068948908 1.5909512741413785 45 45 47
0.7491550334312567 3.7980005017867886 1.5915146938229365 49 49 51
0.8162301011944257 3.8920842602907983 1.592753885388619 58 59 61
0.8444844633313844 3.9449355973769715 1.5931995772657208 79 79 80
0.8795047634351723 4.005368246631962 1.593781285701951 103 102 100
0.9340803094958561 4.087310978399067 1.5947584348448947 161 160 159
0.9849786164614294 4.165723152237211 1.5956582557525791 174 174 174
1.012753779854929 4.219362045279128 1.5960866698751757 174 174 174
1.0217319862209995 4.252713890215359 1.596132732415878 174 174 174
1.3184329625240097 2.5033481672565125 1.6284261413011196 174 174 174
1.2974901737928164 2.504906132448599 1.6278376633657976 173 173 173
1.3323966279958108 2.5509087836590614 1.6285934846055337 173 173 173
1.3401420776315205 2.575435015378873 1.6286948965464076 173 173 173
1.3446380846672605 2.5974494469715514 1.628717750853788 158 158 158
1.3276278504669334 2.602231831549277 1.6282234906425173 111 111 111
1.2909709448290092 2.591110527502724 1.6272575774186941 92 92 92
1.246537006533925 2.5735438295366015 1.6261056573447745 86 86 86
1.2295202043379567 2.5780800348944375 1.625612354704593 79 79 79
1.0833353362732396 2.4772159471733763 1.6220220371958263 78 78 78
1.1742496630124806 2.5696559678222175 1.6241173337829657 80 78 81
1.1320575576204914 2.553345310410953 1.623021819722568 71 69 72
1.095863140796259 2.5417989119058615 1.6220707110943802 52 50 53
1.0850435607117324 2.5510833701154976 1.6217274260239598 50 49 52
1.0538739333610172 2.5434838088621827 1.6208975049932983 48 49 53
1.0317891612623689 2.5433260097632537 1.6202852758401745 43 44 48
1.0116246556317958 2.544703058964866 1.619719236726318 43 44 48
0.9943125023677428 2.5484114955993595 1.6192215694125531 36 36 41
0.9846972307755835 2.5585467792695744 1.618907770245587 29 29 34
0.9645254183083337 2.559780165103771 1.6183421935250415 25 24 29
0.9272691388063325 2.546499456046488 1.6173696432910651 23 23 28
0.9082163132940295 2.5485168634178637 1.6168314937036121 23 21 28
0.9674535132599945 2.617164323572424 1.6181577608953956 23 21 26
0.9659906351098337 2.6343288412886685 1.618037683354757 25 24 27
0.9671782656700791 2.6538129008720057 1.6179804303190435 29 29 31
0.9617085351940468 2.667632127374692 1.6177646325929422 32 32 34
0.977153129933982 2.6995274712036923 1.618045612603629 30 30 32
0.9789391957961443 2.719739175762099 1.6180015998979036 30 30 32
0.9433198869322075 2.707517403164269 1.6170695804449418 32 31 33
0.9285132817342445 2.713290239802222 1.616631895637395 32 32 34
0.9149518582219339 2.7201230950805466 1.6162238625518803 33 32 34
0.8883633927838321 2.7155022763427263 1.6155072987924455 43 42 45
0.8811630511506412 2.7278537769495896 1.615250264092267 43 42 46
1.1606744012119221 2.9934907510577577 1.6217781043357673 50 49 53
1.1121364426655231 2.9700740320928016 1.6205393646536859 52 52 55
1.117510682893045 2.9943722648151456 1.6205760196914523 55 57 61
1.0728356275365858 2.974109269480746 1.6194298919072512 64 65 68
1.066434678273942 2.987902423292665 1.619188369054783 76 76 80
1.0196425326209198 2.965442655235407 1.617993653271411 82 82 84
0.9946626594787951 2.962418975979684 1.6173143406555428 78 79 79
0.9051928369689216 2.9010047339323455 1.615115479782953 82 82 84
0.8666504498576038 2.88530813033851 1.6141184199425314 84 83 86
0.8608371225496683 2.8992241608316123 1.6138926375096858 83 82 83
0.8296610894531158 2.8900073919304656 1.613070026721892 82 82 83
0.8661713941783151 2.9426665495978828 1.61383954149617 76 76 77
0.8675277362998124 2.9632968360096403 1.6137816637397044 67 67 68
0.9672837905375913 3.0747320027981604 1.616034409472831 52 52 54
0.9668866129673472 3.094176841054062 1.6159333519099457 43 43 45
0.9708808452028246 3.117757136512916 1.6159350292268173 36 36 38
0.9593131965568142 3.126931273874064 1.6155714924270554 29 29 31
0.9336588099636316 3.1229344273242043 1.6148779647659846 30 30 32
0.8937435642487568 3.1054729763032736 1.6138509730633899 28 28 30
0.8782925944764992 3.110836717613145 1.6133972982090663 29 29 31
0.8860999830532763 3.13811462182325 1.6134876883970366 30 32 32
0.8544201066990638 3.1281187646620188 1.612654700862301 31 32 34
0.8000891579056904 3.0964720820407865 1.611293284110492 35 36 39
0.7216840830769615 3.0416048306771115 1.6093712097484834 37 38 42
0.6406974914703842 2.983839049826174 1.6073909065854066 37 38 42
0.6209354985591187 2.9843582691219126 1.6068400111009706 37 38 42
0.6156695263950662 2.998766222318287 1.6066271427222745 37 38 42
0.5599557999813365 2.9644877484603946 1.6052395329512752 38 39 43
0.5172546388756678 2.9425235920500015 1.6041560670859092 36 37 41
0.4254765444414417 2.8726444821523014 1.6019323346781813 35 36 40
0.4216230553153708 2.887985533652253 1.601754349117009 34 35 39
0.4492510210260443 2.9341655661373682 1.6023073355992523 33 34 38
0.6210570756193108 3.1221196805496687 1.6062055192795108 32 33 37
0.6232489876644924 3.1441939400467405 1.6061641467321803 31 32 36
0.5339645023075457 3.0759543783931393 1.6040020326244444 30 31 33
0.4577505780061304 3.0201559287346047 1.6021450849991588 29 30 32
1.0195125719108613 3.619974153517263 1.6149594188608987 22 23 25
0.9754316638143143 3.597386662868996 1.6138405444855013 20 20 22
0.9284512932689715 3.571665572468528 1.6126557051988195 19 19 21
0.8016812271296339 3.465288481145709 1.609629769275955 19 19 21
0.7503323601090037 3.4344016590073974 1.6083476014675844 18 19 21
0.7164080294574444 3.4209181319163906 1.6074684681064981 21 22 24
0.3700041920881054 3.0892275737988353 1.5993898790014682 27 28 30
0.32969565058001127 3.067859686926588 1.5983700591010088 29 30 33
0.2816876505175472 3.038397021269846 1.597174022430135 32 33 37
0.5469429239363468 3.3306809874788725 1.6031828056971307 34 35 39
0.9799133892031175 3.8199134761868017 1.612934585191053 36 37 41
0.971138755017865 3.83300270598333 1.6126304403672964 36 37 41
0.7078844076367989 3.5810613076316655 1.606490397405232 36 37 41
0.7508623124715721 3.6473825723829574 1.607376160912587 40 41 45
0.6477154620460008 3.5608757911967035 1.6049138800936236 47 48 52
0.6225056138751777 3.555705242271147 1.604238125039806 61 62 64
0.63208188504899 3.587140489240511 1.604358360892169 84 84 83
0.65749112805449 3.6354765786699663 1.604839784005943 67 67 68
0.683195830159971 3.684374952581871 1.6053268040431812 48 48 50
0.7092017705209179 3.73384611165159 1.6058195327830675 47 47 49
0.7506919495757709 3.800129126086694 1.606664181774478 54 54 56
0.8195894606327334 3.896179762398992 1.6081316867254447 65 66 68
0.8491815434192798 3.9504861757515384 1.6087015600430656 82 82 83
0.8842404190050992 4.010981068240297 1.609394509395683 103 102 100
0.9387717352836706 4.092898203946998 1.6105287238673782 161 160 159
0.9953891312683756 4.1775489228915195 1.6117081800907294 174 174 174
1.0364827989294583 4.245753275757641 1.6125329277361182 174 174 174
1.0375080804517918 4.270490558708038 1.6124468451250442 174 174 174
1.33666336210606 2.536450560482343 1.6431512343689185 173 173 173
1.3362342495479715 2.554401287095405 1.6430761858908083 173 173 173
1.3446778179290841 2.5794973557344902 1.643232978434327 172 172 172
1.3367311644960156 2.591542914022437 1.64296097906972 167 167 167
1.3226055189715815 2.5986258227492263 1.6425274773294116 103 103 103
1.2993807514347533 2.5983378211359396 1.641856368479742 86 86 87
1.254112143227684 2.5801155430910807 1.6406098941721259 76 76 79
1.223689220502834 2.573772331370879 1.6397516008017623 67 67 70
1.2183785427742815 2.5878033648990235 1.639548957984038 60 60 63
1.1736685352777392 2.5696117279052593 1.6383185424076305 63 61 64
1.1402552111249702 2.560506948097413 1.6373833433705143 73 71 74
1.097922787499146 2.543924133397902 1.6362161207484496 53 51 54
1.0642631866115297 2.5343324985115894 1.6352754932197087 49 47 51
1.035292734178637 2.528498669745442 1.6344574564070025 53 54 58
1.0133950045915219 2.528444629540555 1.633823935109873 55 56 60
0.9976102045795553 2.533427316189323 1.6333497459147484 53 54 58
0.9823910146294398 2.5388499963980684 1.6328903900653786 48 49 53
0.9630997433192483 2.5408189475284737 1.6323252402010413 43 44 48
0.9909647627440663 2.582504219891876 1.632986200462933 36 37 41
1.0107732765909883 2.6175829186690605 1.6334370596631391 28 29 33
1.0016462427447395 2.6282618917108223 1.6331356686747445 25 25 31
0.969305010591591 2.6191703447189556 1.6322314492990917 23 22 27
0.9614083035245918 2.630842302548602 1.6319621988521527 22 22 25
0.964351401193569 2.6518196354002983 1.631974180685931 25 25 27
0.9573154132839776 2.6642838749206366 1.6317270747662684 32 32 34
0.7511070323486846 2.5048403374208914 1.6263158018498851 33 33 35
0.9333980321286945 2.6807323682486297 1.6309775283032923 34 34 36
0.9248525821908538 2.6919035035521253 1.6306912509193154 34 34 36
0.903962143344577 2.6923190925734595 1.6300852415970288 32 32 34
0.8917252220654723 2.700239530804292 1.6297034764908074 25 25 27
0.8815293172696468 2.7099366688481856 1.6293745785139477 22 22 25
1.2305067860940497 3.0358878904296196 1.638336574643078 21 20 25
1.2421434221888128 3.065915292208439 1.6385685675989614 17 16 21
1.1533088929853919 3.0070175520432176 1.6362032331987104 20 19 24
0.8116394660785625 2.7228141619478947 1.6273070699440897 25 25 30
0.7979369250047649 2.729283233839996 1.6268879543241208 33 33 38
0.7820617301167266 2.7337836262400836 1.626412831871215 36 36 41
1.0440532526044404 2.9878149338569084 1.633108425128681 36 36 41
1.024209371718948 2.989491272485798 1.6325283039332916 47 47 51
0.925707527149456 2.919994035410755 1.629920183732179 66 66 68
0.9047155855656657 2.9202771138609096 1.6293116992990866 75 74 75
0.8783350438093751 2.915589696040673 1.6285646134324168 80 80 79
0.7905157953210589 2.854703019354971 1.6262356001799414 82 82 81
0.8440612581451021 2.9228538935629693 1.6275474016146638 82 82 81
0.8468340560544982 2.9447202650709006 1.6275513531948254 80 80 80
0.9455414719469684 3.0551334685935365 1.630022666541907 65 65 67
0.9544448373902934 3.0831182673010513 1.630182686600836 63 63 65
0.9521827930012348 3.1008541792159416 1.6300553434397396 54 54 56
0.9651090237762394 3.1327838003652078 1.6303180197983205 54 55 57
0.9309049257847648 3.1208148633716366 1.6293699292009427 51 52 54
0.9110718847607269 3.122170571779532 1.6287912403862461 49 50 52
0.9147358551420595 3.1455676192278244 1.6288156415372321 45 46 48
0.9043185824942939 3.1557613040399355 1.628478604826488 43 44 46
0.8724108013860234 3.1456051758832935 1.627590643645658 40 41 45
0.7970142389961485 3.09400050338377 1.625588752046057 39 40 44
0.7007646304732866 3.0221116714444363 1.6230541547664457 39 40 44
0.6512271056660937 2.994347936731563 1.6217174302347523 39 40 44
0.6183574980918074 2.982324722518369 1.6208081485266297 38 39 43
0.5825203474029352 2.9672989598648636 1.6198234634419613 39 40 44
0.5384010148296541 2.9441092496848693 1.6186275800156458 39 40 44
0.5202137079475357 2.9458259708997536 1.6180952583862975 38 39 43
0.44268932258146276 2.8898066853669313 1.6160471912098864 35 36 40
0.4423335472384955 2.908614916359939 1.6159712732391631 34 35 39
0.4987524259029501 2.983036827306343 1.617344350281741 33 34 38
0.3546177497654681 2.860992843731512 1.613598973546792 33 34 38
0.6269010622940379 3.1482392327416457 1.6204765187287256 32 33 37
1.2120753819498218 3.790525894020737 1.6351702432323905 27 28 30
1.164652163777043 3.7653070365675227 1.633885826637507 22 23 25
0.8603845642395589 3.4826690671823517 1.6260665926572186 19 19 21
0.8240261225937453 3.467237055522195 1.6250682390656426 19 19 21
0.7599468199087802 3.4236927467184857 1.623365740915784 19 19 21
0.7059533197209247 3.3899903897611052 1.6219207824627537 19 19 21
0.6684516901110096 3.3727283058922817 1.6208957306872034 21 22 24
0.6175528187658601 3.3416463218083488 1.6195311868233015 27 28 30
0.3117385449073651 3.0499589332165398 1.6116987662904099 29 30 32
0.6007638272239129 3.3657610850864703 1.6189611849035814 32 33 37
0.5167378668403253 3.3000869679505698 1.6167586509996767 34 35 39
0.9539505321056954 3.793539154670638 1.6276897199870775 36 37 41
0.9684259345699777 3.8306779437211 1.6279790538248948 36 37 41
0.7165053138165953 3.5905135913137203 1.6215265257885503 37 38 42
0.7485244162931162 3.645416681530328 1.6222615862058076 40 41 45
0.6451244706949575 3.5586297985206716 1.6195720409505512 48 49 53
0.6417733808004171 3.5764429521187706 1.6194129118356908 62 62 64
0.6343305981422496 3.5899853521763307 1.6191502717632074 87 87 86
0.6559268570036494 3.634294976709717 1.619620660709672 72 72 72
0.6836719365953956 3.685358586199228 1.6202454289098402 50 50 52
0.7068640537453061 3.7318355134472334 1.6207544395046887 55 55 57
0.7479675531936492 3.7977012061328432 1.621714149465752 68 68 70
0.8196683641262017 3.8967563220707597 1.6234435329724934 83 84 86
0.8533939952441725 3.9555158478077486 1.6242145243934143 94 94 95
0.8830967459611987 4.010245315993419 1.6248831564642638 118 117 116
0.9386215969027905 4.093240354091928 1.6262004490922204 167 167 166
0.9877706062729235 4.169777570357246 1.627355759277215 174 174 174
0.9370924180325388 4.137868372392904 1.6260004880299752 174 174 174
1.0924290911734673 4.331103676103142 1.6298216583776055 174 174 174
1.3158841941156623 2.520379062841676 1.656934827173754 173 173 173
1.3292260387107584 2.5492504457146614 1.6572689536216443 173 173 173
1.332335469956257 2.5700638386363166 1.657313756241689 174 174 174
1.341570806359402 2.595862212793728 1.6575313925775157 139 139 139
1.3486760807159262 2.620049122383092 1.6576886460779403 95 95 96
1.287016061388478 2.588786685526569 1.6559045901113378 81 81 83
1.239979831920442 2.5690965563295785 1.6545338933782576 72 71 77
1.2084011584366383 2.5617742781207236 1.653599804562889 65 64 70
1.1588647613513965 2.5396839697835545 1.6521594276514373 61 61 65
1.1842877692182294 2.578735458944865 1.652833587554004 59 58 61
1.1787754987533279 2.5925730408718244 1.6526350468716025 56 54 57
1.1170063642265387 2.5600777092902813 1.6508505985312623 55 54 57
1.042757138628269 2.5169789858140126 1.6487150931833445 46 45 48
1.0385768931735644 2.5316490263661926 1.6485547241331298 38 39 43
1.0138836226335561 2.529276842201421 1.647816430157984 38 39 43
0.9858806473095882 2.524057795007157 1.6469851181340014 42 43 47
0.9707902020008523 2.5295556306756763 1.6465176235099916 46 47 51
0.9706555879821507 2.5475956307103025 1.6464712135221384 47 48 51
0.9848803098891565 2.5778000930915335 1.6468288060426681 44 45 49
0.979222327506718 2.591313169984902 1.6466266377972387 39 40 45
0.9777711006752724 2.6084208351197415 1.6465427549488767 37 37 42
0.9623661197423528 2.6136882885644286 1.646066326109024 29 29 34
0.9593905376700638 2.629547128910395 1.6459394554033389 26 26 30
0.9412140082393701 2.632408731230142 1.6453851845871903 27 27 30
0.7747759157851257 2.5076583039484133 1.6406642735344499 26 26 28
0.7139450695867472 2.4731783133714655 1.6389127499624183 25 25 27
0.9259071482437462 2.674675639500727 1.6448248431187753 28 28 30
0.8978121261235885 2.6688371225005465 1.6439922126744213 32 32 34
0.8911409645918097 2.681571768768413 1.6437613509045796 30 30 32
0.8786098980971222 2.6891979374386867 1.643365958393708 28 28 30
1.2966718026470376 3.114548834490013 1.6549610607354825 16 15 18
1.2596484312350857 3.1017324427255764 1.6538758543403604 13 13 15
0.8218766541306306 2.73234933210399 1.6415556062419523 13 12 15
0.8087339602277813 2.739348124225165 1.641143261956946 14 14 16
0.7963059020541389 2.746966366302879 1.6407509910931264 15 15 18
0.7829807772474608 2.7537626475155097 1.6403336266958346 20 21 24
0.7609447331881333 2.7526870781516752 1.6396723351434286 24 25 28
0.9422767990357007 2.935418804758376 1.644705784043655 30 30 33
0.8969209563614808 2.9136488137744765 1.643390590674591 32 32 33
0.8768170887665934 2.9146500096801677 1.6427826283781966 40 41 41
1.014886906386967 3.060030447973697 1.6466005338752563 52 52 52
1.05133452686136 3.1131982688044526 1.647573657966924 61 62 62
1.032528017476335 3.1158571823252723 1.647000885427307 72 73 73
0.994049837342347 3.100321356919483 1.6458782389435742 64 65 67
0.9733971350341404 3.1011071319647563 1.645254249246774 63 63 65
0.9900391379352074 3.1364516411412393 1.6456725923136957 54 55 58
0.9778640099317246 3.14511911254701 1.645285477340639 52 52 56
0.9552048084591966 3.1439767762259527 1.6446055704665234 48 48 51
0.937995293001989 3.1478668624444883 1.6440780154060883 46 46 50
0.9279077285471138 3.158412671028177 1.6437493764662934 51 51 54
0.9073718868650733 3.1590977626345937 1.643129143482604 54 55 57
0.867800717213361 3.1416934464869906 1.641977958532052 51 52 55
0.786538194941037 3.0844972507408004 1.6396642821464502 48 49 53
0.6993959949349566 3.0212505753146006 1.637187691043093 43 44 49
0.644527431690286 2.9883819402831313 1.635611992909432 42 43 47
0.6159468515244315 2.980451390293848 1.6347696471862796 42 43 47
0.5724787314422466 2.958070732467494 1.6335127535729412 44 45 49
0.5290557185351887 2.935519496883317 1.6322576192619287 49 49 53
0.4858212941764457 2.9129361236406037 1.631008241471917 45 44 49
0.46774382443652995 2.914594864022633 1.630459778859022 37 37 42
0.46813393501194533 2.9342118510248563 1.6304254732490309 35 35 39
0.44731295951785244 2.933135871495793 1.629800785551351 34 35 39
0.4055443423377205 2.9114207121672058 1.6285935255185267 33 34 38
0.5545154271588957 3.077384454034758 1.6326914961788919 32 33 37
0.9078414111934925 3.4463387173513604 1.6424688945120443 32 33 35
0.998525870506078 3.55723576184337 1.6449403181443476 30 31 33
1.1194116887582768 3.698837330456013 1.648249442637327 27 28 30
1.0714160889268682 3.672741254260609 1.6468648857759078 23 24 26
0.767102455514727 3.3897294791786363 1.638362163831105 18 18 20
0.7548052905272402 3.3981619976733572 1.6379719242287807 17 18 20
0.6995913622048562 3.3633211827042544 1.6363904526138597 18 18 20
0.6414550348193644 3.325225955694922 1.6347285870565074 18 19 21
0.5986209828409255 3.302336972690683 1.633491987658691 22 23 25
0.5726926797850398 3.296438321151962 1.632724768941606 32 33 35
0.6629014367300388 3.4090460858348335 1.6351778459701802 28 29 31
0.5412307002165324 3.305217620820927 1.6317563916590396 31 32 36
0.49045169934890076 3.273517280413586 1.6303011451046454 34 35 39
0.9353310365818679 3.7747601315565404 1.6425259180371348 36 37 41
0.9653807507039405 3.8280077130515844 1.643306123457867 36 37 41
0.7111377132853651 3.5853958770230525 1.636216882801741 37 38 42
0.7548117834278796 3.652464653981315 1.6373750603675858 40 41 45
0.6539854164682417 3.5683911686967713 1.634535143359368 49 50 53
0.6534931016284493 3.5892431805343916 1.6344713558168233 64 65 67
0.6380327505164687 3.5943646060539036 1.6339936018468912 87 88 88
0.6616044120575981 3.6407816953175742 1.6345946983611084 72 71 72
0.6868104121586558 3.6891708383827515 1.6352403978662915 51 50 52
0.7190324672784631 3.7452867833021877 1.6360793087542527 53 53 55
0.7456516821276773 3.795709766456315 1.636762805022727 62 61 62
0.8227780712041299 3.9005847814400196 1.6388399421946584 78 79 78
0.8544531007661891 3.95715169658392 1.6396613156083555 91 92 93
0.9182201077216838 4.04867847712846 1.6413673523130095 134 134 133
0.9227018519310202 4.076494934754788 1.6414370526698165 173 173 171
0.9301912730196971 4.107690411524067 1.6415894233333435 174 174 174
0.9372740768119321 4.138573712839791 1.6417302779367464 174 174 174
0.9348482073384647 4.159180567367869 1.641608819317564 174 174 174
1.8764534770783126 2.9464396403793596 1.6882996892782132 174 174 174
1.2734873162614941 2.4871323835990404 1.6699758467065005 174 174 174
1.3085400699569203 2.5331970532340593 1.6710177167157287 174 174 174
1.3369864122977018 2.574218412558921 1.671858834314435 156 156 156
1.3631282232661572 2.6135962071036642 1.672629783313629 96 96 96
1.3656679603061663 2.634166789986029 1.672684476645719 88 88 90
1.3325194362208292 2.625977581740205 1.6716565212399417 75 74 78
1.2791410860704877 2.601268201269757 1.6700151311047222 69 68 74
1.1982937122093364 2.5539870065958814 1.667540958865649 64 63 68
1.1724385454486892 2.5511881897561803 1.6667348444353853 61 60 64
1.2675601097890912 2.647335288952735 1.66959695654346 56 56 58
1.1882892875047615 2.6008197710484717 1.6671712201482538 57 57 59
1.1429870338402508 2.581917556615962 1.665775674614953 56 56 58
1.0722520987834052 2.541792087937383 1.6636094749082033 54 54 57
1.05553241640897 2.5461414657333648 1.6630807549215734 45 46 50
1.0297047970788542 2.5428712814344276 1.6622760717652554 38 39 43
1.00496718492552 2.5404221923012646 1.6615045245047202 34 35 39
0.987433917653017 2.543926168096445 1.6609513523767192 35 36 39
0.9762504465240694 2.55272471196494 1.6605905951765312 37 38 41
0.9871053474498589 2.580104228619043 1.6608974091668758 39 40 44
0.9687539848236213 2.582881615082674 1.6603195003096127 46 47 52
0.9635984280370279 2.5968152126674253 1.6601412728213083 46 45 50
0.9643398595892376 2.615798388079588 1.6601415790652263 43 42 47
0.953828449281999 2.6252221025092783 1.6598011088244833 39 38 43
0.9491716630684222 2.639662367919993 1.659637885799877 35 35 38
0.890804480504805 2.607915633406644 1.6578487937691677 31 31 33
0.9047651796411207 2.6383331797325553 1.658249180283153 27 27 29
0.9339965781163543 2.6821133968931368 1.659111547855502 26 26 28
0.8906465310437349 2.663039628111689 1.6577773303955248 27 27 29
0.8840119089779084 2.6757859612341997 1.6575542279632964 26 26 28
0.8753761127781909 2.6867993356835544 1.657270562525271 24 24 26
0.824170246680487 2.6604535535688414 1.6556991646979395 19 19 21
0.805632285461821 2.7183324218964087 1.6550489226661251 13 13 15
0.793887606708226 2.7265309790648264 1.6546713187870457 13 13 15
0.7578010410407774 2.731575394001566 1.6535354080801503 11 12 14
0.7500801873068969 2.743326204486073 1.6532794984402335 12 13 15
1.0234073581268048 3.0092251737659694 1.6615161573944282 13 14 16
1.3964791429008996 3.388107508422745 1.6727393538094726 23 24 26
1.0729833710981795 3.113539164370845 1.6629424423157033 29 30 32
1.0565035544286983 3.1183903320695707 1.6624206267030641 35 36 38
1.0501859976546546 3.132545614581657 1.662205750993567 38 39 41
1.0707131939521208 3.1714841959523445 1.6628014436824126 40 41 43
1.0455532420091709 3.168332218152763 1.6620175216868487 41 42 44
1.030422062436035 3.1744001632398633 1.6615364618674713 45 46 50
1.0300847429813078 3.194218514499459 1.6615019860077744 58 58 63
0.9898073005862857 3.176770662510476 1.6602620058229913 62 61 66
0.9637367671398362 3.1724587014949073 1.6594509744535124 49 48 53
0.9433799701688002 3.1734236726087355 1.6588124650892224 42 41 46
0.8952779629124321 3.148137837605284 1.6573369660206412 39 39 43
0.8548567154641367 3.129889093786905 1.6560934499229858 46 46 50
0.7753902194958089 3.0743541270720076 1.6536724710163995 45 45 51
0.7041296905745651 3.0262062201166517 1.6514994963313365 43 43 48
0.6564134805142723 3.000189886248902 1.650036957566733 45 44 49
0.5946675908972481 2.9604727922040963 1.6481517004376558 45 45 49
0.5500555148421629 2.9369214377677904 1.6467833735928912 50 50 55
0.5083529835950522 2.915958680378712 1.6455030171628666 65 63 68
0.46358154164448173 2.8918178467347175 1.6441304121035993 62 60 65
0.43000624425593825 2.8783376300066617 1.6430954796440957 46 44 49
0.3945263119338782 2.86284548191116 1.6420033433326875 39 38 43
0.3386701766279545 2.8272449296081623 1.6402975193433973 36 36 41
0.31145877247147724 2.8194709178604556 1.6394549464506032 34 34 39
0.285733706089772 2.813045754424465 1.6386572812107474 33 33 38
0.7952984770498652 3.33557530071165 1.6539805569041834 32 32 35
0.7901589819912127 3.351092802565443 1.6538009209888673 29 30 32
0.7947122602018442 3.3762862716941275 1.6539130772440944 27 28 30
0.9940343882528313 3.5959870267097265 1.6598884816451271 23 24 26
0.6746398600955559 3.297596875470836 1.6502487205741292 18 19 21
0.6885774089451819 3.332083898949227 1.650643471640403 17 18 20
0.6407257649336566 3.3044425690648493 1.6491786534986488 17 18 20
0.606486581189869 3.2903176956089197 1.6481237135256288 20 21 23
0.5604715321529294 3.2640823943359583 1.6467147001363127 23 24 26
0.5251796640098876 3.2485229044172783 1.645628533132083 32 33 35
0.6346517796040794 3.380654771548812 1.6488965195467284 27 28 31
0.512193527472135 3.275916292455878 1.645188898396581 30 31 35
0.4535382797560823 3.236017429866749 1.643400624600529 33 34 38
0.362078209959952 3.161949584630382 1.6406265060833796 35 36 41
0.962409835333778 3.825414153155434 1.65862150792791 37 38 42
0.7046893051960577 3.5791514457068505 1.6508497775715258 36 37 42
0.74684355379004 3.644614090333867 1.6520905786269235 40 41 45
0.6544592914940142 3.5693591389975814 1.6492889573224125 51 51 53
0.6536165227665875 3.589845186816155 1.6492378507908823 67 67 69
0.6417754968275529 3.5987872898301925 1.6488563331687525 85 85 87
0.663687173648237 3.64346241111695 1.649488449860048 66 66 66
0.685151060855901 3.6878859578776977 1.6501068504140906 49 48 50
0.7115507010656827 3.7377931308071926 1.6508731659010578 54 54 57
0.7422365170650533 3.792542295209194 1.6517678331614605 66 68 67
0.8415846936831137 3.921256804484229 1.6547229758956552 81 81 78
0.8679920990033718 3.972222968318007 1.655488256612763 89 89 90
0.9225646984755764 4.053873077808085 1.6570983267107573 137 137 136
0.9223932018737142 4.076664071097425 1.6570654554595194 174 174 172
0.9246005194525229 4.10211744671508 1.6571038490980838 174 174 174
0.9292455158444846 4.130323356609108 1.657215241815362 174 174 174
0.9251388882741416 4.149063006631452 1.6570640554731202 174 174 174
1.9754460629638246 2.985584323542483 1.7069916113618282 174 174 174
1.9142995667342282 2.9571540291124263 1.7050066300406899 174 174 174
1.7908995088154327 2.879166129595416 1.7010020815818019 174 174 174
1.2969722112760662 2.5062193691584023 1.6849772626389 174 174 174
1.3284189225596705 2.5494752816639714 1.685996229367551 170 170 170
1.3579265742760522 2.591401213019113 1.6869522770676464 112 112 112
1.3834567281982348 2.6303468148172486 1.6877792785990517 91 91 92
1.3508707064658174 2.6226921763008657 1.68672095595277 81 81 83
