ply
format ascii 1.0
element vertex 722
property float x
property float y
property float z
property uchar diffuse_red
property uchar diffuse_green
property uchar diffuse_blue
end_header
0.9881572756791384 2.3466449060725867 0.03801169168463103 34 34 36
0.9755971209395672 2.333776385066905 0.04122473448870975 35 35 37
0.963573583880158 2.3160331624358887 0.04489212109404464 25 25 27
0.9480881205203979 2.332311126815599 0.04534778152269603 23 23 25
0.9354211465103102 2.321241672040519 0.04838000041332052 15 15 17
0.9214622178885159 2.32261353612776 0.05024145152944928 13 13 16
0.90835036457482 2.316108859213392 0.05283991134854038 15 14 18
0.898172160723362 2.283078309632658 0.05790873725367579 16 15 19
0.8867191833229889 2.2624303620668753 0.06181072399391166 17 16 20
0.8687747793333045 2.2997746723792494 0.06032306477765373 18 17 21
0.8536986713955544 2.3110490079780743 0.061265465082862514 19 18 23
0.8408323142172069 2.302999468800679 0.0639970450344724 20 19 23
0.8291218799862636 2.285356525476339 0.06760838583977133 18 17 21
0.814090194838589 2.295971938856251 0.06861625084529971 15 14 19
0.8002676973593409 2.2963129414410437 0.07057047615909207 21 20 25
0.7865320307633615 2.2959291361094305 0.0725912421714773 29 29 31
0.7690235143106479 2.3258903463930185 0.07184601508715988 34 34 36
0.7525926306206022 2.346520902132309 0.07196317164167856 36 36 38
0.7334044181354201 2.388238032237687 0.07017779133860277 40 40 42
0.7161138650870458 2.4142155122914293 0.06983564384693505 42 42 44
0.7009211512616166 2.4235043907107814 0.07101138562770534 46 46 45
0.6874825495780735 2.4193102148765866 0.07340492771291363 101 100 99
0.6754720653790224 2.4045520919061594 0.07674486674571643 165 164 162
1.3709617241780092 3.0283938444991625 -0.07650996642781577 71 71 73
1.3577247893037117 2.99595091824111 -0.07111633505600495 54 57 58
1.344646932510332 2.9624584448897844 -0.06563285131345581 35 37 38
1.3315459888329806 2.9313238172762937 -0.060399397725872495 41 41 43
1.3185531865816562 2.900026005215287 -0.055163993550400026 47 47 49
1.3056190651222537 2.8694291200824025 -0.05001236231464867 54 54 56
1.291240936702453 2.8646189093350114 -0.04742348890110443 64 64 66
1.2554956784903841 2.7371182949496804 -0.02857201295408146 55 55 57
1.2244545140158647 2.768464719114846 -0.027466995584784215 60 60 62
1.2054796910898642 2.832792832753652 -0.03164480939622266 59 59 61
1.1779591746524585 2.8092561451325806 -0.025149800645022202 57 57 58
1.165967401621726 2.7744061430881573 -0.01967695993864793 55 55 55
1.1553467518785931 2.7229396884996264 -0.012616224431425016 54 54 54
1.144622575104564 2.6749328312449006 -0.005912313322739393 53 53 53
1.1250690451947232 2.561129781424128 0.009133963860474714 48 48 50
1.1051012586278315 2.631419036252263 0.004458702618886368 45 45 47
1.0936891065180068 2.596999090018679 0.009801804630708844 45 44 47
1.0816242041242983 2.5714975875860606 0.014280661273591538 38 38 42
1.0694266189734594 2.54844925644798 0.018515038399775002 34 33 37
1.0587968767113547 2.5085496996100614 0.024334188502831755 29 29 33
1.0491496881413662 2.4591802584895586 0.031029310510252844 27 25 28
1.0379707981544906 2.4281908850474974 0.035970172894845165 23 21 24
1.0273926935731639 2.3918330002546946 0.04140131897086449 35 33 36
1.0155449870725453 2.3700388132698764 0.04545051448102963 52 51 54
1.0033302774972397 2.3527523233895953 0.049068233318105114 30 30 32
0.9911070068562831 2.3361080371701335 0.05261817928258289 30 30 32
0.9793990462450597 2.314834494152638 0.05659129163871102 25 25 27
0.9670579977758724 2.300457689285609 0.05991456307435916 21 21 23
0.9489774260083845 2.3421431845371044 0.058040893608163946 20 20 22
0.9365412310898039 2.3286769113231824 0.061280037216354166 13 13 15
0.9243145889322302 2.313639036046293 0.06465785566755014 12 12 14
0.9113620530820074 2.3057602693510098 0.0673710148166003 14 14 16
0.8987270690258661 2.295206848973919 0.07032581128852014 16 16 18
0.8874013317410092 2.273179603031066 0.07432482972135829 16 16 18
0.8725098992998475 2.283370141824888 0.07537580158446808 17 17 19
0.8583584040681856 2.2868001280517736 0.07704658300200554 17 17 19
0.8452756302590936 2.280918222342814 0.07956394214598567 17 17 19
0.8314150970851991 2.281797931683884 0.08146682804232916 16 15 18
0.8175506022506491 2.2826785182655334 0.08337019058353387 14 13 18
0.8027445817231941 2.291314929368298 0.08457584930329945 19 18 23
0.7885854340148001 2.29443564922732 0.08628096504503119 24 23 28
0.7741050053263351 2.3000555597961028 0.08776383485931136 26 26 29
0.7544827826193445 2.346418258499372 0.08560975089190934 30 30 32
0.7357371962223004 2.384715510517298 0.08419599159517177 33 33 35
0.7192769476380027 2.4043255453445695 0.08446089099805829 37 37 39
0.7030824745532388 2.4214079747158705 0.08495908835431468 40 41 43
0.6880760628811938 2.4290775985278237 0.08629750904743999 75 75 76
0.675932581577932 2.4151559195850463 0.0895434049210021 154 153 151
1.37531921757186 2.9838379876553667 -0.05743381336570602 63 62 64
1.3612687329897788 2.968390239055597 -0.05377349653335256 41 42 44
1.3476934173132675 2.9449097613266244 -0.04933148050074776 34 35 37
1.3351218815183228 2.9044437585956113 -0.043236388651652635 47 46 49
1.32230851024941 2.870559818775802 -0.03780308986468195 55 55 57
1.3089133700678623 2.8485783287262594 -0.03354569971738408 61 61 63
1.295135278059309 2.834196722816094 -0.03003748865378425 65 65 67
1.2833792682142853 2.7874835678565546 -0.023398745807445054 51 51 53
1.273075606267357 2.7200015526411745 -0.014771153894296063 50 50 52
1.223570710550566 2.8118803212784895 -0.01735980377270635 58 58 60
1.1803731588700077 2.80426380572417 -0.010326941302373271 55 55 55
1.15818994723553 2.7121664071540548 0.002618349622199201 52 52 52
1.1484707680510615 2.6512003276247262 0.010472037589912775 54 54 54
1.0968203764129945 2.5833474647933183 0.025098815594832014 48 48 48
1.0845234931056131 2.5607316587309468 0.029265033894830206 40 40 41
1.0725907867889188 2.5347490743855854 0.03373510118133288 35 35 36
1.0613779931339196 2.501562882933328 0.03886383386347078 30 30 32
1.0519311436359384 2.4499478959983962 0.04568853726697389 26 24 27
1.0404009477688707 2.4228527878511654 0.05021833527504857 26 24 27
1.0289403071217642 2.3959356063204593 0.054719275286438634 38 36 39
1.018083734190282 2.3635559288737875 0.05971129814367998 36 35 38
1.0064148241374034 2.3406611186487027 0.06381652716998734 28 28 30
0.9937066287485159 2.3290972492533464 0.06687228549208976 26 26 28
0.9820577088527875 2.307276302781771 0.07086097415653453 21 21 23
0.9658114914789487 2.3314974500753323 0.07063919757131182 19 19 21
0.9525193450408647 2.3262606881916574 0.07310946191967993 16 16 18
0.9414486961006348 2.299931859462885 0.07749191459145413 13 13 15
0.9274192579606316 2.3022567486660908 0.07926812289697518 12 12 14
0.912569030743325 2.3121171370999667 0.08036507885082811 14 14 16
0.8981386907568478 2.317839924129207 0.08183943815845862 16 16 18
0.8888359583477015 2.2771986643620874 0.08748189687684754 16 16 18
0.8745425928002987 2.282022693446087 0.08903163745953499 17 17 19
0.8602062182045939 2.287078232751589 0.0905630743060662 16 16 18
0.8457497174245954 2.2930212946667567 0.09201789044123987 15 15 17
0.8319750924107843 2.2929873052064 0.09400703485447193 14 14 16
0.8182645483744329 2.292407441824722 0.096044718171578 14 13 16
0.804054111845735 2.2959768909834932 0.09771529099529555 18 17 20
0.7905538301652574 2.293636788650845 0.09990897154225675 21 20 23
0.7758174273868628 2.3013258836757 0.10121933223336405 22 21 24
0.7562524137298328 2.3472802174166376 0.09917568096896626 22 22 24
0.736221019733585 2.395729974109549 0.09693513801632994 25 25 27
0.719384763640494 2.41813942146286 0.09699016495471921 31 31 33
0.70420982677415 2.4272414951076837 0.09821418710532451 38 39 41
0.6892876650681018 2.4341977731009248 0.09962888619541857 61 61 62
0.6765225144751041 2.424829763898246 0.10246044217514666 139 138 136
1.3652691337871359 2.9316942798067194 -0.03562856612580795 35 35 39
1.3517548299174003 2.9080301192730262 -0.031213552496490604 34 33 37
1.3385378223097941 2.880285283159392 -0.02641607999240192 53 51 55
1.3255520208974114 2.8499886539454278 -0.02138597312505286 61 61 63
1.3120228420268547 2.830776873486178 -0.017432880900055403 61 61 63
1.3012638656985638 2.7658815096575324 -0.009117659693746727 53 53 55
1.1510071881329482 2.6443742274427393 0.02521129057045421 50 50 49
1.1033051493505535 2.5294336719685306 0.04406920676550943 47 47 46
1.088533291500511 2.5368571710213166 0.045425309098088174 43 43 43
1.07551357008121 2.5237710812991403 0.04866647319390163 38 38 38
1.0640173573719578 2.4938876566619443 0.05343873951535985 32 32 32
1.054743781723942 2.440329443384278 0.060358134510393596 30 28 31
1.0429230201777215 2.4164904153233873 0.06454719506999351 33 31 34
1.028829362738989 2.417882546018281 0.0664341548535515 41 39 42
1.0167358544165828 2.398093766038279 0.07024038835116056 32 31 34
1.0039353531239177 2.3862971339243573 0.07331554613729033 26 26 28
0.9914417683822488 2.3717431773341526 0.07663384445592539 21 21 23
0.9793361946872475 2.3537508994129888 0.08025457036146635 17 17 19
0.968160692150845 2.3271246016986495 0.08464110951480366 17 17 19
0.954605745436978 2.3244823261079137 0.08687089782171573 15 15 17
0.9408068848466031 2.3242491630594153 0.0888847554113765 13 13 15
0.9274352067083075 2.3199819182881654 0.09125748812946974 14 14 16
0.9127147353695695 2.328371347462958 0.0925055037091854 16 16 18
0.9017383867825888 2.3022116885763038 0.0968146911394113 17 17 19
0.8901091527244777 2.2826961487974327 0.10052550488538181 17 17 19
0.8760351410355252 2.285480634315248 0.10226450865675718 17 17 19
0.8617945327876632 2.289638634913925 0.10388437295534754 16 16 18
0.8475960611944257 2.2933074914290885 0.10554914477099889 17 17 19
0.8329284898799775 2.3008680416784673 0.10687592612373319 16 16 18
0.8198700501854697 2.2946756592574453 0.10940415005416636 16 14 17
0.8068665587148087 2.2881842778632016 0.11195561570469656 20 18 21
0.7907959710709093 2.3069812257270566 0.11231353161154535 23 21 24
0.7768141023473972 2.308392410192125 0.11418238745885127 21 20 24
0.7587914090458557 2.342009515650945 0.1132770761225128 21 20 25
0.7382631379217482 2.394507964569273 0.11076504615941221 24 23 28
0.7210176307105551 2.4201384212182897 0.11058011674965523 27 26 30
0.7035882887433345 2.4465385466690157 0.11034147147267842 33 34 36
0.6906814879802382 2.4379562255701197 0.11309693209142277 51 51 52
0.6776997632046267 2.4301354392061723 0.11578382161500939 118 117 116
1.3814707010397633 2.945373089510407 -0.02452633865173487 55 54 58
1.3682587143657514 2.9144824629681056 -0.0194510357261653 33 33 36
1.3566175223247943 2.855624290029703 -0.011732355891623636 37 36 39
1.3425798102075954 2.8443974719203826 -0.008555787598934883 55 54 57
1.316584073037716 2.7875865668384177 0.001023021014151082 53 53 55
1.2281478489640696 2.805093856116481 0.01198075752896327 53 53 54
1.161705622608445 2.7193322762597187 0.030363556429757632 47 47 47
1.154616264230144 2.6235437222830793 0.04121541793162262 47 47 47
1.1203376468855923 2.5182141413244334 0.05696757348959758 48 48 47
1.106072898457701 2.5199100006982653 0.05885081191694552 47 47 47
1.093556936343341 2.50090973437162 0.06260559345808739 46 46 46
1.0801376987836733 2.493056807886085 0.06534675026352105 46 46 46
1.0705965497429668 2.441425442807785 0.07202097623190662 45 45 45
1.0585672326519084 2.4193935478947175 0.07601666736666296 41 39 42
1.045101882179725 2.413864819338902 0.07852597475852052 43 41 44
1.0304653090701699 2.421129416679408 0.07989139628597353 40 38 41
1.01765800262407 2.408771832880336 0.08300655020123943 30 29 32
1.003548719940308 2.4103686340151413 0.08487753233041623 27 26 30
0.9905753478447742 2.4002743644631086 0.08778438404236921 20 19 23
0.9801024572793369 2.3653156958877872 0.09288210084436124 18 16 20
0.9706418368162122 2.321430945044325 0.09874978669347956 18 17 22
0.9569638409324752 2.3200519753074986 0.10086393028070564 18 17 21
0.942207364645005 2.3290628308276933 0.1020674502648794 17 16 19
0.9285025295513948 2.3278440037645827 0.104169031405418 13 13 15
0.9199502872322761 2.278654732110344 0.11045003956624345 18 18 20
0.9061948401678431 2.278662737095149 0.1124330274059201 24 24 26
0.8900872012520473 2.299933976355103 0.11257330082792111 30 30 32
0.8778961421753466 2.2856731105755683 0.11579488672280891 30 30 32
0.8640121137363261 2.2866843663864103 0.11769346900452915 32 32 34
0.8502491043563246 2.28660987750119 0.1196860126687256 35 35 37
0.8356144868527935 2.2939771765428634 0.1210406133246869 34 34 36
0.8228596012255094 2.285290289483588 0.12377153502612905 31 30 32
0.8096730367070581 2.2804178479614787 0.12617329040672187 31 31 33
0.7940664823796066 2.295525802976558 0.12687374881715224 37 36 39
0.7799569891238124 2.298105583067369 0.12864389198083587 35 35 37
0.7619215827352408 2.3319986535987622 0.12776698644970477 32 32 35
0.7473552011663981 2.337638836236932 0.1292889758420574 31 31 34
0.7064388287488175 2.439178800473673 0.12477030979600519 35 34 37
0.6921950965817183 2.440820912670917 0.1266560325785961 46 45 47
0.6785680919726059 2.4377831878541802 0.128933036962271 99 97 97
1.359963667095864 2.8316999730869803 0.0049262866332853705 39 38 41
1.3120039399759258 2.6534707022216666 0.02984644951099022 49 49 51
1.1493592481938688 2.533600556665942 0.06541632451176047 47 47 47
1.1381790662075717 2.4963857074658904 0.07078794434048022 48 48 48
1.1253244861762588 2.4812073784380737 0.07417536177180667 48 48 48
1.1115236068841545 2.4780092099045157 0.0764892620353039 49 49 49
1.0984355493009295 2.4664933925572803 0.0795404369906744 50 50 50
1.085824341273472 2.449863406761313 0.08303936739544246 49 49 49
1.0733435772856612 2.4323456052524524 0.08660915202243274 50 50 50
1.0608846125223066 2.415203039871975 0.09013789211828035 53 51 54
1.04899299121803 2.392422614303979 0.0941542275041099 47 45 48
1.0370437372164472 2.3710448879475425 0.09803720051756096 38 36 39
1.017829269758563 2.427474167655996 0.09510952113083185 32 30 34
1.0042440508542463 2.423271054973301 0.0974938128207328 31 29 34
0.990471765304236 2.421115437622131 0.0996982878205741 25 23 28
0.9816027024553134 2.369530301183784 0.10618794874287393 23 21 26
0.9731136228742613 2.3158111143248834 0.11283833902609132 22 21 27
0.9588848715695462 2.31988077579559 0.11447989299792585 21 20 25
0.9432492392073528 2.337353988115395 0.11497060589700245 20 20 23
0.9301182180149391 2.3305479495162813 0.11755227863377671 21 21 23
0.914613468657332 2.3460943717887357 0.11821872156933477 33 33 35
0.9079800064022493 2.2795891432033697 0.1258928494229457 57 57 59
0.893071827578059 2.2900009287587313 0.12699184453828824 68 68 70
0.8795541543954756 2.2876846569471914 0.1291758163819302 63 63 65
0.8663405933045706 2.2827474610596497 0.13158063807207726 58 58 60
0.8513807502176561 2.2930999529423155 0.13269307494843102 56 56 58
0.8378064178269513 2.2912955680787923 0.1348335183664361 55 55 57
0.8244132945690901 2.2880012923589783 0.1370983039458279 55 55 57
0.8121919374462327 2.2750240374956654 0.1401720601094848 46 46 48
0.7965903850650534 2.2901721851318393 0.14089269436751595 46 46 48
0.7803043642147399 2.3104693961958245 0.1411919992241904 44 44 46
0.7654102572141915 2.319086281667751 0.14247025400230906 44 44 46
0.7491973878453594 2.3379027205031404 0.1429085681141891 45 45 47
0.7096269619253969 2.4291960244538635 0.13939602516323196 44 42 45
0.6938928816605087 2.4422970262443244 0.14034254463893908 44 42 44
0.681573283325514 2.4293843102320802 0.14342395421572673 76 74 75
1.3868005164001354 2.9230155163535345 0.006669143884394546 45 46 49
1.3744532437977064 2.8753721870127213 0.013186000205528348 34 35 37
1.3629644884289815 2.814193793948631 0.020924210371911833 41 39 42
1.3143981060119847 2.6473850975777653 0.04451098704669587 51 51 53
1.1862429311901863 2.636828770065534 0.06405226683956572 43 43 43
1.1726348959263915 2.627385220969505 0.06695441548580713 44 44 44
1.1288535518826517 2.4619681223950343 0.08971242778722874 51 51 51
1.1160053779390084 2.447596898837099 0.09299468802027142 51 51 51
1.1035100580698092 2.429579111936093 0.09658846073735397 54 54 54
1.091236228897824 2.4096475970779823 0.10034047659821235 56 56 56
1.0786563691686115 2.393931059553976 0.10371772963082168 56 56 56
1.0663339083148131 2.3758843566407233 0.10728943365243054 56 54 57
1.0535890698974746 2.3631177971170323 0.11039729755336503 51 49 52
1.0410804550373969 2.348228732295742 0.11368202884762958 49 47 50
0.9819842111242575 2.385087026115075 0.11854599737772754 42 40 45
0.9692612111103861 2.373121624148197 0.12157108405623575 44 43 49
0.9569134076005241 2.3578480569471747 0.12487082635734106 45 44 49
0.9441668251682778 2.3468851026326183 0.1277996838190045 56 56 59
0.927488636430703 2.373585724021725 0.1275525146224154 61 61 63
0.8960021706986007 2.2805263985292874 0.1413448928169712 63 63 65
0.8814594671239526 2.287496368370118 0.1427505897031749 54 54 56
0.8682696398465558 2.2823242526128045 0.14516786071904475 50 50 52
0.8541693842070648 2.2852072925642677 0.1469159096655881 46 46 48
0.8409076590574852 2.280808993219902 0.14926664649973775 46 46 48
0.8278314781717658 2.274952128081354 0.15173557534935028 50 50 52
0.815065393732726 2.26665594921431 0.15440219933154437 56 56 58
0.8018754350603989 2.2620627783778513 0.15676194868729554 46 46 48
0.7832998335213727 2.301357589652192 0.15553684495113956 43 43 45
0.7689190571160378 2.30597194907479 0.15715329782777565 44 44 46
0.7518076691198363 2.3320884369585055 0.15702669325084267 43 43 45
0.7361658219180834 2.3460452084546026 0.157896581049192 41 41 43
0.7141020247039525 2.4092449651826273 0.1547989221411893 44 42 45
0.6981278318699939 2.4244284236710496 0.15559484671588442 53 51 54
0.6818020025187451 2.441884682448364 0.15621561973062906 66 64 65
0.6705389324199944 2.4212214117402358 0.15989451682611494 126 124 125
1.3891541421024667 2.9180840762520432 0.02165383841979529 36 37 39
1.3762675624859926 2.8810450915463246 0.02713524717537269 40 40 42
1.3650487856063478 2.8141824591691056 0.035291927076060714 44 42 45
1.2034282309731275 2.624815748800628 0.07713414991125808 43 43 44
1.190401154838783 2.6074119335902064 0.08071602046105442 44 44 44
1.1329121673321636 2.4360853192381224 0.1057648707919728 58 58 58
1.1206573571765344 2.4149639348552148 0.10959876166424293 61 61 61
1.1082427493820477 2.396537586160643 0.11319221102452107 64 64 64
1.095024709768976 2.3881606243411078 0.11591904879695142 64 64 64
1.0809487283115256 2.389901482493707 0.11778045151753176 61 61 61
1.0646036644108037 2.417071952818881 0.11748299102959131 57 55 58
1.0205825259661736 2.4394647144912747 0.12164721015904326 47 45 48
0.9945557480585532 2.4188744710278796 0.12741690419845914 43 41 46
0.9875998360050229 2.3476529435077227 0.13538450468212304 43 41 46
0.9745543771644274 2.3394580847198294 0.13806862852358254 45 44 50
0.957160514423535 2.374204876563749 0.13718177316089622 50 49 54
0.9285020070059296 2.38214113857228 0.14054214876077314 58 58 60
0.8966948832435427 2.2913777967935753 0.15400726200117282 59 59 61
0.8827550373972081 2.2927801080691808 0.15588211720970419 57 57 59
0.8694923248702287 2.288148203112688 0.15824923213289324 51 51 52
0.85643213907192 2.2818725120172476 0.16074783613137683 48 48 50
0.8439928674150387 2.2704257115490933 0.16366242433865824 48 48 50
0.8292832504503183 2.278528002649684 0.1649932958114588 52 52 54
0.8179786801872408 2.2579290579927718 0.16863895547945007 58 58 60
0.8071515983133253 2.233929995649062 0.17254814267869695 51 51 53
0.7885635417116044 2.2737484780982844 0.1713377663017453 43 43 45
0.7729085083832014 2.2889532362661758 0.1721106523249213 44 44 46
0.7556906603734608 2.316160617253166 0.17193555356374385 44 44 46
0.7413178304383928 2.320384254962539 0.17359704879860755 46 46 48
0.7225453479860782 2.35853160373031 0.1725766850109639 52 50 53
0.7011344785087912 2.415890411949295 0.1700587364401129 62 60 62
0.6841742718184655 2.438251261590113 0.17032031835480582 73 71 72
0.6693143249975556 2.4444044292987455 0.1718634615441686 86 84 85
0.6588528339383579 2.4179938731282284 0.17595566459529705 116 115 115
1.4189942875012351 2.9573158823593966 0.02841235989093538 45 49 48
1.4055416518275698 2.928277578761241 0.033146815330915125 53 55 54
1.3917160718411994 2.9088266168132084 0.03701319899158273 37 37 39
1.3789415549426693 2.8696341151875564 0.04262617697297616 48 48 50
1.3652575536046623 2.850435160753254 0.04644788811368633 45 45 47
1.1501173025904836 2.420315967882712 0.11886756922612049 64 64 64
1.1383907082494078 2.3924693232707503 0.12323824794583371 68 68 68
1.1264387619516385 2.3684374636400145 0.1272746329516866 67 67 67
1.1124695666563025 2.3693549016515543 0.12920313611499504 64 64 64
1.094051874735314 2.422240238689828 0.12677666119160047 60 60 62
1.0213383368221098 2.4521470792106994 0.13439844128709133 45 45 47
1.008479145251105 2.4398019866272413 0.13744201159815644 50 50 52
1.000235566531852 2.3801742267496495 0.1443659042285643 47 47 49
0.992312351800003 2.3192328020509425 0.15136986740885372 45 45 47
0.9761493239165083 2.3426255643144214 0.15145387790735892 47 46 51
0.9284332411851517 2.401058811060365 0.15272370836578017 57 56 60
0.8915294262401818 2.3556847887862777 0.1624146287967938 63 61 64
0.8829087365166038 2.3083493417387277 0.16821094264852804 67 65 67
0.8697962101435956 2.3021372923900216 0.17070133667119503 63 61 64
0.8579892021120286 2.2846919250249234 0.17408344355927713 58 56 59
0.8507887975417858 2.2280575925717696 0.18056888749099997 54 52 55
0.8333141147997413 2.2602194513422664 0.17999902923489847 56 54 59
0.8217103269570268 2.2423190711161918 0.1833955511451559 61 59 64
0.811135336058016 2.216383432968648 0.1874162123053273 67 62 68
0.7947418149824098 2.2385852763508622 0.18764801705877443 47 44 48
0.7762670937565544 2.276958710719899 0.18662523200268816 44 42 45
0.7577735429204873 2.314489702548448 0.18568617417663758 45 43 46
0.7439348645888657 2.3145333129357364 0.18767986147615026 49 47 50
0.7264758839747271 2.342622932432256 0.18749932060450075 52 50 53
0.6886553317462714 2.4186673238358383 0.18564706186980423 65 63 66
0.674626327806527 2.418843960187886 0.1876554346479991 73 72 72
0.6618206328163321 2.4099804002718193 0.19035649942534866 81 81 79
0.6472566415656007 2.414141766964669 0.19205893848890382 93 93 91
1.3942221020053418 2.9006522696714776 0.05225298315593058 40 40 41
1.381916005195251 2.8521099684332993 0.05861944973963332 51 51 53
1.1543555642152623 2.3914026619257016 0.1350378208515913 69 69 69
1.1406460526671005 2.388672002192252 0.13727573406169263 68 68 68
1.123502825986085 2.427870167134182 0.13604537997635335 62 62 62
1.107337147680534 2.453866839699327 0.13592198324366897 56 56 58
0.8858578566162836 2.2988203553953253 0.18256379814768334 71 69 73
0.8711347062583816 2.3070056943770294 0.1839160454229229 69 67 72
0.8570532856820585 2.3093369944157303 0.18572908686662348 63 61 66
0.8514867863809199 2.238138931155252 0.19326427662198847 61 59 64
0.8344600340321227 2.2663935591648476 0.19305174863188831 60 58 62
0.8257798737191545 2.2238205208287845 0.19833024758730397 65 63 67
0.8141033890300283 2.2071889835686007 0.20158882262592923 76 71 75
0.7993204051946821 2.216373503903022 0.20285524365455837 62 59 62
0.7808583207826538 2.2549847366529505 0.20187083241757903 48 46 49
0.7622938978849138 2.29341071202563 0.20091871452027998 47 45 48
0.7458459871541231 2.314216100408481 0.20132687882849293 46 44 47
0.6646580319424834 2.402909561273374 0.20466553113464192 67 67 67
1.4248774842584722 2.9210006782444915 0.060754440772304935 51 55 54
1.4120493290868128 2.8793902474050626 0.06647416760358588 44 46 45
1.3982514846756124 2.860717288323688 0.07020242642402685 44 44 46
1.3838475397238936 2.855434146889444 0.07277394361208175 49 49 51
1.1865799011397828 2.3594134666176094 0.147362317741194 75 73 74
1.1729322531995212 2.3564253415123533 0.14961132093279234 70 70 70
1.1584504744952298 2.3641543388481536 0.15098488840381252 66 66 66
1.143498015469797 2.377425934146464 0.15191138020696593 59 59 59
0.8826671058878908 2.34464235557872 0.1926333871305757 77 75 79
0.8680891237594218 2.3508772301191416 0.19415969650067072 74 72 76
0.8568886021218528 2.327322358062418 0.19796645382023273 68 66 70
0.8541763136731992 2.2310506607841423 0.20730456657312551 65 63 67
0.8377639450970709 2.2542005789034194 0.2075239607192903 65 63 66
0.828235498503521 2.2188295399362734 0.21218724965811497 68 66 69
0.8162688514446163 2.2046243415022575 0.2152358226013526 77 72 76
0.8042877352556529 2.1909044968316977 0.2182413825592446 77 74 77
0.7856548801124106 2.231278832267263 0.217180881887086 46 44 47
0.7673681357979335 2.267845329668687 0.21642424240221805 47 45 48
0.74947747483163 2.3003555287584154 0.2159873347902334 46 44 47
0.7166979866995226 2.3398828939160348 0.21704893948329862 45 43 46
0.6202142264691436 2.4340851300092323 0.22223142459419945 74 73 71
1.4151344679700306 2.8582521492005655 0.0827487717245858 40 41 42
1.399938027294185 2.869393506105604 0.08392704271423601 45 45 47
1.285045501192336 2.5919095465742106 0.1258643737269034 43 43 45
1.2156393749409855 2.368406853235731 0.15630064813978867 68 67 68
1.201791539425511 2.3678019493218465 0.158356639479736 71 70 70
1.1873038005774843 2.3757200571538104 0.15972683590106593 67 66 66
1.173576981200151 2.3733844647465547 0.16192337443596644 64 61 63
1.1586916133508194 2.385907624222017 0.16293052665344548 56 54 56
1.0986419181629157 2.4371135263239023 0.16693091063698795 45 44 47
0.8671977639508963 2.3757357182006356 0.2059748200295638 80 78 79
0.8556176336724544 2.3550982326899614 0.2095323752504175 75 73 74
0.8538446471791103 2.2501027354089222 0.2193758373046636 68 66 67
0.8453119104928534 2.205721583603596 0.22466117060647312 67 65 67
0.8330973001257811 2.1935549985130134 0.2275369057143133 68 66 68
0.8206318194254093 2.1837913060728735 0.2302294751797867 75 72 74
0.8087841400995956 2.169210971630679 0.23327259864166477 76 73 76
0.7904923818995222 2.2071623492587618 0.23245002219673552 63 61 64
0.7716223402051613 2.248747248366656 0.2313792146818227 47 45 48
0.7532725991528006 2.2851611338239106 0.23070540643275222 46 44 47
0.6156885982777114 2.479946703362176 0.23279758918018062 60 60 58
0.6051900421655161 2.4543465991741273 0.23665202114059916 64 64 62
0.5948912317193409 2.4279201652571283 0.24055304696077956 70 70 69
1.4289967418714375 3.268999093012488 0.058664417968762816 79 80 82
1.4025382438248966 2.8589729654360294 0.09926525417898324 39 39 41
1.2453562893517778 2.3687829953893607 0.16594836389775539 63 61 64
1.2308416530018293 2.3776469770781876 0.16725095392631234 67 66 67
1.2166039424266817 2.3822385164898416 0.16889673742678718 67 67 67
1.2024418693313548 2.385583163319397 0.1706434292616376 61 61 61
1.188493603120783 2.3859180252433587 0.17262918304570846 55 55 55
1.1738063143974016 2.3958767395809994 0.17385853313876873 51 49 52
1.1449475935395739 2.4080840570809183 0.1769342366949742 41 39 42
0.8748658805758706 2.4497100167209407 0.2122325484671655 97 95 96
0.8457783914307826 2.217656734564673 0.2372501414787822 68 66 67
0.8351114707732193 2.192225173948737 0.24107278452423594 67 65 66
0.8225662248955286 2.1831082363488714 0.24370354952406048 73 71 72
0.8095676596055158 2.1779491902445036 0.2460448267481915 76 74 76
0.7948517021381805 2.1868423641006838 0.24737389312071045 74 72 75
0.7768477004199126 2.221814208051697 0.2468390314378897 50 48 51
0.621077367703131 2.454870848891954 0.2484469045018717 52 52 50
0.602817180816214 2.4845152803318404 0.2484269059441015 56 56 56
0.5803488401395932 2.4444245856001383 0.25526992149202393 61 61 63
1.4300052820655245 3.297098992363486 0.07147313975687036 74 75 77
1.2607182546702143 2.3761904881601854 0.177055446872004 62 60 63
1.2469734944050757 2.3738290310081984 0.17925032989724313 65 63 66
1.2324361582753742 2.3828998607098635 0.1805528642512549 61 60 63
1.2183178724514514 2.3856879093044943 0.1823481901943832 52 52 54
1.2044492293665217 2.3849249905958536 0.1844201869357233 48 48 50
1.1904330245283532 2.3861555785448583 0.186337932751726 45 45 46
1.1763331185796992 2.3884170198728296 0.18817698371110747 42 42 44
1.1634346985795077 2.3751592891471667 0.1912092330213917 39 39 41
1.1502798119308604 2.365648675366632 0.19394852171739896 46 46 48
0.8475591660809499 2.218375228025484 0.25068012190241096 70 68 69
0.8369673375676789 2.1922339229973584 0.25451368415101994 68 66 67
0.8244657984298649 2.182718123036093 0.2571589840612205 70 68 69
0.8112130083280971 2.1796302066341986 0.2593467339390404 75 73 75
0.7982402849515476 2.1743400702585465 0.261687963125156 69 67 70
0.7803461301726622 2.2086375445900117 0.2612538620142246 59 57 60
1.4218170971476978 2.8501473533111814 0.12677996154313229 29 29 31
1.2765411280120083 2.376969252932232 0.18869639616803088 62 60 63
1.2625163046711358 2.3787214989127956 0.19057280234427612 64 62 65
1.2484193691770897 2.3814350825092427 0.19237651937556682 57 55 58
1.2334611760716576 2.3963693589959223 0.1932481822363059 48 47 51
1.2201971116821133 2.386849023342755 0.195989201488141 44 43 47
1.205950242248672 2.391217325891446 0.19767153299208437 40 39 44
1.1923546575920343 2.3866416465753515 0.20003297886816798 39 38 42
1.1786657851579976 2.3834715768692796 0.20228638623052037 43 43 45
1.1689980663696797 2.32868711413734 0.20842087917769703 51 51 53
1.131616282836384 2.2785693579960102 0.21815917768113943 63 61 62
1.1189954154926602 2.2650223750797354 0.22115533377654772 66 64 65
1.1060849065117415 2.255348754364424 0.22385848393428726 66 64 65
0.863220667620088 2.3382634429843576 0.2518064545579453 77 75 76
0.8430303845454157 2.273292105698346 0.26034319085197016 71 69 70
0.8332242061201925 2.239678014785241 0.26466733877000437 67 65 66
0.8263915537955527 2.1821126912579514 0.27063232847488644 67 65 66
0.8137985101651412 2.173569925898128 0.27319180266942406 68 66 69
0.8051169872047002 2.133413888825487 0.2779189412847134 66 64 67
0.7854057237116316 2.1828802901105124 0.27649226204037713 67 65 68
1.438123337441648 2.860587855603382 0.1382976710700655 39 39 41
1.423770527594193 2.853471253085345 0.1409773108751067 27 27 29
1.292061593575711 2.3826542365506125 0.19997075736696326 58 58 58
1.2795026309258426 2.3616120415752055 0.20357240072535607 56 56 56
1.2654346345538783 2.3643634992265135 0.20537363938921946 55 55 55
1.2499196750136679 2.388298946628031 0.2055869003312274 50 50 50
1.2351681113829862 2.4001168786497367 0.20671780273640317 39 39 42
1.2217349258076575 2.3928311174940973 0.2092787875219596 35 34 39
1.2085345386948236 2.38265059686425 0.21205169432966284 36 35 39
1.1947639199718183 2.3805743913126998 0.21421950278045826 35 34 38
1.1854954502190875 2.3192499008508562 0.22076279578996677 53 51 52
1.1738436434343436 2.2912132448463467 0.22482664746683456 65 63 64
1.1621793175995618 2.264463964588694 0.22878308857537494 70 68 69
1.1502882919772595 2.2415782342263837 0.2324445332298612 67 65 66
1.136969208686419 2.2369197474277636 0.2347661167711356 60 58 59
1.1228517579345763 2.2419379758301123 0.23638219480472852 58 56 57
1.1084170696295936 2.2504628739503985 0.23774664876619409 56 54 55
0.8449406741397889 2.2730143954106263 0.27394031195604135 71 67 68
0.8348047097737283 2.242122342694321 0.278027177769937 68 64 65
0.8248572418882154 2.210478680878065 0.28215054775501225 67 63 64
0.8156402485027854 2.1736364936941572 0.2866093121779284 67 65 66
0.8094192564042894 2.1133328177062634 0.29262523836929577 67 65 66
0.7891699660782725 2.1674594318947595 0.2909618072102831 65 63 64
1.4495446993237433 3.3585774958176917 0.10998514357341296 107 106 107
1.4409479342621505 2.8441293133176813 0.1540417425925838 44 44 46
1.4267582447465517 2.8338946495559787 0.15694628728156812 30 30 32
1.4123602512042461 2.828804983310379 0.15945279499278547 35 35 37
1.3206016241035334 2.4040056442167455 0.20807964989359948 56 56 58
1.3073912522849738 2.3918634309884865 0.21100126613217232 57 57 57
1.2940476700168435 2.382449626294441 0.21371509275628683 50 50 50
1.2816653407880942 2.3585616392928794 0.21749441264027342 45 45 45
1.2675609760567843 2.361915849859763 0.2192557331726302 41 41 41
1.2516313236217032 2.3920923153962708 0.21904893978676632 38 38 38
1.2373748709509287 2.396677299935553 0.22072983640173638 36 36 37
1.2243349343674839 2.3838643741995726 0.22368261337616008 34 34 36
1.211249480138237 2.3722353945330172 0.2265434461043205 33 33 35
1.189779893482614 2.2882897755945355 0.23663546745867653 65 63 64
1.1775765715152526 2.267926134259895 0.24009559084838367 65 63 64
1.1666312627756517 2.2324350202202066 0.24463264306890806 64 62 63
1.1537292203594867 2.2226593101540146 0.2473127107982562 63 61 62
1.1397376521031954 2.2265235740709897 0.24901526602772586 57 55 56
1.1283270088037256 2.199400777448616 0.2529232175170591 54 52 53
1.112001708532279 2.2308816375681237 0.2526651089462983 52 50 51
1.0866586205076976 2.207857413626361 0.2582475629149472 55 55 55
0.8673267973369152 2.335493273415796 0.27935604370124095 75 73 74
0.8580692948943351 2.295106946757291 0.2840563077296142 72 70 70
0.8412691059805126 2.2030536602012045 0.2941475415144218 65 63 64
0.833475139758262 2.153800178075637 0.2993740114670443 64 61 62
0.8141732817187982 2.2010897877215228 0.29823089726313357 65 62 63
0.7953015176946938 2.1329079550364605 0.3066352159831102 58 56 57
0.7752931988766866 2.1842397890576635 0.30525790647138273 65 63 64
1.4438822042240766 3.1762913050406643 0.14127334940693592 77 77 79
1.4416385193654724 2.8768769082917776 0.166030646782909 53 53 55
1.4287764692567089 2.835753683587093 0.17124757730342222 38 38 40
1.4145985144016406 2.8257886062821145 0.17411238029262993 37 37 39
1.3997369708821785 2.830693155471383 0.1758627211056341 37 37 39
1.3229982329009595 2.397034198015209 0.22235445937609283 57 57 59
1.3099176042735252 2.3828665211476676 0.22540341020871874 50 50 50
1.2965504402508978 2.3739929124999533 0.2280618213443468 40 40 40
1.2838700293536678 2.3548449791145933 0.2314592538642308 35 35 35
1.2691329479969458 2.3678894907682304 0.23252735221018886 36 36 36
1.252999544806286 2.4010172857908634 0.23215868385316407 36 36 36
1.240133899397299 2.385219437074433 0.23530954950415806 38 38 38
1.227833859183814 2.362117103840226 0.23897462440387715 40 40 40
1.1932397722620238 2.268082100069529 0.2516539903095171 55 53 54
1.1813574672440161 2.2438877400056714 0.25534772717732285 57 55 56
1.170399452713619 2.2089220253043926 0.25978667059695915 57 55 56
1.157946801463401 2.193966771361912 0.26280901651921307 60 58 59
1.1317718866344215 2.1809572275079825 0.26765828758644283 53 51 52
1.1163542355704024 2.2021820197999653 0.268157346615843 52 50 51
1.1031401794318254 2.197196879835481 0.2704762977446806 52 52 52
1.092916438305533 2.1585313880533294 0.2751108940332637 53 53 53
0.8594403103402103 2.299619297596187 0.2973833909620172 71 70 69
0.7954920101198806 2.1462096749139983 0.3191555455913981 55 53 54
0.7788419515009984 2.1706762386844805 0.31956840877265463 68 67 67
1.4630362437744784 3.1315385587567706 0.1573842818066468 68 67 69
1.4535130262517626 2.996407716323402 0.16957062781462523 72 72 75
1.4439266327694869 2.872837451296912 0.18084148993228844 67 68 71
1.4314129087812069 2.823787440604713 0.18657584966949348 47 48 51
1.402319989796211 2.8205313330154027 0.1910472959690514 37 37 39
1.3381110078026264 2.411199751203659 0.23307995536671902 56 57 59
1.3250521867303593 2.3958173863446692 0.23620043765443482 58 58 60
1.3119107780220491 2.3825945911007675 0.23916014913836917 47 47 48
1.2983677172441388 2.3764836957984965 0.24160917936112963 32 32 33
1.2859842815059594 2.352526113924785 0.2453177594973697 36 36 36
1.2711101476117423 2.367731573418955 0.2462545478121411 38 38 38
1.2556050469247855 2.391587678535092 0.24659077610440777 37 37 37
1.1964091042116047 2.25162386761028 0.2663534865092653 49 47 48
1.184759639168097 2.2246454115839516 0.2701974419257583 55 53 54
1.1726409265969338 2.2047454050735866 0.27354317550658175 57 55 56
1.1609291182157084 2.1805511788840253 0.27717346884326655 59 57 59
1.1479229403396565 2.17315021670498 0.27964796963089833 53 52 53
1.1332136557010755 2.18647532166238 0.28071128994996447 48 47 48
1.1218959297833315 2.1593286877634474 0.28452067924998814 46 45 46
1.1112897645453788 2.1249565465266076 0.2888049789168964 45 45 46
1.088980471786119 2.0721114928709765 0.296260718193868 45 45 46
0.8606745699295121 2.305354647643102 0.31065152301612187 68 67 67
0.8021122523652322 2.1075547216677677 0.33494831882390175 57 56 56
0.7831322780187968 2.151148970832119 0.33420883410658464 54 53 53
1.4655606146922346 3.1227969336390555 0.1729395454973606 59 59 62
1.455850558054852 2.9917307877104133 0.18461577549384456 68 68 72
1.4462655982034511 2.8675808248825083 0.19573193895089952 81 81 85
1.4047490284258926 2.8135201690271767 0.20597897612224123 39 39 41
1.340153738332491 2.410244865107731 0.24693197929209568 60 60 62
1.3282748411790626 2.3747494553014126 0.25143325583710163 45 45 47
1.3135367088324263 2.3884030203261095 0.2524971628862236 37 37 39
1.3002240919759265 2.37837321428141 0.2552105203594155 29 29 31
1.2874551655510407 2.360299828151945 0.25847545977150765 37 37 37
1.2741885494505767 2.3507222473981435 0.26114672064170624 38 38 38
1.2597190777600085 2.3595632099874866 0.26254884809934365 36 36 36
1.2458912579407568 2.3586113518457945 0.2646254457064632 35 35 35
1.2347664336470294 2.319156998411695 0.26932777100933164 35 35 35
1.211602545289183 2.257866835746988 0.277484190282663 45 45 45
1.1996283635294978 2.2344085431810807 0.28105602895023885 47 45 46
1.1880884935996454 2.2062545137938954 0.2849329471992049 50 48 49
1.176634540662334 2.178149810977631 0.2887935610251942 54 52 53
1.1636508136376567 2.170332217687594 0.2912859515300873 53 52 54
1.1506870803245381 2.1625662895279625 0.2937713988193661 47 47 49
1.1358784568984857 2.177304100012624 0.2947605497515592 40 40 42
1.1244417167802296 2.151641086556222 0.2984273397316802 37 37 39
1.1139447115469245 2.116033713833678 0.3027373176373709 37 37 39
1.103112926815877 2.085531102388874 0.30669575422252554 37 37 39
0.8046395594259066 2.1019326839074637 0.3486238796151362 59 59 59
0.7856201382810803 2.1459747977491164 0.347926378388864 49 49 49
1.4583026641682242 2.9842177460224546 0.19985155253350273 71 70 73
1.4075473185334588 2.7986586862501572 0.22144152078328777 42 42 44
1.3726815092342852 2.628007444414043 0.2395863723429699 43 43 45
1.366983249528906 2.46780449851932 0.2527054208493293 46 46 48
1.3549564187410283 2.431093404761181 0.2572643093203347 58 58 60
1.3424464848360267 2.4049093650823052 0.2610853233340428 55 55 57
1.329851209115654 2.381601804943923 0.26469795793634887 37 37 39
1.315454617427801 2.389420036970566 0.26618289104741943 37 37 39
1.3022517221686838 2.3775185380102983 0.26900822928091705 34 34 36
1.28978635613702 2.354585865484788 0.2725732819699266 36 36 37
1.2775501387054848 2.329252378813908 0.27628938599759656 34 34 35
1.264873320996061 2.3117336482630724 0.2794695997189206 33 33 35
1.2515553267073842 2.3044127967096975 0.2819600916011092 34 34 34
1.2379804359213828 2.3010887901389157 0.28418107255840974 34 34 34
1.2139664148314706 2.2519692123628343 0.2914281478979184 42 42 42
1.2017862040514742 2.231294709459752 0.294778614788597 42 40 41
1.1902457791048828 2.2031027356134643 0.2986133127660445 42 40 41
1.1789168396866971 2.1733518249032233 0.30253701510455855 44 42 43
1.165454323271645 2.171598114518247 0.30462121898916417 42 41 42
1.1514542372303134 2.1765209888234214 0.3062709178289711 38 38 40
1.1372586658868702 2.1836001115986527 0.3077834580061466 35 35 37
1.1272031168680527 2.1413660882345478 0.31248069254928007 33 33 35
1.1143877353220133 2.132776053707505 0.31499579263509114 32 32 34
1.1048192618599053 2.087452686175272 0.31985956302922164 33 33 35
1.0781485264571964 2.0844882050033458 0.32394947903840887 37 37 39
1.0484373443193755 2.11398858571484 0.32598838397388297 42 42 43
1.03142232952635 2.1505336604967953 0.32564804135163783 45 45 47
1.0157689628251474 2.1718689288551687 0.3262776936431298 46 45 50
0.8074998963080978 2.093591994421554 0.3624458764738224 57 57 57
0.7879045790896619 2.1424170333654997 0.36153685653623685 47 47 47
1.4703419239992397 3.111898258535635 0.20352356108673886 53 52 55
1.4604485950383133 2.9841601449731514 0.21455201639971838 76 74 77
1.388336909809523 2.6421010793212854 0.2506924097421745 44 44 46
1.3749315113957012 2.6240748022340052 0.25398835234456985 43 43 45
1.3688410120664676 2.4705827338206277 0.2664005114970674 49 49 51
1.3568604504869264 2.4327603239739206 0.27097708971920365 58 58 60
1.344491474689864 2.403903789029789 0.27493643978322807 45 45 47
1.3319502923218225 2.3795698142598303 0.2785810124980936 33 33 35
1.317249263921857 2.3925088483343613 0.27973860438608195 31 31 33
1.30378523488542 2.3846845333886817 0.28227669603057676 32 32 34
1.2923728000948218 2.344804670062688 0.2869255278538434 42 41 45
1.2799677247370786 2.32219580644554 0.29042079889047673 36 36 40
1.267689653616531 2.298757391896007 0.29395998619300345 40 40 44
1.2539481847404617 2.2979081790309284 0.29601431583953297 38 38 39
1.2407284931423674 2.2895969784653465 0.29855358719309855 34 34 34
1.2273013914904958 2.2845558904016356 0.3008772611485283 38 38 38
1.21748991570536 2.230140635629071 0.3063860434282256 39 39 39
1.2053723102897984 2.209007355681749 0.3097288307382805 34 32 33
1.1932415721148049 2.1889283883914783 0.31299432327886606 36 34 35
1.1808988386686716 2.172395636592015 0.31602414250473726 32 30 31
1.1542097098871744 2.1660094049584835 0.3203699489057154 30 30 32
1.114393751113756 2.1547049268790723 0.32698670547255443 31 31 33
1.1059881190866667 2.095537804478177 0.3326487898778996 32 32 34
1.0937255304621114 2.08181438973245 0.3354559697684918 33 33 35
1.032406681908882 2.159906711607082 0.33847230917699356 39 40 44
1.0189612550852274 2.1583805881142717 0.34053460295864885 41 41 43
0.9885369536801509 2.190655409978374 0.3425173584130531 44 44 46
0.8089052380453505 2.097058295709666 0.375568917183222 54 54 54
0.7914159187628356 2.1290037794667738 0.37570269730190514 47 47 47
0.7764448374460947 2.140169211249346 0.3770326363076042 52 52 52
1.473075283199008 3.0975563812622773 0.2194001678250744 52 51 53
1.46235527194927 2.9900321359990265 0.22885592343102762 78 76 78
1.3895582067318337 2.658668478565608 0.263757336798229 45 45 47
1.3707338411061627 2.47273952888059 0.280149715453417 50 50 52
1.3587948730409718 2.4338997252771515 0.2847341293745588 59 59 61
1.3459411350022987 2.4134248885491747 0.2881013551656808 35 33 36
1.3333905479754469 2.3888561316432892 0.29172553877155494 29 28 30
1.3196427390847145 2.385616979690345 0.29395557381216886 29 29 31
1.3058672556020468 2.382981657727316 0.2961452402643726 37 38 40
1.2948234976189459 2.337116533030198 0.3011162694791968 34 35 37
1.2820300190311424 2.320596289488579 0.3041841213292772 34 35 37
1.2696913810065413 2.297998415633247 0.30763274482347897 48 49 52
1.2573708336627227 2.2761927589102946 0.31102052311268275 46 47 49
1.2441201309689103 2.2687743742751834 0.31348568308475344 35 35 37
1.2307544233776748 2.2632961308686723 0.31582491594043793 35 35 37
1.2213391687282973 2.2037029919261024 0.3215689249723753 34 34 35
1.2088636901070264 2.1878669994793665 0.324540411551981 29 29 29
1.1968037303964187 2.1672174129051576 0.32780546693965806 44 44 44
1.1840251708904255 2.156682352061066 0.3304312762730751 27 27 27
1.1706078458936136 2.1546346842558424 0.3325258581194355 26 26 27
1.156884136247771 2.156450081513045 0.3343809173755219 26 27 29
1.1432589973966978 2.1569854329435576 0.3363157712563837 27 28 30
1.1282261471144168 2.174249224294774 0.3372251377201255 28 28 30
1.1171208570590587 2.144967955742107 0.3409862525196749 29 30 32
1.1082405283141834 2.0912474714617386 0.34622114346265676 30 31 33
1.0778677447178575 2.1289737648679354 0.34784928169602336 31 32 34
1.060441120210212 2.171163393614324 0.34727356773244294 31 32 34
0.9228576494735768 2.1842766014056827 0.36624481867833597 49 51 50
0.8130318128824018 2.0783731606340226 0.3899412829443858 53 53 53
0.7942505486896961 2.120989134835042 0.38953051376204795 50 50 50
0.7799099070759472 2.1272561896835938 0.39114778824909147 49 49 49
0.43313318035318493 2.5133188637617576 0.4130199556532749 70 70 68
1.4755398325312319 3.0900208513655443 0.23478478185447477 50 49 51
1.4643954316533698 2.9926705525899524 0.24339672648197833 79 77 78
1.3916627047026842 2.6577004759692775 0.27801298944840713 47 47 49
1.3794121117838023 2.616518566180043 0.2827483160877647 43 43 45
1.3727948209479723 2.47176134222815 0.2941113752620217 55 55 57
1.3605860617536025 2.4376774203529714 0.2983304915880012 56 56 58
1.3478822955892455 2.414311082631727 0.30185105472765816 26 25 27
1.3352457348057438 2.3910669815500554 0.30535309228936014 27 26 29
1.3218816845993786 2.3812769606365944 0.3079935929738357 35 36 38
1.3077231653299157 2.3849722949558836 0.3097800164337159 36 37 39
1.2968461812193302 2.3361989871673288 0.31486187364965496 31 32 34
1.2844190747903108 2.3139213215914087 0.31826409493717756 31 32 34
1.2714863836811074 2.3003750656150554 0.32111204661571363 44 45 47
1.2596504594298885 2.2712419091521925 0.32492130552621523 50 50 52
1.2472329132764723 2.2518511590183423 0.32811465255637023 35 35 37
1.2348188135156553 2.233280155323201 0.33124858319855566 34 34 36
1.2218059089946725 2.223785000072099 0.3338169992114597 28 28 30
1.2097034032653267 2.202400164508921 0.3371080060779631 24 24 25
1.197969168901086 2.1770481311856558 0.3406307696676255 33 33 34
1.1851256311245224 2.1670905837330605 0.3432078722087999 26 26 26
1.1735729231263616 2.141171205636878 0.3467451031766013 24 24 25
1.1598489232343885 2.143239194308128 0.34858551185556785 24 25 27
1.146883352496631 2.135981115752899 0.3509862843161726 24 25 27
1.117285479645654 2.1652008833292498 0.35317586126366557 28 29 31
1.0594288178449456 2.2027626700737994 0.3588614673732975 29 30 32
0.9805510117359885 2.171957171487131 0.3725073989597579 33 33 36
0.9578823634880876 2.128282711082769 0.3789317744314448 39 39 41
0.8185890255186417 2.047950290299374 0.40489342122238825 50 50 50
0.793737791768293 2.139913457133107 0.4018855610193447 47 47 47
0.783012655152791 2.1171837692297344 0.4050736011274125 41 41 41
0.7678017384365514 2.130237950413894 0.40633991011859016 50 50 50
0.4410178925086418 2.5651720438975567 0.422441544335984 52 54 53
0.4318545788867475 2.533056681623343 0.4260777952727579 65 65 63
1.3931743651182054 2.6686737381732235 0.29151717826100365 48 48 50
1.3814995390037308 2.615689937388225 0.29693170935716595 43 43 45
1.3749045364443129 2.4698651926627697 0.30813177842007544 58 58 60
1.3627306858762513 2.435013456859523 0.31234489872059484 50 50 52
1.3499269341904248 2.41337163262672 0.31572135613922436 22 21 23
1.3371849865050633 2.3918499696522355 0.3190804127200566 28 27 30
1.3240430834524797 2.378220924194346 0.3219430043697028 45 46 48
1.3103931342681014 2.3736316564337514 0.3242442143971923 35 36 38
1.2991316341276677 2.3310844982425554 0.3288656655112012 30 31 33
1.2866724223183037 2.3093232298170387 0.33220056611502863 28 29 31
1.2737111005670723 2.2962456840008847 0.3349982369379838 34 35 37
1.2623075346156993 2.260666571304776 0.33915078709797436 27 27 29
1.2497719226893262 2.243139232722078 0.3421993353100156 29 29 31
1.2371490177020155 2.2276340895671227 0.34511848172453224 31 31 33
1.225525849054973 2.1989681367820966 0.34881722701846285 25 25 27
1.2123451897921749 2.1926300045858524 0.35117325998196053 23 23 26
1.2001335120285785 2.173709525712044 0.3542727140574132 26 26 29
1.185223375947319 2.1905765444743737 0.35524933605139464 24 24 26
1.1737257946317032 2.1633739840571633 0.3588270736680741 21 22 24
1.16225781598208 2.136883528449987 0.3623504953817579 22 23 25
1.1480927224335113 2.1443475134484133 0.3638796601227414 24 25 27
1.1210239282859433 2.143577187267094 0.36785791149468394 28 29 31
0.9733025799595798 2.1282590827813257 0.3903490096346519 32 31 36
0.9611348107289477 2.114999122876619 0.39304445426608525 34 34 38
