ply
format ascii 1.0
element vertex 731
property float x
property float y
property float z
property uchar diffuse_red
property uchar diffuse_green
property uchar diffuse_blue
end_header
1.4541532830304857 2.8780259155758703 0.8620707642431407 44 44 46
1.4447876787130787 2.71704795109967 0.8657040114716791 34 33 38
1.2606610473631594 2.3587065046376208 0.9078774400925731 18 18 20
0.63496540280498 1.8218724764126868 1.0440926637609724 46 47 49
0.5015931191178209 1.9279589157438597 1.0708293208311235 115 115 114
0.455528337299247 1.9648488352718236 1.080061161883786 165 165 166
1.6805489140319096 3.5876229435719087 0.8233533829868678 38 38 40
1.6448472145491222 3.520793646812177 0.8314370024814408 32 32 36
1.5866935927024306 3.5345101257726297 0.8435031178662215 28 27 32
1.5388089839405463 3.526937961822737 0.8536080285485644 19 19 21
1.484367634634996 2.859215809629391 0.8710175046627455 37 37 39
1.4676529830374063 2.8593224164023425 0.8745200338594272 41 41 43
1.444390229355807 2.8711244258878126 0.8792900211079572 43 43 47
1.4421410924263598 2.8452093422334253 0.8799942525337298 44 43 48
1.433312631006216 2.74264164782713 0.8827661310193613 38 37 42
1.4395975133448604 2.7024430859884334 0.8818098938628001 36 35 40
1.4311733143416636 2.688201542506046 0.8837035884089979 34 33 38
1.2588051758638752 2.366414493942755 0.9227236046008582 19 19 21
1.2751702011265493 2.3135245662298893 0.9197685202694285 19 19 21
1.1429675472241838 1.8639576000929752 0.9515174883122459 22 22 24
0.5089167373607574 1.9220258374676882 1.0838965390075666 103 103 102
0.4643080041857772 1.9570646280437205 1.09293202622064 164 164 165
1.6490145410413848 3.519137509485116 0.8464582477011524 33 33 37
1.5864835144194722 3.541696860136816 0.8594480265443583 29 28 33
1.5686076335374999 3.543022418844225 0.8632000794247959 28 28 30
1.5547228739280636 3.536308056529541 0.8661728141954315 25 25 27
1.5433533283762881 3.524584411998473 0.8686539872824763 19 19 21
1.4965309663458308 2.8428332797677065 0.8836490125008334 35 35 37
1.4753814385832298 2.8509988642453754 0.8880384365994043 36 36 38
1.456214808111438 2.8554849757664984 0.892038299081351 39 39 42
1.4472169600189697 2.841686769609962 0.8940359834234419 42 41 46
1.438830390399653 2.8268474750901484 0.8959128726587781 45 44 49
1.425547847945627 2.8207583324596976 0.8987541537051286 44 43 48
1.4122611638371194 2.8146667540577313 0.9015963247469505 44 43 48
1.4279874854443388 2.728187593891075 0.8989387972016915 42 41 46
1.432485316277425 2.691237938476478 0.8982708480165229 42 41 46
1.405899852338046 2.7086758046570236 0.9037343639448261 41 40 46
1.3496195389667678 2.3842558111653793 0.9180252224886872 24 24 26
1.3454063809682455 2.364218606218912 0.9190629983341807 23 23 25
1.3604870290012303 2.312698633611948 0.916277728536049 22 22 24
1.2449981486837454 2.366694492209114 0.9401756320887638 21 21 23
0.7581651334803868 1.7790343502670232 1.0470630777043561 35 36 38
0.7480876036666049 1.7698450844658449 1.0492532293197014 38 39 41
0.6012141291682819 1.8506600916015685 1.0795539003633883 47 47 49
0.521307784614394 1.9094857568805368 1.0959268988766182 99 99 97
0.47304202201681667 1.949332797432314 1.105784130984782 162 162 163
1.6868873481902509 3.5884892892236904 0.8539227590013646 41 40 44
1.6101367151547572 3.5702114399585514 0.8702518245328921 30 29 34
1.5805131464403719 3.5604967766468274 0.8765706009135839 29 28 33
1.5662010457092173 3.554601190718508 0.8796307358057203 28 28 32
1.559172942002676 3.5341394946165083 0.8812405655933055 25 25 27
1.5442801491865321 3.52942640427736 0.8844161915153892 20 20 22
1.4798179635904685 2.8486043080234427 0.9021887960474004 35 35 39
1.4606599031701957 2.8530882031960587 0.9062096019773986 35 35 38
1.4520673815222194 2.838564491958158 0.9081137882014314 39 39 42
1.439750993878844 2.830737086886543 0.9107640037194948 42 42 45
1.4277394964063403 2.822371225955039 0.9133530785910027 45 45 48
1.4132930562756774 2.818323211169981 0.9164303334688864 47 46 49
1.4052862846425593 2.802893150531288 0.9182162760008847 46 46 49
1.440001082374519 2.683421303763293 0.9116094743873894 46 45 51
1.4085470637244737 2.709391050858832 0.9180974301139369 46 45 51
1.3977313103096392 2.6992577162306057 0.9204446189973458 46 45 51
1.3901764053907395 2.654781103730688 0.9223122035073833 44 43 47
1.4113106024498805 2.589912861741672 0.9182420516752874 42 42 46
1.3988739370070085 2.582930452361739 0.9209125295182397 41 40 44
1.356254311201706 2.4874289553309907 0.9305005251447751 31 31 35
1.3586448071755948 2.455900530212593 0.9301876638786617 31 32 35
1.3446064342941044 2.4518514073643543 0.9331786998375747 32 33 36
1.3507132280221812 2.4144251503373813 0.9321165394606581 32 32 34
1.3702537391053964 2.3550585222738385 0.9283495894178971 30 30 32
1.2244580143171075 2.1179723278579186 0.9606023318107295 17 17 19
0.9893044095377697 1.833355525979865 1.0120264639711112 23 23 25
1.0066999258990608 1.7855476542555087 1.008642272925125 17 17 19
1.008705462178332 1.7596123775299621 1.0083766482604892 13 13 15
0.6077582917089263 1.8456660039067994 1.0925730875425175 48 48 50
0.525518046070386 1.9075974973559648 1.1095730150385736 100 100 97
1.6530488870881488 3.958945038987835 0.8753457972713199 166 164 165
1.6869154369227788 3.5954402966852865 0.8698526467465915 45 44 49
1.6695872697037604 3.525651775010141 0.8738536359573505 38 39 41
1.5711947509386797 3.551346008875996 0.8946082149417476 29 28 33
1.5373581203150757 3.5155486866121284 0.9019533150838824 16 16 18
1.4791458194477793 2.825435962037201 0.9175148532712293 35 35 38
1.4509490580945745 2.846133957438137 0.9234005231668909 35 35 37
1.4464576730607268 2.824305860816379 0.9244549638486603 38 38 40
1.4337967823140092 2.8171140825503698 0.9271744649911562 42 42 44
1.4195567211223978 2.8127183477342386 0.9302159776870851 45 45 47
1.3982654426934125 2.7326696703278968 0.9351054976922302 47 46 52
1.3500755296620166 2.5584473669375143 0.9461398843492774 41 40 45
1.3512859960162302 2.5284942424111465 0.9460224793865947 39 39 43
1.3541740001303322 2.495898007686052 0.94556148233071 38 39 43
1.3579453944548203 2.4620136467838494 0.9449190671561043 38 39 43
1.3647383555464065 2.4233003354594165 0.9436580942274548 38 39 42
1.3656650401686163 2.3945368899690336 0.9435953574856222 38 38 40
1.3639373169747917 2.370313066000361 0.9440746315383808 37 37 39
1.2795652257893546 2.3470832804024657 0.9620824363296219 31 30 35
1.276664612573939 2.2462047507366982 0.9631672816738197 25 25 27
1.213364085852841 2.088987788393104 0.977328272692078 17 17 19
1.084055680506137 1.9143263024521207 1.005574142729661 24 24 26
1.0070300430069814 1.9781449681127163 1.0216182721140836 25 25 27
1.0145328482017861 1.8015525022977508 1.0208483751058928 21 21 23
1.0185549071204318 1.7726658436976632 1.0201295223490288 15 15 17
1.0225011955840522 1.7440353474643726 1.0194255522910458 21 21 23
1.0253414089341772 1.7171004418517968 1.0189483470858094 35 35 37
0.9916611145622377 1.6728885500524049 1.0262994404528234 35 35 37
0.6114066604920139 1.8444695370016866 1.1061726179374278 46 46 49
0.5304069887724138 1.9048232956636164 1.1230759712978315 105 106 102
1.6614511681555648 3.9484715740302367 0.8901321809432433 168 166 167
1.6547318851181412 3.925341572429233 0.8916376215698751 158 157 157
1.6893949654802858 3.6328976962539032 0.8851927547827407 42 41 46
1.6919230549116728 3.5920700339797706 0.8847852799487714 48 48 53
1.686353790146456 3.568249182603076 0.8860479816476794 58 59 61
1.6765764543457877 3.51820832224148 0.8882911472054453 41 42 44
1.6560802537412787 3.5252639485094748 0.8926342311305517 34 34 38
1.6212797251808406 3.561285404172879 0.8999312118713816 30 29 34
1.5714100852097086 3.5576864967474062 0.9105650767058149 30 29 34
1.451763936211446 2.8502494859151013 0.9383200093054709 36 36 38
1.4417443777685484 2.8382657983945956 0.9404926465292085 36 36 38
1.4363353968608314 2.8181124835732208 0.9417094386938776 39 39 41
1.4217291082497365 2.8143599740832803 0.9448326439369137 41 41 43
1.4137999674983313 2.7987879118894594 0.9465715334981567 46 46 48
1.2726260282780397 2.1536447668931724 0.9787120256177173 24 24 26
1.252841957059677 2.159040233534355 0.9829087521071529 23 23 25
1.2270699608378899 2.1736841591000444 0.9883512390801887 19 19 21
1.2343600390269722 2.086177294061044 0.9870792422253025 18 18 20
1.2261138290580025 2.0737334012972486 0.9888756300334163 18 18 20
1.205801336752522 2.079811714423967 0.9931827198982208 17 17 19
1.081115147377533 1.922643135357473 1.0202454259128229 25 25 27
1.0083718519675062 1.980238204902668 1.0355550512444613 24 24 26
0.9943669300527515 1.8573740724322323 1.0389323832258421 21 21 23
1.030878476338719 1.782278130816414 1.0313963394928554 18 18 20
1.0312277859856704 1.7586179162243085 1.0313978595291595 20 20 22
1.0386791690652275 1.7250956645099829 1.0299182725325828 37 37 39
1.037020441382711 1.704508596601062 1.0303376463990979 41 41 43
1.0306966515701177 1.690523921418313 1.031729499753533 30 30 32
1.021134794743039 1.6810906499892373 1.0337964617083337 18 18 20
1.0121997080583567 1.6708069018203278 1.0357326496863404 14 14 16
0.9914016186128412 1.6769312025072254 1.0401430249794976 17 17 19
0.9875123916023317 1.659694284921909 1.0410267485712863 30 30 32
0.9411774838238581 1.6556431875679074 1.0509091606081553 21 20 22
0.7776649039674159 1.786515896306164 1.0853176529128155 27 25 28
0.5338537865667212 1.9039291516705044 1.1368730574769197 115 115 114
1.6544866746404878 3.89600586019606 0.9082448426422647 119 119 119
1.6899611159474748 3.6388054850803213 0.9011120160128806 39 38 43
1.6950726965912941 3.592555457949966 0.9001004347516905 48 47 52
1.6903822015352794 3.5668968471451956 0.9011487436062914 59 60 62
1.685679248324539 3.54140990252548 0.902199414008424 54 55 57
1.6824896454746383 3.512962423108398 0.9029316709335303 42 43 45
1.659477196910713 3.5251879699708395 0.9078313751154108 33 33 36
1.6259984031694765 3.5585501121530285 0.9149320636021889 31 30 35
1.5450938203623152 3.5135311186616502 0.9323130410303295 18 18 20
1.5297710293921845 3.5096562043176998 0.9355966822244168 18 18 20
1.5432621122941748 3.216770652459382 0.9332279551621376 26 26 28
1.427433235416082 2.8694030962776935 0.9586106146222552 36 36 38
1.4456120191956157 2.777491545558086 0.954885088722581 37 37 39
1.4183100919447287 2.766814591505338 0.9607424844805901 44 44 48
1.397652707595102 2.744466374533367 0.9651995082830818 48 48 50
1.4117985712235377 2.6907282343467385 0.9622691293091918 48 48 49
1.3740967394008008 2.7272593858142926 0.9702673358777139 47 47 48
1.2809227961373266 2.4351308527191113 0.9907078039103978 43 42 45
1.2756082872789147 2.416716872603743 0.9918767868159055 42 41 46
1.2676113183585047 2.4027381355352646 0.993611599687277 42 41 46
1.2582954724766817 2.3909415507905307 0.9956246098263359 40 40 42
1.247302762949023 2.3551835859450643 0.9980384654189546 41 41 43
1.2483839201731612 2.3268976949967257 0.9978571268513717 41 41 43
1.2741505206851906 2.155729644459219 0.9926486632704757 30 30 32
1.268712852553644 2.1386586031883654 0.993841616382622 27 27 29
1.2639036422205059 2.1206788040097986 0.9949017747081306 25 25 27
1.2338041380984255 2.1420945258836426 1.0013008573144346 23 23 25
1.2511889109666035 2.089749672203904 0.9976753746887604 20 20 22
1.2315703815282428 2.0948459064422003 1.0018618517017046 19 19 21
1.221351434521215 2.0853986556042283 1.004063849864778 18 18 20
1.2067026902128406 2.082758774047039 1.0072011674200185 17 17 19
1.202550158680876 2.0640569680305276 1.008122166591804 16 16 18
1.0254969767269766 1.8170618667554437 1.046420806115182 19 19 21
1.046047012639701 1.7415283699521193 1.0421593080762328 23 23 25
1.0432198848031984 1.7224923201490059 1.0427974562940043 33 32 34
1.039369609184831 1.704972625266461 1.0436517333268438 34 33 35
1.0318578736188109 1.6926371776742628 1.0452798808921302 18 18 20
1.0227268769037168 1.6825922847435082 1.0472502723686783 17 17 18
0.9927188620994225 1.6788005943036672 1.0536742314020113 20 20 22
0.9379691643085605 1.6636466621934811 1.065409281010662 23 22 25
0.7857696606946517 1.7792650787654667 1.0977536105243213 27 25 28
0.680737766083871 1.7830929174383876 1.1202081431921171 43 45 46
0.5365008588150841 1.904079295971246 1.1508401915938518 126 126 125
1.6963192801015798 3.6326347552030183 0.9158179590794024 35 36 38
1.6956345270431823 3.5630104550674053 0.9159869950961047 59 61 60
1.6653115498423376 3.520129362943885 0.9225109864712278 33 35 36
1.6332839029110076 3.5505846527736082 0.9293777839291805 32 32 34
1.5546270398716673 3.5356379599473824 0.9462703666185299 24 24 26
1.5484699123085415 3.5135003315305013 0.9475993203836977 19 19 21
1.5262530849178424 3.5232728640899014 0.9523662470906957 18 18 20
1.5233315608553277 3.494855704561777 0.9530024932237526 22 22 24
1.5500967424917715 3.2098942663946177 0.9473460457243322 26 26 28
1.5745477280150475 3.130814637357917 0.9421213560467296 28 28 30
1.3879808829533924 2.650871707959963 0.9823295715561748 47 47 49
1.3715218787630388 2.6505495827938637 0.9858634692368456 47 46 49
1.3617696481427244 2.6387082412523557 0.9879610459951409 48 47 50
1.2273790296361708 2.131040624838774 1.016975642204918 26 26 27
1.1924968077303 2.058706304458171 1.0244878307127057 17 17 19
1.1823424728115393 2.0492197323656316 1.026670995769528 16 16 18
1.1836745751843076 2.022380800505135 1.0263934769127727 15 15 17
1.011647148843759 1.8641504109496878 1.0633783007960236 19 19 21
1.0272463093342368 1.8184487128972928 1.0600435683317704 18 18 20
1.047844859489455 1.719768739723992 1.055652205962879 23 21 24
1.039113907401017 1.709089134837838 1.0575301438855806 23 21 24
1.0274263984555763 1.702565668272813 1.0600415488072414 18 16 18
1.016918362912921 1.6943986595747327 1.0623002371207397 22 20 21
1.0038805510675157 1.6897507345036953 1.0651009628717694 25 23 24
0.9905955874392885 1.6854301991790033 1.067954649293864 27 25 26
0.9745162683222883 1.6849436788183507 1.0714070794782082 25 25 27
0.9662506772499662 1.6736839497805653 1.073185286499351 31 31 33
0.7900439217736961 1.7771631865071182 1.1109846630195213 24 24 26
0.6739255005216399 1.7956614453944901 1.1359097742066493 43 45 42
0.5383107698673881 1.9053242596774798 1.1649919701131435 136 136 135
1.6674979375136363 3.9205534494032275 0.9384213722902418 161 160 160
1.696227718113087 3.6399300412343605 0.93191101907712 34 34 36
1.6991270089594317 3.598205281357176 0.9312388529265039 42 43 45
1.663124350033486 3.531481640040021 0.9389238841748146 34 36 36
1.5467350284771517 3.5236389801303902 0.9640032320155406 19 19 21
1.3678141623922895 2.7197739234065175 1.0016608273763727 41 41 40
1.3680344974303633 2.690496801141806 1.0015802062121488 42 42 40
1.3637221170400327 2.669167362524547 1.0024856242531723 42 42 41
1.3678683545069927 2.633469423235777 1.0015514926968947 45 45 44
1.3490691971374287 2.637095718762329 1.0056078355425706 43 43 45
1.3324368236958988 2.63696124154054 1.0091928634331602 42 42 45
1.2308750343951702 2.2069034576600615 1.0305983371495455 40 40 42
1.2350199170611982 2.1746718683648547 1.0296684197931643 37 37 39
1.2351593897129045 2.148854087171533 1.029609143102269 35 35 37
1.2191398196564927 2.1482330978367528 1.033061528084764 33 33 34
1.2082415346645914 2.139651711092961 1.035400990745055 29 29 29
1.1839294671086535 2.0510835881690292 1.040541347468575 16 16 18
1.1838720653593318 2.0263248769038085 1.040525706241631 15 15 17
1.180766521973368 2.0062871044087984 1.0411724468623917 15 15 17
1.1749056609589261 1.9904810771092334 1.0424178963277102 15 15 17
1.146048172380536 1.8876512800715894 1.048521901167265 22 22 24
1.0322511249600896 1.838675125597279 1.0729959306528276 20 20 22
1.042861320490031 1.8001271190290544 1.0706652401270482 17 17 19
1.0530424216897514 1.7624033375997445 1.068427975349285 16 16 18
1.0490673681563707 1.7218308679343477 1.0692389076835065 30 28 31
1.0354772778800416 1.7179525244249598 1.0721639221004242 23 21 24
1.0176010275363887 1.7200446204466124 1.076019592400876 15 13 16
1.0090393753169722 1.7091030838390342 1.0778527132542806 18 16 18
0.997874258436236 1.7018035245970435 1.0802511430673334 18 16 18
0.9858898463568554 1.69564086303834 1.0828274619019347 21 19 20
0.9767243319964379 1.6855875001151766 1.0847917528186863 20 19 21
0.9679892841831697 1.6749646820554442 1.0866626104717712 22 22 24
0.9236344321244468 1.6904901848419722 1.096241057792639 11 11 13
0.7912324359574068 1.7792155983159623 1.1248812734637972 25 25 27
0.5401213747584671 1.9065707623938681 1.1791534511385495 144 144 143
1.67209745373363 3.918218446370613 0.9539370124434637 160 159 159
1.669411829053819 3.8865617548897644 0.9544365192955924 127 126 124
1.6663770947384107 3.531711671687808 0.9541776856766873 34 36 37
1.5511268484618037 3.5215976351717604 0.9790924699242347 19 19 21
1.341261728946081 2.6842214171209102 1.022348042288706 34 34 34
1.323435768285453 2.6860023772533106 1.0262102877441333 32 32 32
1.319616147395649 2.6639123980217088 1.0269798821556788 31 31 33
1.289701393101177 2.573127229309345 1.033219383552236 31 30 34
1.2928632320768876 2.5400074012123164 1.0324496872717952 29 29 31
1.2849932382344902 2.525347303541857 1.034114978199771 30 30 32
1.2841805480157145 2.4990959577419565 1.0342231168694656 30 30 32
1.2614834621629036 2.5089632576184067 1.0391603685674091 31 31 33
1.2567812042984978 2.4892285662183506 1.0401270482007567 34 34 36
1.2529336935989872 2.468189590788967 1.040905389898806 36 36 38
1.250869672478288 2.4443504486915937 1.0412905483330859 39 39 41
1.2304924595591702 2.4232662954633186 1.0456459052614617 41 40 44
1.2203136041327352 2.176420342488875 1.0472117722163965 40 40 42
1.2203255456909674 2.1508206542222847 1.0471431367488029 38 38 38
1.205744744970092 2.147920262167746 1.050291030501334 34 34 34
1.1878384586898603 2.150115383626158 1.0541717275290114 30 30 32
1.1773460220243743 2.0404547821443395 1.056159415316202 16 16 18
1.1788436571474668 2.0134108047084336 1.0557655398982524 16 16 18
1.1489468334828854 1.887437163717287 1.0619103691770835 21 21 23
1.0633531072922673 1.9406398761971033 1.0805706626778195 20 20 22
1.0310093262146778 1.8443519124511178 1.0873216227072917 20 20 22
1.0437919506506907 1.8026728528020093 1.0844478436155272 19 19 21
1.0531454915329466 1.7660924013689376 1.0823292950430055 14 14 16
1.0439576148230318 1.732811572779192 1.0842317397072094 36 34 37
1.030507552133677 1.728697462096819 1.0871318030335546 35 33 36
1.017965773868852 1.7232950998234895 1.0898319839902362 24 22 25
1.0054142263694676 1.7178969266055577 1.092534289879305 24 22 26
0.9917149711303609 1.7140833141518104 1.0954890553777106 25 23 26
0.9805777469346998 1.7067032569139617 1.0978801792113668 26 24 28
0.9580687521732102 1.715014388694096 1.1027727116515726 20 20 22
0.9546963111993222 1.6969139421769854 1.1034558271339425 19 19 21
0.9169052011245318 1.7033372758990444 1.1116506348793973 13 13 15
0.7925120003343505 1.7811486893348596 1.1387708736872333 24 24 26
0.5436521587072851 1.905570438972864 1.1929467404847833 150 151 150
1.6700030326495316 3.531179004502403 0.9693526977263804 36 36 38
1.5839409129203885 3.5664681299146634 0.9881926596758934 31 31 33
1.5620387521418237 3.541039473321783 0.9928486264748411 26 26 28
1.5868974545483967 3.0617599173512158 0.9855164778941545 33 33 35
1.2866900957061622 2.5831889367177676 1.0488106576682403 17 16 19
1.2920046030469492 2.5464303523361753 1.0475079061693244 16 16 18
1.2867508798848384 2.5274019116402604 1.048572644105969 17 17 19
1.2876691588802835 2.4982683239676633 1.0482557388616502 19 19 21
1.2866860038944912 2.4724226632262876 1.0483651864618568 20 20 22
1.2737226850638894 2.466350224338371 1.0511571115776734 20 20 22
1.2695439111875806 2.4459224740403327 1.0519826684220968 20 20 22
1.255773289114859 2.441199297593472 1.0549554244856865 21 21 23
1.2449631175169014 2.4316581316487618 1.057265581250859 23 23 25
1.2470976487538081 2.401221578586059 1.0566791838420468 27 26 29
1.2642019502005724 2.346856496160656 1.0527440456860564 27 27 30
1.2413735350249868 2.3568785654308044 1.0577441069318616 32 31 35
1.224128628094218 2.35785411348905 1.0614946464924038 36 35 39
1.195163639919874 2.2200811430445726 1.0672323556321184 45 45 47
1.1967841101318866 2.1918129511727207 1.0667663804709986 45 45 46
1.1919168605037878 2.1737345800366707 1.0677509821599014 42 42 43
1.170637329104882 2.005305960505336 1.0716954233868234 16 16 18
1.168892678590813 1.9833215361435974 1.0719858724267692 16 16 18
1.1672817624118808 1.9612425168942544 1.0722468853076128 17 17 19
1.1108043305692152 1.8994471648562108 1.084268086509039 20 20 22
1.079229351002708 1.921540612315026 1.0912170607376446 18 18 20
1.033065862358375 1.8453260750185474 1.1009393609951212 21 21 23
1.0399212821683266 1.8120558650847929 1.099315889922634 19 19 21
1.050175218684811 1.7741458487719395 1.096935363826725 14 14 16
1.0413830431067395 1.7633693622906648 1.0988021151018093 21 20 22
1.0371093902966835 1.7462547322457371 1.0996616362729124 39 38 40
1.027852644391047 1.7362058797685174 1.1016322517368105 54 53 57
1.0143324044063977 1.73214417793511 1.1045532756563667 29 28 32
1.0016961571092786 1.7268312828888035 1.1072772023630628 20 19 22
0.9877095938572703 1.7233847327940783 1.1103020180378824 37 36 39
0.9742696678835763 1.7191583969988038 1.1132049295957724 51 50 54
0.9556705850769387 1.7220355381998855 1.117257338767698 43 42 43
0.9521245055694731 1.7041404963288327 1.117955643349339 35 33 35
0.9493290682208788 1.6852910184308336 1.1184870181550277 20 19 22
0.9182097812292789 1.705222606010716 1.125328277395894 15 15 17
0.8966722763962138 1.7119265264971388 1.1300345056637215 16 15 19
0.8752525819058908 1.7183797243000054 1.1347141282447444 18 18 20
0.5465383177754168 1.9054135616524572 1.2068839047833873 150 151 150
1.695226065218616 3.5213036328002856 0.9797684451222124 45 45 47
1.6735894762225352 3.5307284525805422 0.9845392933492453 37 37 39
1.5860735221958955 3.568992610995785 1.003837262825583 32 32 34
1.2751428542758614 2.6075254877590197 1.0663858449674077 15 15 17
1.304465354853952 2.5306938521141866 1.0595692004155568 16 16 18
1.2970573464684758 2.5152837805072914 1.0611005239078104 16 16 18
1.2882264264784378 2.502284470651446 1.0629554129863552 15 15 17
1.279143282324839 2.48974243913112 1.0648678211664693 15 15 17
1.2693765242789823 2.478360387780958 1.0669356906795648 16 16 18
1.2635858789892938 2.460510508202156 1.068100877218931 14 14 16
1.2264107942483262 2.4938420910850754 1.0763918718752874 15 15 17
1.2249768465659125 2.468892186623388 1.0765679007455944 15 15 17
1.2460819845118252 2.3807623799072952 1.0714816438056385 17 17 19
1.2217939031773601 2.393011632102089 1.0768462927317823 17 17 19
1.2009581652143926 2.399600277901648 1.0814269228162303 19 19 21
1.1928271952208012 2.3858466170522457 1.0831250104200412 21 21 23
1.193608778595723 2.3579901782105845 1.0828018769965657 27 27 29
1.1910807257186744 2.3355175523656526 1.0832301193905318 34 32 35
1.1861339280425764 2.3169670627403005 1.0842074131863937 39 37 41
1.1814803466103763 2.2980374559559755 1.0851186753641773 42 40 45
1.1826136373229863 2.270135246190878 1.084718579545743 46 44 49
1.191390755438671 2.230460714878883 1.0825867584679068 46 46 48
1.1862322234081355 2.2126726129982766 1.083614412137567 46 46 48
1.1740191680961116 2.205883740333203 1.0862410200670383 46 46 49
1.1767982355207438 2.150473384251936 1.0853312087055238 38 38 40
1.1694543655253322 2.085959047702107 1.0865794382611464 27 27 29
1.1617106510141655 1.9982822188540403 1.0877879419736087 17 17 19
1.1602559005911361 1.975904700443539 1.0879826055373452 17 17 19
1.154415900173929 1.960166958803995 1.0891701321021392 17 17 19
1.1342723376887065 1.965722003319077 1.0935941260601854 17 17 19
1.1124606809732673 1.9010628252236732 1.0979971583905 17 17 19
1.0880802523737227 1.9126686981242544 1.1033784234629755 17 17 19
1.0383567027599003 1.8416810705281161 1.1138346903625331 22 22 24
1.0527123571711416 1.7977243424301799 1.1104626565063076 20 20 22
1.0411903662936781 1.7907451052241043 1.112937491805466 15 15 17
1.0327610660661686 1.7793928903131526 1.1147138093555635 14 14 16
1.0301141230733672 1.7599214416661357 1.1151844303582694 31 31 33
1.0261984417963679 1.742318233096421 1.115942016745609 58 57 62
1.018706211703473 1.729795146541738 1.117507531450265 45 45 48
0.9986045799466212 1.734902713928546 1.1219199275220848 30 30 32
0.9847150477135441 1.7312921736776448 1.1249296131463213 27 27 29
0.974309759653919 1.7228318317085907 1.1271527654120144 40 40 42
0.9560817417682869 1.725185880824218 1.1311414139688711 69 67 68
0.9553579684374671 1.7033860800977751 1.1311798087737888 47 45 46
0.8910200925586363 1.7232910197511488 1.1453217499738149 20 19 24
0.8729399101131498 1.7251749353704797 1.1492755774028494 18 18 20
0.866098457775417 1.711790257028836 1.1506944279756524 22 22 24
0.54859974469304 1.906337204135924 1.2210108472590693 146 146 145
1.6868533096017067 3.909145046012073 1.0002359034775585 142 140 141
1.6777081004033039 3.5291864324045896 0.9996046216103538 37 37 39
1.5936407582570356 3.5605450945723254 1.018229841137805 32 32 34
1.26626231933641 2.6557084830645223 1.083642358305876 15 15 17
1.2655650094999444 2.628603625040851 1.0836071617855334 16 16 18
1.2952813708769875 2.5509884021051707 1.0765622958729169 15 15 17
1.290697400731053 2.5308080756704725 1.0774261429084264 21 21 23
1.282961159512352 2.515934136694895 1.0790170110473873 16 16 18
1.2463495710338421 2.5486828480494133 1.0872606918267604 14 14 16
1.2263912785208935 2.5538064223253167 1.0916663850867756 14 14 16
1.207325440247406 2.529809090427417 1.095674803610307 15 15 17
1.2032624676949761 2.508981274533921 1.0964200819155614 15 15 17
1.1767975610112902 2.283790152600649 1.1006540219689578 34 32 39
1.1759288795158889 2.2590944133055033 1.1006730492754686 42 41 46
1.1737703007706544 2.2365293233784844 1.100989288683833 46 45 50
1.1748411767203897 2.209070461373442 1.100564466571181 47 46 52
1.1692410310587897 2.1920551583542 1.101672760077567 47 47 49
1.163808297111299 2.1748526952791867 1.1027430988480436 45 45 47
1.165666819803583 2.146544764004946 1.1021399237381093 41 41 43
1.1671031652225725 2.1190317643487697 1.1016347011428287 37 37 39
1.168414561000843 2.0918533048520254 1.1011591571510049 33 33 35
1.1651049645705958 2.0718258587499467 1.1017450199962924 29 29 31
1.1730425717847672 1.9854747417401812 1.0994083957110843 19 19 21
1.1700914997443552 1.9653670180727378 1.0999151976121142 18 18 20
1.158560068622145 1.9581396846233563 1.1023900856568485 18 18 20
1.1434629024148546 1.95621046406833 1.1056824718140263 18 18 20
1.157754623093401 1.910749732388144 1.1022379564942821 18 18 20
1.1485592054268023 1.8761569495656196 1.1040116484341427 19 19 21
1.1129835465372397 1.9043418120434539 1.111996861012497 18 18 20
1.0919440051833615 1.911067007853955 1.1166504124914336 17 17 19
1.0528350950003358 1.8248975635649463 1.124616613057161 24 24 26
1.0673696052657777 1.7807187818827457 1.1211278213080478 22 22 24
1.0490946189694386 1.7833828694492309 1.1251478800548893 17 17 19
1.014062434547794 1.8096950504865412 1.1330011095522459 12 12 14
1.0068073024575823 1.7966082378938188 1.134499019239656 14 14 16
1.0132791778962749 1.7642711539741431 1.1328577499419077 31 30 34
1.023909881600006 1.726282299853926 1.1302666641160286 49 48 52
1.0054765686436427 1.729076032634219 1.1343222896082228 51 52 54
0.980921793083572 1.7403207111052748 1.1397768839997457 43 44 46
0.9755319741455649 1.724871527984959 1.1408499791115005 62 62 64
0.962629965992481 1.7198608300669753 1.143640341381152 85 84 85
0.9576731460656801 1.7038965667812351 1.1446150542431275 62 60 61
0.9517359121690839 1.6893395904328963 1.1458141988897972 32 30 33
0.8921645545564547 1.7254036528680428 1.1591082587435597 21 20 25
0.8749670764462589 1.7260823604588698 1.162878618239152 18 18 20
0.8694344358977023 1.7109153014449374 1.1639849419661814 23 23 25
0.7406285664904749 1.7705893655293656 1.1926026312506286 37 37 39
0.6922790922540429 1.8121272639677786 1.2034774285888594 38 38 43
0.6624855417483841 1.828797706933641 1.210116743995482 45 46 51
0.55359664258787 1.9034185738223293 1.2344769104435764 144 144 143
1.7011975315160883 3.5228634153925364 1.0103705312496902 49 49 51
1.6790885316836537 3.533270573753544 1.0153177796664827 38 38 40
1.5942633579750725 3.5661254069938613 1.0342394822519612 31 31 33
1.5778205545935686 3.5296994998119513 1.037548535632136 29 29 31
1.582282092733371 3.2180631586710837 1.0339550091910383 32 32 34
1.597335772783391 3.156448923846451 1.0301293334294348 33 33 35
1.273153223500454 2.706256912368386 1.0976165857469278 33 33 35
1.2692356765863662 2.6842825318019017 1.0982935041691646 25 25 27
1.2653801804443314 2.6623115717785013 1.098956811287572 20 20 22
1.2614459393653634 2.6405798263970253 1.0996394336954916 17 17 19
1.2783046847887165 2.584299040965194 1.0954616852181231 16 16 18
1.274260750003633 2.563087063531374 1.0961727782536497 21 21 23
1.2644915238507606 2.551449215479244 1.0982226736401968 17 17 19
1.2569659773823325 2.5361446824483798 1.0997486221543982 15 15 17
1.173598747185431 2.589696034841201 1.1185233618699746 15 15 17
1.1561284013773847 2.268476176277928 1.1196705463178258 34 33 39
1.1865275193871838 2.1954193755272744 1.1123757053058179 45 44 50
1.2084711298113135 2.1358927106190784 1.1070529895337615 50 49 52
1.1688900423125832 2.1714448908607435 1.1160517655578166 47 47 49
1.166193487442404 2.1501191425217083 1.1164657240786866 45 45 47
1.1688665760540082 2.1206868776042 1.1156313632827237 41 41 43
1.174868681333939 2.086342202205848 1.1140240328693447 37 37 39
1.1740958184163202 1.9391230161125845 1.1129596219349882 19 19 21
1.1647682129850652 1.9286852530064529 1.1149225020282372 19 19 21
1.165104535437501 1.9039607290501692 1.1146412786703546 19 19 21
1.1553974443203714 1.8701479443034725 1.1164915985071449 20 20 22
1.1246210833937147 1.8913368938765749 1.1234344993225323 20 20 22
1.0995725642249696 1.9039663343740971 1.1290465438462554 17 17 19
1.0541501243830205 1.8505312264636762 1.1385832852262476 34 34 36
1.0647848519514582 1.8117133937791845 1.135920109746383 30 29 32
1.0778226852067387 1.7696886391715585 1.1327017971210416 26 26 28
1.0485934284521203 1.7879554664971162 1.1392801145771863 20 20 22
1.0075932424979686 1.8227171494748058 1.148584208782672 15 15 17
0.9918707614419225 1.7981877192679185 1.1518346624636142 14 13 18
1.0332174536672514 1.717015260295351 1.1420652864358773 21 21 25
1.0147509019428407 1.7198886931517485 1.146148689444566 32 33 35
0.9966659957393865 1.7221652777008387 1.1501431952096013 46 47 49
0.9846704745935816 1.7159329272563277 1.1527277943622056 60 61 63
0.9691698987383853 1.7145425290610559 1.1561234690320457 72 71 72
0.9633818880680434 1.6997329130106338 1.157271622387269 71 69 71
0.9467041726393239 1.6999311195750013 1.1609393745562204 40 38 41
0.9166151935795134 1.7184364616779706 1.1677086756440769 25 23 27
0.8946902401839277 1.7256357930322939 1.1725885722632503 19 18 23
0.8789571276823388 1.7243236075495232 1.1760360188124444 18 18 20
0.6922792127430519 1.8157539137162053 1.2178380633477643 39 39 43
0.6616887086318127 1.8334759307984425 1.2247110420405232 46 47 52
0.5509014730291861 1.910577105774985 1.2497106833237217 144 144 143
1.7026413226252242 3.7055947354132455 1.027812897375576 40 40 42
1.7081213225585878 3.5155159466185535 1.024733715584613 52 50 53
1.6816810654673278 3.534870524929347 1.0307588031668549 40 38 42
1.6649528999053347 3.5341112163429536 1.0344428117293092 34 33 37
1.6580420706598993 3.5132690592242355 1.0357628217773762 32 32 34
1.628484248910965 3.5385398486721913 1.042534076415388 31 31 33
1.608899430917842 3.543364188457586 1.0469034038182459 31 31 33
1.5972309417028325 3.5321342967670883 1.0493678676610547 30 30 32
1.5865145310992335 3.5190210660450654 1.051603704902025 28 28 30
1.5825339538115206 3.2238776012117043 1.0495786645243093 32 32 34
1.3235566744862237 2.799258343231327 1.1025511645170267 17 17 19
1.3349945839812514 2.7502792317175855 1.099545282114308 16 16 18
1.3250007257139833 2.7384296144069626 1.1016341012420352 15 15 17
1.3209554645964174 2.7164316268924655 1.102310383314594 16 16 18
1.2920227730658058 2.73698074317753 1.1088972385956213 18 18 20
1.2709500146752228 2.7151836312820663 1.1133330298227777 25 25 27
1.2583729059526179 2.679215882249086 1.1157546459091785 28 28 30
1.2519112295204309 2.6616387935255674 1.1170076592897458 31 31 33
1.261172929713918 2.617913944591458 1.11453369902732 28 28 30
1.2548141069386234 2.600411672510801 1.1157647512401616 22 22 24
1.2358791589223137 2.603804217019785 1.1199765837840376 19 19 21
1.2219737291538497 2.5988221967541145 1.1229961461541818 18 17 19
1.2155720471842346 2.5814908855367777 1.1242383381096173 19 17 20
1.1677431547873072 2.632067925563493 1.1352904989983488 19 17 20
1.1562277246729036 2.622977885499839 1.1377422372449113 18 16 19
1.155930321543496 2.247345908185173 1.1341126147777687 28 27 33
1.179913281735946 2.1844462875899238 1.128201418633924 41 42 46
1.2043927799080767 2.121177451558628 1.1221770171307752 48 46 51
1.1654776549213643 2.130225308840073 1.1308535973249914 43 43 46
1.16767852442218 2.101619632316609 1.13008651550603 40 40 42
1.1740396712656154 2.0668480657392645 1.1283407104182759 37 37 39
1.1666606088130338 2.0530647555064756 1.1298334884398915 34 34 36
1.1566003024762797 2.043372468473019 1.1319581935333691 32 32 34
1.1845483113721984 1.9765847172651108 1.125133763376752 28 28 30
1.180817956552469 1.9332365389205146 1.1255305227657053 24 24 26
1.1782903909358804 1.9127019998503043 1.1258862848320301 22 23 25
1.173133387917362 1.8961589088711694 1.126861562042139 20 21 23
1.1509501326925289 1.880739851587678 1.1316051551516164 20 20 22
1.088629958084434 1.9481605022007709 1.1460208690829723 20 20 22
1.077957006431421 1.9395934883920005 1.148291839117157 18 18 20
1.0840616858074132 1.9066052079850988 1.14662017278409 19 19 21
1.0777551938193637 1.8679454698335705 1.1476315419269136 27 27 29
1.068216915851803 1.8579463473221023 1.1496380302424225 34 34 36
1.0748788660515558 1.8247006116838236 1.1478408557977413 41 42 45
1.0822990253180014 1.7905507647470875 1.145867469880456 34 35 39
1.0699777284525056 1.7847481192531323 1.148529381803903 30 31 34
1.0568561498370674 1.780076111576752 1.1513790180026955 27 28 30
1.0291637363714612 1.796031695601234 1.1576469871101387 19 17 20
1.0166327909916404 1.7440461763438129 1.1599008425006034 13 13 16
1.016955821600702 1.7205715799033774 1.1595986283066437 14 15 19
0.9965392063463195 1.726094749520326 1.164158386772923 18 19 23
0.9646681555175862 1.7244934613481648 1.1711757598210288 28 27 32
0.9505157332531594 1.721173562509573 1.1742661781128598 28 27 32
0.9390888666383655 1.7140851555697276 1.176718063578131 24 23 28
0.91377847920833 1.7260095829696347 1.1824207242713844 18 17 22
0.8915416806527465 1.733613069484893 1.187402615592094 19 18 23
0.8816974594575631 1.7242638696270483 1.1894830113173107 19 18 23
0.6925389366944141 1.8190406608218388 1.2321578179490733 44 44 46
0.6433762831384278 1.8613536008311797 1.2434230083344429 48 48 50
0.5595568921830928 1.9028636059248314 1.2623281552723906 149 149 145
0.5463388226784954 1.8971870771956438 1.2651892026406302 171 169 171
1.7054641300820115 3.706886886132422 1.0434402863394387 38 38 40
1.7153883712995583 3.64978402375968 1.04059698509658 37 37 39
1.7089649135456382 3.5207244873545624 1.0405626728300605 53 51 54
1.6913755858055903 3.521857521270202 1.0444720249574568 41 39 43
1.6690199664192806 3.5326874011877347 1.0495467458544105 35 34 38
1.6690944214408379 3.4975756943863523 1.0491337817353965 32 32 34
1.6353432750081924 3.5314575090964793 1.0569932452216775 31 31 33
1.6358212872903155 3.495691859019968 1.0564834970714372 31 31 33
1.6099430949334024 3.513303382545703 1.0624151485992073 30 30 32
1.586178366148967 3.491917990599868 1.067438264552452 25 25 27
1.5789403667656416 3.472007044701738 1.068816868282609 23 23 25
1.5844427596534196 3.2264928969821964 1.0648256579681115 31 31 33
1.3390292262473324 2.8367207145571474 1.114790858899674 21 21 23
1.3386398772626054 2.8078737713055024 1.1145513808359322 24 24 26
1.311754648146978 2.7374560036140316 1.1197121224052453 17 17 19
1.2552790827043676 2.6895648929201625 1.1316823657040984 16 16 18
1.243546954647886 2.680766803166444 1.1341820351574667 18 18 20
1.2488386817723445 2.64356856470127 1.1325897299357917 21 21 23
1.236204211702176 2.636395835660276 1.1353076479845747 24 24 26
1.2272014840293317 2.623205251685822 1.1371530755901074 25 25 27
1.164591222193732 2.6422232397530125 1.1512378523254638 25 23 26
1.1439522384179006 2.647985679751084 1.155875067567824 24 22 25
1.1083865147379215 2.6779325679889903 1.1640920818575866 22 22 24
1.1469485383643554 2.214101750116976 1.1503120201331836 39 40 44
1.174471524061039 2.1461895840716387 1.1434480193439163 49 47 52
1.157510890951846 2.1214573959521124 1.1469260351626263 45 45 47
1.1584444580215993 2.0948427344967517 1.146418698128575 41 41 43
1.156342841851799 2.072961839376774 1.1466371964579403 37 37 39
1.1525825553344684 2.053688208057736 1.1472525798963842 35 35 37
1.1632414328109544 2.012820292973804 1.1444298547258043 34 34 36
1.1699423732082055 1.9536190429485056 1.142276915985656 30 30 32
1.174066571241064 1.9231045874228143 1.1410187242497045 29 30 32
1.1668908370817803 1.9095088932574322 1.1424548441794533 25 26 28
1.1563367011151735 1.8768663635352452 1.1444243096522344 21 22 24
1.0897931110161778 1.950537103673704 1.1599975566987557 21 21 23
1.0881430337634075 1.9287642214133993 1.160117245399613 20 20 22
1.0826162482109964 1.912742836260958 1.1611606841363744 21 21 23
1.0822637085721543 1.8654033420743366 1.160704239761212 29 29 31
1.0909072395470325 1.8291881197954643 1.1583805103842277 36 36 38
1.084737970194857 1.814462374015731 1.1595809083000375 42 43 44
1.0906498876674466 1.7824885121312406 1.1579102044877227 40 42 42
1.0762140099186392 1.779728529669851 1.1610770151338219 37 38 40
1.0710323552941539 1.7637779164598637 1.162044796258135 35 36 40
1.047399077351164 1.774044777506501 1.1673961990271418 33 32 38
1.0390093059598988 1.762661224972231 1.1691262430382703 25 23 29
0.9897586495717303 1.8088337184193266 1.1805580905152673 17 16 22
0.9882366439813468 1.7876804007373526 1.1806564034651394 13 13 18
0.9845566609114408 1.7696416381033473 1.1812679410467595 13 14 18
0.9734850987550963 1.7619789953137945 1.1836340966455114 12 13 17
0.9609005555865606 1.733440464156616 1.1860996986249064 16 15 20
0.9443394803728884 1.7334110901364055 1.1897681367545343 17 16 21
0.9342686649219174 1.724413420305782 1.1918975225519195 16 15 20
0.9088278971313152 1.7364883188673552 1.1976697537606584 16 15 20
0.8894863259669402 1.740107482333618 1.201995352402498 19 18 23
0.8684234688835677 1.7459985216020293 1.2067279202677639 21 20 25
0.8553633953674065 1.7409496687903014 1.2095641042433631 24 23 28
0.7364068203527402 1.7870852154495587 1.236437464877795 44 44 46
0.6898256995362528 1.8262839605896533 1.247199185647534 48 48 50
0.654979304998924 1.8496283070485438 1.2551822933951662 50 50 52
0.5809687168610749 1.901394842603397 1.2721623669351847 85 87 84
0.5615834926944695 1.9038381501465609 1.276484358625352 156 156 152
0.5483619653906574 1.8981600155785665 1.2793492037604506 169 168 169
0.5372770767512016 1.8668292591956206 1.2814510588302555 171 171 171
1.7154038917912786 3.514370016307805 1.0550238822152629 53 51 54
1.6834979762025624 3.5099056256590275 1.0620623884070997 34 33 37
1.6688393062887188 3.504960951901817 1.0652592350348278 31 31 33
1.6488322224170626 3.5108756051309644 1.0697839138082896 31 31 33
1.6522154168290886 3.469279245212792 1.068501317124302 31 31 33
1.6060772120573759 3.527902648743682 1.0795090498937703 32 32 34
1.5967359556114933 3.5120242470948417 1.08138401005692 32 32 34
1.5912872186168407 3.488418285655767 1.0822948281321099 28 28 30
1.5847526880938814 3.4671044540943887 1.0834763284261713 22 22 24
1.5873253666113674 3.2272261054671105 1.0798465045209054 31 31 33
1.6124980730893235 2.9548239763643984 1.070776185643169 31 31 33
1.3093884499290822 2.923861024384713 1.1377886919656524 14 14 16
1.3313880529725335 2.8555150315408757 1.1320251018028755 15 15 17
1.3634994691114843 2.740795048731984 1.1234216678680495 23 23 25
1.3240824807935208 2.7216123188620793 1.1319429150527602 18 18 20
1.2426069658992853 2.68747763850243 1.1496267784283216 10 10 12
1.232046736869924 2.676702993936105 1.1518378773409634 11 11 13
1.2141893972519995 2.6780943320093344 1.1558268260521825 11 11 13
1.2207172753089974 2.6389972081604243 1.1538767547347992 14 14 16
1.1612862016787693 2.652644298883738 1.1672673217800806 19 17 20
1.1298840583327814 2.6759560585479356 1.1745478552303747 22 20 23
1.0953152184544186 2.7041985837406965 1.1825954679059776 22 22 24
1.1657238706779776 2.164026219763411 1.1600520986723613 37 39 43
1.1961349571296616 2.092017870143761 1.152371232938381 48 47 51
1.1537764235665273 2.106258176328447 1.1619726761584404 44 44 46
1.1434942979726865 2.096718705790558 1.1641376734973126 40 40 42
1.152472588411283 2.0581177462337426 1.1616489905225977 39 39 41
1.1565164134537564 2.0271624142679463 1.1603551189332997 37 37 39
1.1680915185726741 1.9850841310564191 1.157244617028161 37 37 39
1.1682362712050725 1.9603282315826445 1.1568968659739227 36 36 39
1.1749679249004545 1.9258907309556546 1.1549608735071857 34 35 39
1.1716196184293253 1.9065994501297725 1.1554595849387275 31 32 35
1.1012671693840244 1.9377801536459727 1.1715024062200055 22 22 24
1.1049145453421834 1.9082888497164339 1.1703153609321644 22 22 24
1.0835508179252384 1.9154189141491584 1.1751572302524975 25 25 27
1.101501005372946 1.8415338161046568 1.1702235651873245 28 28 30
1.1051860458360425 1.8125349412501335 1.1690344207875893 29 29 31
1.109227399681203 1.7831762200278432 1.1677614505421199 37 38 38
1.112101876743281 1.7556445293385536 1.1667712656965215 43 45 44
1.0918801368883981 1.7612380004506187 1.1713395867836178 44 45 45
1.0757898785149282 1.7608667429374227 1.1749130946657491 41 43 43
1.0432875230085203 1.7837285929885436 1.1824325644160474 41 41 45
1.0239926288930752 1.7877195169714744 1.186774340988576 37 37 41
1.0175714723469835 1.7735023025267125 1.1880210881904538 35 35 39
0.8851127888661591 1.772702648486153 1.2174677864758021 22 21 26
0.8900975706168005 1.742967026754151 1.2159802072372567 25 24 29
0.8648521572162139 1.754546785832797 1.2217420269271788 27 26 31
0.8456590955399949 1.757789205507227 1.2260516163560342 29 28 33
0.6997888438711658 1.816676651607031 1.2592416765693077 54 54 56
0.6541164911635868 1.8544159257252486 1.2698796033642812 56 56 58
0.5804891511269767 1.9056734573253116 1.2869066296007052 102 104 101
0.5636110985805332 1.9048135546541667 1.2906491027937206 165 165 161
0.5503861116103016 1.899133812440919 1.2935177492942753 172 170 172
0.5358089202084616 1.8952073499992983 1.2967094552864498 171 171 171
0.5353370770828139 1.872931414631672 1.2965304379654552 171 171 171
1.6894972778175747 3.504496721684717 1.0766367471285512 34 33 38
1.688380032953437 3.4718831433559307 1.0764229525783806 32 31 34
1.6591205946369305 3.462070625246974 1.0828155173542036 32 32 34
1.6141434756792816 3.518426151076935 1.0936567108306372 32 32 34
1.596408697480377 3.51945965809754 1.0976305348724111 33 33 35
1.5908197391194911 3.4960871715424036 1.0985462651824873 29 29 31
1.587282687778886 3.4687456450247898 1.0989475516781448 22 22 24
1.637739645301552 2.9443741203042877 1.080235801314936 31 31 33
1.619124039033752 2.948279575942742 1.084447053329955 30 30 32
1.2653058405128865 3.191936961795405 1.1668947554986486 41 40 45
1.2961854433469335 2.95255744941144 1.1566012297633066 12 12 14
1.3263168212237955 2.7230597641780916 1.1466150906819375 21 20 22
1.2264282797216928 2.6912111736446223 1.16846205077219 9 9 11
1.2133933646837236 2.6845217235796737 1.1712769794494444 9 9 11
1.1528964818575438 2.6714227713106844 1.1845963727313078 10 9 12
1.115597714123107 2.704320961915617 1.1933902723360443 10 9 12
1.082337838634411 2.73034719353147 1.2011849196822229 10 10 12
1.0273577926957107 2.7067324877680354 1.2131233687876628 18 17 19
1.1605724062620608 2.176356396706135 1.1758513612550736 23 25 29
1.1840178739069263 2.114933566583289 1.1697449631223362 40 40 43
1.148165752186819 2.119122918840053 1.1778081593585148 45 45 47
1.13886102743052 2.108050982033312 1.1797281089368914 44 43 47
1.1493373780363632 2.017414616814702 1.1761020412151817 39 38 42
1.1598124309601305 1.9770887595663553 1.1731908229282606 40 39 43
1.1787669369507254 1.9243650193379263 1.1682105486022514 39 39 43
1.177292667559223 1.9022861230176216 1.1682260808805993 36 36 41
1.182590570107626 1.8702954333682706 1.1665890036721562 33 33 38
1.1107624586269549 1.9521711738303462 1.1837869264853607 30 30 33
1.1088421354114422 1.930737169859854 1.1839111960568642 27 27 29
1.0898371737220311 1.9344136395097489 1.1882061162203668 26 26 28
1.0781921945361925 1.9272798869939238 1.1907044425867985 27 27 29
1.099811941469981 1.8479545453907893 1.1847513525443074 31 31 34
1.1002678880761008 1.823579023860819 1.184303360833597 27 26 30
1.1045005012482918 1.7938904794888635 1.182936798174399 22 22 25
1.1127587090747304 1.7585872039824757 1.180591808232961 41 42 42
1.0874811640724529 1.7480799428581901 1.186085580247124 46 48 45
1.0673726816141107 1.7534107056166741 1.190650348368578 45 46 47
1.043364990106864 1.7641728949800548 1.1961627257399259 43 44 45
1.0251601021888943 1.7666364723091743 1.2002618092341852 40 41 42
0.99476372213461 1.7861608392376063 1.2073248585570098 37 38 40
0.970829750142996 1.7732519569061898 1.2124845786055753 32 32 37
0.9623916516173249 1.7618870678817071 1.214206900120732 28 28 33
0.9543433260823674 1.7500126397894675 1.2158349710030936 26 25 30
0.9504819211217733 1.732390451961975 1.2164467104980707 25 24 29
0.9274120061525187 1.7412764585141354 1.221723089466813 25 25 29
0.9207492147255281 1.7275524659293207 1.2230155817665618 29 29 32
0.8884512379161533 1.7489168597235323 1.2305292810024755 30 30 34
0.8617016975708456 1.7625321788695727 1.236694276830495 31 31 35
0.8474513249373091 1.7590386493280628 1.2398259381745422 32 32 35
0.7197387419854757 1.8395639710262448 1.269480435233656 49 50 51
0.6817248938747714 1.844355879393524 1.2780347774235463 56 56 57
0.6482107927397135 1.8658979620869562 1.2858224902489859 58 58 59
0.6151325495176109 1.8866735511135424 1.2935020148330556 70 71 71
0.5794350946083422 1.9107146035735982 1.3018126364977105 128 129 127
0.5657833319250741 1.9056012358422534 1.304787656484949 169 169 166
0.5515040332979121 1.9012957728658197 1.3079142434380595 172 171 171
0.5372131020532195 1.8969867715641806 1.3110433770237224 171 171 171
0.5316092381019392 1.8813653629674896 1.312072523383312 171 171 171
1.6931921950496782 3.503816015814559 1.0917858059716101 34 33 38
1.691716284890904 3.4719142152023754 1.0916169717556943 32 31 36
1.6374880250094896 3.512775485760181 1.1044093492072544 31 31 33
1.6179969701240973 3.5174523554318107 1.1088505111757616 31 31 33
1.588537161732597 3.507409553157238 1.1152951479549431 28 28 30
1.5827621372224843 3.4844712139956635 1.1162301083767683 26 26 28
1.6415119613786082 2.943202702128885 1.0945880496170999 33 33 35
1.629910567714083 2.933869169868739 1.0970417443580347 31 31 33
1.5679923256174813 3.0192107721088983 1.112254001943957 31 31 33
1.5861910071192655 2.9536940132148795 1.1071497033718136 31 31 33
1.2473398939564821 3.19857910761566 1.1869207436586218 45 44 50
1.2824005995070065 2.9823168727557072 1.175677003567166 12 12 14
1.3285904448101968 2.724443324569119 1.1612876012579059 23 21 24
1.2841079958369868 2.6281207681663807 1.1697476481390425 9 9 11
1.1520491279192095 2.6778446784003638 1.2001205605810281 8 8 10
1.0771193635920764 2.74388587253049 1.2179464392126425 8 8 10
1.0456172500631604 2.7384885866204964 1.2249215031499 15 15 17
1.0337665674783703 2.7013866492336063 1.2269962085264705 14 13 15
1.159197988413939 2.157353810149414 1.1903675946789882 27 27 29
1.1810191093848688 2.098609986207212 1.184557576306084 42 42 42
