ply
format ascii 1.0
element vertex 731
property float x
property float y
property float z
property uchar diffuse_red
property uchar diffuse_green
property uchar diffuse_blue
end_header
1.196920792547181 2.2807276188548897 0.6515565411926459 57 57 60
1.16804959063742 2.235727273053036 0.6574379124626015 45 45 47
1.1172780252569967 2.255717375495364 0.665130095311223 29 29 31
0.9705164856894479 2.1437727739916976 0.6919036878051985 46 46 47
0.8527122468166363 2.0041051757571866 0.7147265114490654 86 82 81
0.8393487184784104 1.9628784260463783 0.7179942162351032 88 84 83
0.8260309040339402 1.9170351073383836 0.7213779565180205 87 82 82
0.8129873096222695 1.8780152048829368 0.7245348122539182 85 81 84
0.8007030636595663 1.8772979970327657 0.726544450247007 83 80 81
0.7889322330343369 1.9106755735974192 0.7275592354573547 67 65 65
0.7774003820677182 1.9697558527222314 0.7278480320066745 72 69 70
0.7163921656294046 2.152888291022448 0.7328366246495718 55 55 56
0.613715880839167 2.3449061557569753 0.7443392563122607 43 43 45
0.5879908494800439 2.330774906911833 0.7488854318358544 37 38 40
0.5749494025443984 2.3417591988093305 0.7507048748019065 38 38 40
0.5621577688955064 2.332413032581478 0.7530274568218205 41 42 42
0.5493889388375828 2.3238257664585 0.7553260516237328 51 51 52
0.5360427086512316 2.3512344717736 0.7567557064535344 70 69 70
0.5227201161997888 2.3729393590605703 0.7583340458691356 99 98 98
1.3347857268956531 2.682111708837243 0.6324312798851305 66 66 66
1.3160408306815774 2.6165188801812986 0.637112141762147 68 68 69
1.2311005634251098 2.3697009298052882 0.6570570690654085 67 67 69
1.2152366799144896 2.3298211261603488 0.66062596165454 61 61 63
1.1997211399064391 2.2932501491343786 0.6640553870233159 59 58 62
1.1191280086788908 2.253613642091833 0.678094059104426 30 30 32
0.9048753191464198 2.014335213822305 0.7187777926385099 71 70 69
0.8908805104010229 1.9616272679063897 0.7223663293298166 71 70 69
0.8793427298582985 1.995829907914216 0.7233747316610126 80 79 78
0.8543286254996141 1.9938460052251095 0.7274728753667281 88 83 84
0.841183884034706 1.9626156936298524 0.7303844928138361 87 81 82
0.8280345078480772 1.9258968135976997 0.7334346884108038 94 88 89
0.8152465303446179 1.9022735532745734 0.7360975395217217 92 88 88
0.8029405911031287 1.902737990609297 0.7380774903210148 90 86 86
0.7902629800549721 1.8783663772299168 0.7407412720643098 84 83 82
0.7787218021941789 1.9320938019866327 0.7412599209298015 68 65 67
0.7672264957972645 2.003686543137924 0.7413225148936919 65 62 65
0.7181618065828492 2.1365783349801992 0.7459260682393763 48 48 50
0.5899088389182588 2.326623241689137 0.7619103643445335 38 39 41
0.5768713044504375 2.337822535360816 0.7637391457249346 38 39 40
0.5641067313343866 2.326584903625812 0.7660871830930844 42 44 43
0.5512732391552713 2.3225819209807725 0.7682646990782358 52 52 52
0.5380381937891074 2.343670298924717 0.7698771128374833 73 73 73
0.5247049673850988 2.3667395422311968 0.7714556732028601 107 107 107
1.3574918944311114 2.767968797001667 0.6406948393274499 67 67 67
1.3198519258796222 2.6390262875974853 0.6498074323701628 65 65 66
1.2173175524230624 2.3309763687368066 0.6736163689255548 64 64 66
1.2016378359707596 2.292091707003286 0.6770641629574239 61 60 64
1.1725342739861382 2.244459494195376 0.6828873459932653 53 53 55
1.158896576416247 2.233778824812962 0.6853427017370275 46 46 48
0.9201950386790342 2.0437254345623073 0.7283919686724837 62 60 59
0.9067365749338633 2.014158969010369 0.7312618680721015 69 67 68
0.8926441933748014 1.958508447439988 0.7348468017916868 73 71 73
0.8805317847339975 1.9706392729702202 0.7365198866591516 85 83 85
0.8297599198210326 1.920689755182599 0.7459001637317723 95 90 92
0.8170157856050013 1.8994227332889386 0.7484596866706257 89 86 85
0.804849952505995 1.9080395873485907 0.7502239301942489 82 80 79
0.7914735980730057 1.8391707436559581 0.7540035393340934 81 80 78
0.7800135258469901 1.8935124305007185 0.754579888312761 58 57 58
0.7683938643521373 1.9486105866245638 0.7551642698117629 58 57 61
0.7566112525668302 2.0044806130647688 0.7557568654589817 55 54 57
0.5916296213870085 2.341812860315379 0.7745041335658616 38 39 41
0.566365977345441 2.297280910879894 0.7796337880866908 43 45 44
0.5532673530629604 2.3139679714901824 0.7813592951136378 55 55 55
0.5401465574801603 2.329083132189364 0.7831253008469703 77 77 77
0.5266937248019226 2.36020283630102 0.7845691272763027 119 119 119
1.2846927174231082 2.5041585369578616 0.6723132500780316 67 67 69
1.204976217368982 2.312690230133526 0.6893688106748411 62 62 65
1.1745594350837574 2.245260137902195 0.6957535815686353 56 55 58
1.1605337697728948 2.228275258526665 0.6983893530605162 49 49 51
1.148054268280898 2.236535072886107 0.7002237376044673 42 42 44
1.1226178263461173 2.2456480675700394 0.7041314719467866 32 32 34
0.9356108098900887 2.072430201524742 0.7381110239582546 59 57 56
0.9217141657389808 2.032392285279313 0.7412298102407993 65 64 63
0.9077115752757613 1.984375930692546 0.7445400787892001 74 72 75
0.8945308938797598 1.9597577796507224 0.7472062536589926 80 78 81
0.8821857713273236 1.9632518028775994 0.749123102636249 97 95 98
0.8698558533697378 1.9676088462067183 0.7510186345832457 98 97 100
0.818585389803092 1.8859650404141384 0.7610810457451335 72 70 74
0.8064904081742382 1.8974867948115561 0.7627820537944809 70 68 72
0.7935792683534234 1.8586330030664486 0.7657158427080752 65 65 68
0.7696376249212847 1.9017494176864862 0.7686390530591196 51 50 55
0.7582063705155617 1.9823063406788397 0.7687240674335594 46 45 50
0.7337063647488808 2.027335357008719 0.7716956278972451 48 48 50
0.5937256077244265 2.319880979846813 0.7879027236279351 40 41 43
0.5555633399276936 2.284535510814451 0.7948368220154116 56 56 56
0.5422083524273044 2.31699189712902 0.7962837211561619 78 78 78
0.5286775072108582 2.353814387255448 0.7976635884783922 128 128 128
1.1758199098266027 2.2337795604645723 0.7089988822498867 57 56 62
1.1620178372120755 2.22028353877474 0.711497668667693 53 53 54
1.0896416794667965 2.323756640105662 0.7210764673532537 31 31 33
0.9230652190706278 2.0159223823122767 0.7541661602510383 72 71 68
0.9097228035330943 1.9893626840645067 0.7568550625954641 78 77 75
0.8967978335292155 1.9742627111395146 0.7592448461864035 82 80 80
0.8842447351377571 1.9709752611843263 0.7613357243860698 81 81 82
0.8722639632548947 1.9896308042207123 0.7628904587816266 75 75 77
0.820877900425816 1.9108700403755055 0.7727703759265943 59 58 63
0.8075794562206408 1.8554850851815579 0.7760352440251711 58 57 62
0.7953787184080404 1.8580912828965928 0.7779500860942056 56 55 60
0.5576355521017146 2.2697208120727934 0.8079637129298396 57 58 58
0.5441836859037729 2.3099947223103365 0.8093184031523004 80 80 80
0.5307795829064834 2.3405753402700267 0.810861459845243 133 133 133
1.177485897418012 2.2288556614135104 0.7220239487161694 58 58 61
0.911377984971176 1.9825494234682364 0.7694676813826018 69 68 67
0.8986350472408888 1.9735989454020928 0.7716866914050977 68 68 68
0.8226446114845667 1.9077855781633497 0.7851507322395161 51 50 55
0.8095095790656748 1.8622744245117062 0.7881128585698285 51 50 55
0.7971123240878599 1.8534191212834243 0.7902744182343501 51 50 55
0.7843476233159223 1.81683592196091 0.79301085072094 50 49 54
0.7727224362661104 1.859535963601241 0.7940892176602139 44 44 48
0.5596153687993063 2.260980146607504 0.820948977639472 62 62 62
0.5465364009668353 2.278927604951846 0.8227218617691485 83 83 83
0.5326840420873569 2.338402526851162 0.8238469853168386 138 138 138
1.1960279327115433 2.2844508648635307 0.7312955958442844 61 61 63
0.8234656998452828 1.8561648908107349 0.7985012005505967 48 47 53
0.8108770044478325 1.8373562872780218 0.8008456378726053 49 48 54
0.7986119754419041 1.8344639009226182 0.802867929213276 49 48 54
0.78608171935699 1.8125534976997577 0.8052555976067435 49 48 53
0.7624700395942186 1.8754492739207733 0.8079870253808428 46 46 48
0.750715469093181 1.9266120750386553 0.8090099586999739 45 45 47
0.5620594471771758 2.2187650057959174 0.8344037616812249 66 66 66
0.5484257477862409 2.2767751068462387 0.8356128230723892 86 86 86
1.4259890226818177 2.955092833161933 0.6973530749200457 73 73 73
1.198823166189813 2.2968833482360513 0.7439519529643417 62 61 64
1.182601458244756 2.247359681435632 0.7473182126556805 59 59 60
1.1674075170668161 2.2118719439156016 0.7503040335448748 57 56 60
1.1530398967926674 2.188191984445325 0.7529759619234534 53 53 55
0.825146828936324 1.8494022193930708 0.8108612073522928 46 45 51
0.8125851521024832 1.8318732197306313 0.8131485950913487 47 46 52
0.8004590799039427 1.8370615276520448 0.8150175397947155 47 46 52
0.787802888681909 1.80749672067302 0.8175047244774715 48 47 52
0.7751238413084423 1.7687779948758307 0.820135987982478 48 47 51
0.5642426423973714 2.1941728069022592 0.8474973910864234 70 70 69
0.5504799595499046 2.263843437670954 0.8486402678875834 90 90 90
1.4287000335123201 2.9610947238841376 0.7112736719387827 75 75 75
1.3167914003029724 2.6132860617146947 0.7340022911707438 63 63 63
1.2644243350333124 2.4531005937062256 0.7446028047443183 62 62 64
1.2017163610884327 2.3107189402124075 0.756618948254555 61 61 63
1.185346970607271 2.259451420716408 0.7599489406308626 59 59 61
1.1693394995413398 2.211284036621495 0.7631783503399677 57 57 59
1.1551608307134404 2.190872997559178 0.7657337668219604 55 55 57
1.142565481593268 2.1963206525898276 0.7676806016811784 50 50 52
1.108740513800759 2.2879090171270144 0.7718539222243862 35 35 37
0.8022394965878699 1.835564545775381 0.8272468949104604 46 45 51
0.7894994840597557 1.8009327459794593 0.8297663465515139 47 47 51
0.7770207616688558 1.7770835891630448 0.8320960563480243 48 48 51
0.7647533818184339 1.7641641737633302 0.8342420243289086 49 48 51
0.7532352844813037 1.8191785278427286 0.8353365165111006 48 48 50
1.4316371524189009 2.9696737983768484 0.7251518372267868 76 76 76
1.2832401249894236 2.499364444965014 0.7546202510442075 62 62 62
1.2044522329255716 2.32202617280646 0.7693919266202603 61 61 63
1.1879232487610634 2.2687769114816962 0.7726846632798401 59 59 61
1.172179609638302 2.225344628124246 0.7757329497982388 58 58 60
1.156668270349371 2.1833553094515157 0.77872657153017 55 55 57
1.1447663928397045 2.200425472837727 0.7804283416736705 51 51 53
1.1329391662217987 2.2196814990974776 0.7820917470981874 46 46 48
0.7782697592420635 1.738051796926012 0.8447631901860573 49 48 53
0.7665841737458297 1.768211753644697 0.8462722071459803 50 49 54
0.7547617610320475 1.7941150399936228 0.847854564337252 50 49 54
0.7427270505714648 1.805100380636189 0.8496511123464641 49 49 51
0.7308565547535264 1.8423960827113612 0.851103595393977 47 47 49
0.7188240024007806 1.871476180158908 0.8526812736473229 47 47 49
0.66982592265168 1.9653217542594843 0.8594025300552685 54 54 54
0.5829562768310785 1.9951156185210581 0.8729682847220028 76 76 76
1.4346386610602526 2.978938369938884 0.7390459789991675 77 77 77
1.3382655094177027 2.6595806063102856 0.757812153792708 65 65 65
1.3200304921202968 2.600945473450295 0.7613442399082178 62 62 62
1.2367628719411368 2.380290217801911 0.7769811137688393 61 61 63
1.1904959379259457 2.2779632538144337 0.7854578007474945 59 59 61
1.174572443667843 2.2320934023865715 0.788486451058712 58 58 60
1.1577180781205945 2.1683348288641824 0.7918509932429443 56 56 58
1.1458434037363694 2.1854294156605696 0.7935737137990153 52 52 54
1.1335817661160048 2.1966557078504385 0.7954196862914886 48 48 50
0.8300147497850259 1.821270804146827 0.8479452283509173 45 44 50
0.817390840717842 1.7991040597312042 0.8501979964793627 45 44 50
0.8048224807645382 1.775779689504287 0.8524539619975524 47 46 52
0.7923435401951213 1.753113854909015 0.8546887319927183 49 48 54
0.7804344876038727 1.7656077183059353 0.8564650116606344 50 49 55
0.7681337553495573 1.7494168645298127 0.8586036169598548 51 50 56
0.7562455958177192 1.766141758999647 0.8603323580984488 51 50 55
0.7323583488672504 1.8042514697583993 0.8637589281389777 47 47 49
0.6716525228561303 1.9128754866763529 0.8723440583229776 53 53 53
0.5712610259315056 2.0795712490943603 0.8866767666876662 87 87 85
1.1768771684066817 2.237367129540158 0.8012939413227979 58 58 60
1.160255740581038 2.1778783912844304 0.8044762987145595 57 57 59
1.1474673845534147 2.179780738872389 0.8065046369487784 55 55 57
0.8572838688631592 1.864366138027842 0.8556902875691947 44 43 48
0.8436795509213912 1.805188093969045 0.8583874130514235 44 43 48
0.8316763667704269 1.8141492744893783 0.8602279779951805 44 45 49
0.8064725009634786 1.7675912753397474 0.864668873793454 46 47 51
0.7815285756257482 1.7170998943040698 0.8691028648741402 51 50 56
0.7699741559390323 1.7542475283532137 0.8706232575739659 52 51 56
0.7578441693523422 1.7496738645496048 0.8726033827533399 51 50 55
0.7220054397923867 1.8055157144350822 0.8778425512036563 45 44 46
0.5736719863992077 2.0331516767069693 0.8995577696320544 92 92 92
1.4190597805252358 2.9121641196290113 0.7710011647581341 78 76 78
1.179073947010374 2.2408667539642746 0.8141534732202493 59 59 61
1.1640999437979147 2.208721953906527 0.8167760326349243 59 59 61
0.8334808023492976 1.8139962663765854 0.8724189997491909 45 46 52
0.8202322591391844 1.7596439273520192 0.8749254161666313 46 47 52
0.808031855687394 1.754459880453625 0.8769113689762712 47 48 53
0.7951630701974023 1.706418584452034 0.8793118121893475 49 49 54
0.7833633787714266 1.721244572584763 0.8810900806548444 52 51 57
0.7712129135466639 1.7121872946131993 0.8830958683304525 52 51 56
0.7595002189641931 1.7389240196361033 0.8847747172831256 52 51 56
0.7475914804753614 1.7537841350578975 0.8865701584208323 51 50 56
0.7356784533765554 1.773409095942019 0.8883320710893132 52 54 59
0.723717890363842 1.794653874974914 0.8900899455742467 48 48 53
0.6629483490591421 1.9140814065261496 0.8989389225916091 48 48 48
0.5761404308967427 1.980519219537037 0.9123274088732919 96 96 96
1.6834423830333094 3.637283218745369 0.7391888017170801 167 165 166
1.1800575681999286 2.2250557824869546 0.8273299022915298 59 59 61
1.166016667411903 2.2078806640920523 0.8296651796560944 58 58 60
0.9276883415246959 2.0258156871182202 0.8686966285688618 39 38 43
0.9139419349057587 1.987704922821406 0.8711010612187501 39 38 43
0.8858502382790807 1.875894963348395 0.8762028898675848 40 39 44
0.8590862491561697 1.788424982777036 0.8809578819096521 45 44 50
0.8464763523929395 1.7691114526284772 0.8830767279625484 47 46 52
0.8350061462578149 1.800604539800413 0.884731913084863 47 47 55
0.8228096253853667 1.7998256166613957 0.8866819938814895 49 49 57
0.8102930529946669 1.780795845746339 0.8887843774146895 49 49 57
0.7970053330726502 1.7105192600864818 0.8912940686457302 50 49 56
0.7850555018286579 1.7155249137565953 0.8931727050502546 53 51 57
0.7729544981097811 1.709889432039795 0.8951344885883152 53 51 57
0.7492182301930644 1.7386996790983869 0.8987614103195852 55 53 58
0.7373268791111063 1.7577810470156074 0.9005526343941952 61 62 66
0.7254244490898272 1.78357909279722 0.9023083662488762 56 58 61
0.7135142811751856 1.8229813046051726 0.9039898656430814 44 43 48
0.7014134317987841 1.8427957902352743 0.9058104449677509 37 36 41
0.6402757767380818 1.8863779090597155 0.9153222152800984 51 51 51
0.628057177425528 1.8820310441548227 0.9172956109204241 56 56 56
0.5910350731695257 1.9132588465791864 0.9230286643604877 77 77 77
0.5775399334279148 2.0124672819608858 0.9246312552785914 91 91 91
1.685359329020257 3.632686039870906 0.7545292390265643 166 164 165
1.6669284543928578 3.6041595228966976 0.7575776859743952 138 138 139
1.168367095230187 2.214077817357346 0.842459608192241 58 58 60
0.9272317010637778 1.9541902193703644 0.8818995886547227 38 38 43
0.8866465582267617 1.8385404732447115 0.8888191084703418 39 39 44
0.8732342644975246 1.794620639345283 0.8911281343373284 43 42 48
0.8365550657013321 1.7885838618083745 0.8969962732996852 57 56 63
0.7873843559599852 1.7524996197486151 0.9049724257857785 75 71 76
0.762789049297794 1.7165755165544516 0.909032074148869 96 91 95
0.7508475365546039 1.7245017561237623 0.9109038289862919 82 79 81
0.7389291236922853 1.7375476512419816 0.912751865782599 71 73 74
0.7270609960514185 1.7631220341095606 0.9145428561490402 72 75 76
0.7151629789744578 1.7974648075294346 0.9163042914666109 53 54 57
0.7031446052069744 1.8277502531115197 0.9181007841230853 44 43 49
0.6910248969638114 1.8537770684338672 0.9199300909496235 39 39 43
0.6541555617195234 1.947372768671265 0.9254385855466839 42 42 42
0.6418814830654587 1.9294721956628649 0.9274644126933641 47 47 46
0.6297722281638876 1.893682312193632 0.9295339916741747 52 52 51
0.580288961506836 1.934414110890992 0.9372593052613692 80 80 81
1.6691493966852908 3.602480678706737 0.7728033143697391 132 132 134
1.4101931888344448 2.897434133261658 0.8156231670841336 79 77 78
1.0359332413284612 1.8367059948043636 0.8776043162490778 53 51 56
0.9006105397416815 1.8340964243841766 0.8991466828881588 37 38 42
0.8874003134051643 1.8002796044692981 0.9013261660398928 40 41 45
0.849529404895496 1.745447004653864 0.9074782729723883 63 60 67
0.7888219055011434 1.7296390050830053 0.9171758244773827 121 117 118
0.7765427587896827 1.71312160006247 0.9191676891061815 111 106 108
0.7644668011300724 1.7087577091548627 0.9210995093899865 109 102 105
0.7524569506408875 1.7089728653763896 0.9230103696829138 91 88 87
0.7406063572340723 1.72683595551747 0.9248556513842952 71 72 71
0.7286538920724877 1.7378537410301687 0.9267327514826469 75 78 79
0.7168165338078079 1.774827846976357 0.9285323583033631 71 73 76
0.7047852254351841 1.791770246673426 0.9304084994902395 62 63 67
0.6805891505067285 1.8436413634178914 0.9341410170619099 46 46 48
0.6683649348561915 1.8814441723246884 0.9360003024472202 40 40 41
0.6560937315750535 1.8900068606061076 0.9379337263006506 40 40 41
0.6439109210411833 1.8704303409328393 0.9399172332091575 42 42 43
0.6316738756798 1.8727297327570656 0.9418594996895077 48 48 49
0.6194490410150747 1.872934015618534 0.9438045991999592 51 51 53
1.6711436038029976 3.5986618029037114 0.7880663928893851 127 127 127
1.037274292679544 1.82587359297893 0.8899674639793131 57 55 57
0.9152110983603359 1.8500809791987587 0.9093544969665013 35 36 41
0.9019686267951275 1.8183709567210475 0.9114799250884638 43 44 48
0.8888752759125237 1.788173513783144 0.9135806736408295 50 50 53
0.8759703003533192 1.761237338328526 0.9156493745524739 62 60 64
0.8633187772873827 1.740789940231108 0.917673600920757 71 70 73
0.8511198547013974 1.7366611875261595 0.919615354422805 84 83 87
0.8394552434793033 1.756186540931431 0.9214569135283341 88 87 90
0.8027995361448304 1.7376155586652506 0.9272955334354728 106 101 102
0.7781713085129549 1.702618870543011 0.9312329141804625 95 90 92
0.7660980543504179 1.697389493711396 0.9331554021214798 89 84 85
0.7541291323917005 1.6999710870427593 0.9350562659259123 85 83 81
0.7423079727561361 1.7193076952018704 0.9369228310949089 67 69 67
0.7304719436137492 1.7443344393225722 0.938788088371328 70 71 73
0.7185393349910298 1.7657340778463468 0.9406710378592853 69 68 72
0.7064913805055342 1.775003541099007 0.942580149080216 64 63 66
0.657931855815588 1.867517058530827 0.9502392739354835 41 40 44
0.6457369917795169 1.8589286997130432 0.9521832598108664 38 37 42
0.6334634214541872 1.8711914081260972 0.9541263026248503 45 44 48
0.621235045602528 1.8719087650118977 0.9560696110044904 48 48 50
0.6092400416850574 1.8454042939497821 0.9579933880957325 51 51 53
0.5835655377137197 1.9596156995950853 0.9620008059317094 66 66 66
1.6731369066625499 3.59484464534888 0.8033225597042859 120 121 119
1.1253663431468603 2.0399944717943352 0.8887492770113091 57 57 59
1.052379444834377 1.8449137368495903 0.9001438060682567 59 59 59
1.0376904101456599 1.7957811472076401 0.9024272503021218 59 57 58
0.916533823247097 1.8339340356166076 0.9217001898115986 44 45 49
0.9034229703997693 1.8060726035829857 0.9237541309007974 58 59 63
0.8903744708011846 1.7770983776099079 0.9257970711891412 70 69 72
0.8772831269439997 1.742900945728892 0.9278416437608721 79 77 78
0.8646559589843126 1.7225452320063106 0.9298262225825665 81 81 82
0.8528633567892405 1.7344892894526476 0.9317102727824309 83 84 84
0.8166011641220856 1.7341756736495417 0.937467054933723 84 79 80
0.8043160300287004 1.7220556818394535 0.9394054829605953 86 79 81
0.7918490049654536 1.6955632524895303 0.9413585630579477 87 80 82
0.7797958912311655 1.6921415717422283 0.9432687642176384 100 96 97
0.7677249617713651 1.6860518421463755 0.945179153087009 99 96 97
0.7557720263500888 1.688607710993708 0.9470793660702288 97 96 94
0.7439805696662403 1.7089648522145502 0.9489715614633003 63 64 63
0.732240223926746 1.7438566690190185 0.9508700283872262 64 63 65
0.7202586194809337 1.756658980811051 0.95278493461983 63 60 63
0.708190972905592 1.7583817940900623 0.9547025349465122 49 47 49
0.6961492380588845 1.7693932295655665 0.9566252150945761 51 49 50
0.6840432326599514 1.7544433565970683 0.9585324031771509 51 50 48
0.6598001451902845 1.823861024633805 0.9624500150355217 49 49 49
0.6475667606902671 1.845012080654612 0.9644131579877286 47 47 47
0.6353382818827873 1.8528238802570263 0.9663623192384588 48 48 49
0.6231086568056294 1.8577642807361512 0.9683088204359729 46 46 48
0.6108747153904317 1.8618784048013577 0.9702551890804965 44 44 46
0.5986592504919371 1.8632525883384918 0.9721959124148152 49 49 51
0.5859923082527285 1.9041203984392276 0.9742474034167131 57 57 57
0.5606858421281999 1.958261715124561 0.9783187202568091 80 80 80
0.5485880525840818 1.943518052404459 0.9802248080677625 120 120 120
0.5247223856296879 1.9049667153009555 0.9839756345372237 167 167 167
1.3780330463511348 2.7707165782464687 0.8635288373823538 76 76 78
1.1274550470123839 2.0428750440053935 0.9013522151945523 59 59 60
1.053326747370369 1.8264889034805636 0.9125386690988851 63 62 62
1.0394323007800255 1.793583735717055 0.9146555268668903 61 59 60
0.8919046733473595 1.767264428274087 0.9379798928125702 67 68 69
0.8788609339522616 1.734633620437361 0.9399625741793824 71 71 70
0.866168217377795 1.711477194387232 0.9419144667113968 75 75 73
0.8542949828800543 1.719292494326333 0.9438177232683597 78 78 76
0.8299731574534818 1.710110465384296 0.9476503306744798 87 85 84
0.8178046357338957 1.7036099001008436 0.9495628278400624 92 91 89
0.7934936518468622 1.6874666020284614 0.9533754408501787 107 102 102
0.7814142810456108 1.681533025691237 0.9552752898537762 112 108 109
0.769392588113723 1.6782894372274302 0.9571730548360391 74 70 73
0.7573811007597775 1.6746250368711122 0.9590680967720709 55 55 56
0.7454082824936097 1.6733211394690373 0.9609632039211284 45 45 47
0.6371606013252922 1.8436768035641533 0.9785752734004127 56 56 56
0.6250324949165392 1.8348928397426552 0.9804753673573009 54 54 54
0.6128490642067616 1.837056116177406 0.9824129736176171 49 49 50
0.6005573490554903 1.8502395147034938 0.9843966814077451 48 48 50
0.5881638959909467 1.8691679482702281 0.986411604085106 50 50 50
0.5756426261674656 1.8937401944544203 0.9884616112364344 53 53 53
0.550450556224976 1.9384435651867724 0.9925736773936591 89 89 89
0.538360381923058 1.9263185424235543 0.9944589852531451 144 144 144
0.526375541810078 1.9109434975215058 0.9963190580612853 167 167 167
1.4942336176301885 3.0996890121461003 0.8607018328834521 54 52 55
1.0547404683868822 1.8175806944989936 0.9248440646714918 66 64 65
1.0414387987119722 1.7968765644530351 0.92686251832263 64 62 63
1.0290373020506696 1.7939348338893577 0.9288140955321876 57 55 57
0.8803023345891359 1.7215015161064247 0.9520616462354158 63 63 66
0.8676652780200995 1.6999991528422072 0.9539714389252698 67 67 68
0.8557351547101559 1.7047226161506526 0.9558810248405325 65 63 65
0.8312802469596025 1.687298500206155 0.9596798726774081 76 74 75
0.8191048014537998 1.67875869904192 0.9615717936948742 72 70 70
0.8073028174764855 1.6894700708730102 0.9634866013537887 67 64 66
0.7950858214411773 1.6763172751778221 0.9653654458219798 52 50 53
0.7830533903373103 1.6726503120664866 0.9672554811004372 51 49 53
0.7710518082513488 1.6701118550615222 0.9691454394674134 35 33 38
0.7590423052391315 1.665762417892655 0.9710289352578505 25 25 27
0.7470090122894268 1.6570837035540271 0.9728977506238519 28 28 30
0.6270142237860608 1.801079996243394 0.9925157802962474 57 57 57
0.6148159139555243 1.8118023886503458 0.9944934038442858 56 56 57
0.6025795347204372 1.8234306420981428 0.9964809168286556 52 52 54
0.5901659667182232 1.8482479184149647 0.9985526943960212 48 48 49
0.5778546051918267 1.8590140612341182 1.0005484091726187 49 49 49
0.5651802573896394 1.8933301102180913 1.0027019650852242 54 54 54
0.5523022294985123 1.9339488798548161 1.004914636827808 68 68 68
0.5402029024072881 1.922458455156335 1.0067819290396964 102 102 102
0.5281406159116393 1.9111823657771991 1.0086442682105548 162 162 162
1.4970254462794252 3.1055970644635824 0.8750347469165813 53 51 54
1.1160433810298593 1.9974951057742043 0.9287647257972437 64 64 64
1.0707724231213773 1.8536434164467737 0.9350774681340885 69 67 68
1.0566128643351032 1.8178960965307427 0.9371064557616322 68 66 67
1.0433272774209028 1.7976901206999072 0.9390888539044703 66 64 65
1.0311947714885081 1.8005809055499855 0.9410250718930665 54 52 54
0.8819067610282135 1.714480389382959 0.9641322542289993 39 38 43
0.8691632009203818 1.6887403126202993 0.9659962736495014 48 47 51
0.8327995793339656 1.6749868685197131 0.9716673040799257 69 67 69
0.8204157173052448 1.655025952372956 0.9735085090326147 46 44 47
0.8087272513916983 1.6699328122075845 0.9754453547496522 29 28 30
0.7968959282447817 1.6787568888233784 0.97736892348289 15 15 18
0.7847097466585837 1.6651759194902886 0.9792164858581884 15 14 19
0.7727165648323684 1.6625994114193237 0.9810984202834472 15 14 20
0.7607298191803245 1.6594781202273945 0.9829761236154049 12 12 14
0.7486598139771222 1.6465650465455184 0.9848092478202941 19 19 21
0.7367419120494814 1.646335809059425 0.9866931177756377 21 21 23
0.6044235787541106 1.8147967535011482 1.008617307119414 56 56 58
0.5420869632263696 1.9161024188371125 1.0190754403669773 79 79 79
0.5299107848947209 1.9111879664524898 1.0209725333147777 137 137 137
0.5178332805009014 1.9024035048494665 1.022831193283118 167 167 167
1.1175865024727116 1.9910131794697141 0.9413389122043145 66 66 66
1.1021878540195917 1.940439163471257 0.9433906985497114 68 68 68
1.0723373949852926 1.8478028946238059 0.9474088131486771 70 69 70
1.0582153227118576 1.8128362283094637 0.9493765089732552 71 69 70
1.0451323074896486 1.796770513103556 0.9513224565108085 67 65 66
1.0334330175382072 1.8088579693846452 0.9532619141690936 49 47 48
0.9350744580908584 1.8025368859962039 0.9687540500959161 33 33 36
0.9218053647339091 1.7709239103180643 0.9706122520734921 30 30 33
0.90879818114735 1.7443256278727848 0.9724668589737414 29 29 32
0.8839151039411388 1.7220664727024977 0.9762304438416646 29 29 31
0.8591627624291127 1.698571284274357 0.979964060489328 37 35 37
0.8457723876951058 1.6400235676908932 0.981638478150771 37 36 38
0.8335585044598031 1.6274216118195644 0.983473209138779 46 44 47
0.8218526911788049 1.6381897995430832 0.9854037571076073 28 27 30
0.8104237960125342 1.6658058834112914 0.987417498663552 17 17 18
0.7864150877375784 1.6611572020923364 0.9911756310968439 13 13 16
0.7745290391386161 1.6663156128618068 0.9930923865295854 13 13 17
0.7502792351969407 1.6333982913905558 0.9966756136670336 14 14 16
0.5817222660632623 1.8317074155725026 1.0248002948403945 43 43 46
0.569569201339538 1.831917857970903 1.026721954861325 42 41 45
0.5569766898322548 1.8611365063404692 1.0289316121549545 49 49 51
0.5442687412447447 1.8919648824024027 1.0311716363082846 64 64 64
0.5314312012693678 1.9247569875696509 1.033446930874832 100 100 100
0.5183513105409807 1.9646735461430078 1.0358141954176474 164 164 164
0.5075532841850408 1.8934734805990037 1.0369837135811901 168 168 167
1.6043121479289786 3.4032811987366536 0.8903486027877503 35 33 36
1.1191289584928972 1.9845632679137017 0.9538967188787715 68 68 70
1.1034812260399116 1.9295800369724398 0.9558615809549281 70 70 72
1.088143353153617 1.8769634771018264 0.9577992553966395 71 71 73
1.0738789504994855 1.8415558121124456 0.9597253816355569 72 72 72
1.0598942267446325 1.809322346609595 0.9616364894787061 71 71 71
1.0469375421384675 1.7958507500073375 0.9635574622006042 60 60 60
1.0358774664216024 1.8213877611467921 0.9655369480980373 40 40 41
0.9360317820284675 1.7772758333972405 0.9808877771743763 27 27 29
0.9225925664222426 1.739564024925183 0.9826625566779097 27 27 29
0.9096090190849894 1.7123943509283268 0.9844621270640823 27 27 29
0.885871605849035 1.7276542722049142 0.9883478059086442 27 27 29
0.8605717649948448 1.683288240827021 0.9919331325252285 17 17 19
0.8468962787171279 1.6121358516510869 0.9934384720380969 27 27 29
0.8344884796823051 1.5887680297399418 0.9951820618633338 25 25 27
0.8232837095137902 1.621423669274486 0.9972496735631732 22 22 24
0.812163845884297 1.6641082844775734 0.9993958747548798 14 14 16
0.7881415057430364 1.658603831565768 1.0031360598902133 12 12 14
0.7761641548047169 1.656865365031258 1.0050101142597894 12 12 14
0.5958266510571325 1.813818390232854 1.0349065808626294 45 46 48
0.5836158694028921 1.8207252666892755 1.0368967667232512 41 42 44
0.5712278379341387 1.839504106483455 1.039023813990022 40 41 43
0.5589648429204747 1.8463133881208658 1.0410213438479206 43 43 45
0.546309868105004 1.8756501046101564 1.0432873529271494 51 51 53
0.5335458830901754 1.9061047738357044 1.045580817640929 73 73 74
0.5205031093375356 1.945977911592217 1.0480046624885855 144 144 144
1.7196017789007123 3.606323373977349 0.8896448116331337 168 167 166
1.6056864403822204 3.3937250483981343 0.9053001801530196 34 33 36
1.1820254302262452 2.1497063380362795 0.9586231101487035 64 64 64
1.1206539030490283 1.9778510882859957 0.9664377689908689 69 69 71
1.1055970149346657 1.9335683987122618 0.9683321025414431 72 72 74
1.089078547555465 1.8595289930911743 0.9701351137677328 73 73 75
1.0752251463209708 1.831631006275992 0.9720168929911908 73 73 73
1.0615090897290573 1.8045698828760068 0.9738860726663694 71 71 71
1.0487429813673588 1.7949308314112513 0.9757938709738572 54 54 54
0.9500092420214781 1.7758503893319681 0.9911485027806455 21 19 22
0.9371827660490926 1.7579194254226935 0.9929761786495788 21 21 23
0.9239100804896958 1.724643008967078 0.9947082928726968 21 21 23
0.9111073930072605 1.7027348709328756 0.9964892257954923 22 22 24
0.8629872651101615 1.7083614821309865 1.0041340048612541 14 14 16
0.790006609173757 1.6650422992065361 1.0151678076948996 11 11 13
0.7778202678539827 1.649203229238644 1.0169172090284444 11 11 13
0.5977172591017024 1.8010415259542565 1.0469436677688533 35 35 37
0.5855268029089986 1.8078728111457802 1.0489387871163773 39 40 42
0.5731178507503544 1.8299170983599495 1.0511327969710822 39 40 42
0.5609833527958266 1.829024165137783 1.053035597234763 42 43 45
0.5483692585446518 1.8578037681917492 1.05533474807301 45 45 47
0.5357465250187678 1.8822365655348237 1.0575882709652065 57 57 58
0.5226522300233474 1.9270137069873163 1.0601360391342005 110 110 110
1.1834097533878039 2.140693022312212 0.9714335301098138 66 66 66
1.1054249773243778 1.8966177824655297 0.9806708321366665 74 74 76
1.0911183993052764 1.8625707312719428 0.9824990129770498 75 75 77
1.0769213720320168 1.8284253683891898 0.9843087254445197 75 75 75
1.0634525647180753 1.8062804211415389 0.9861531958525516 67 67 67
1.0507705738605404 1.7984957778701922 0.9880525776867857 45 45 45
0.9761223659599472 1.772357760840963 0.9994776732084161 23 21 23
0.9636015124120976 1.7642106213205224 1.0013471776375908 19 17 18
0.9511894835423291 1.7581945631687539 1.0032260807456135 19 18 21
0.9383555546229831 1.739433751856053 1.0050127417376482 19 19 21
0.9256052286577124 1.7212318640338853 1.0067932004737512 18 18 20
0.9125406434721401 1.6911510310812548 1.0084752512774713 18 18 20
0.8646692001307404 1.7039929630795183 1.016170624372838 12 12 14
0.8519237385471438 1.67505306475538 1.0178166445009529 12 12 14
0.7917265989627631 1.6620187051455877 1.0271300994173855 9 9 11
0.7795509450949851 1.6470324502698497 1.0288601282714538 9 9 11
0.7675353552117735 1.6406372376379457 1.0306719074444093 9 9 11
0.660281626816211 1.709806023537555 1.0484159161642526 19 19 21
0.6483478479209192 1.6932923302950922 1.0500888567212623 16 16 18
0.6237752001477812 1.7923567827060425 1.055190081807382 22 22 24
0.5874263588933735 1.795551951090986 1.0609515779136192 35 36 40
0.5751437512268576 1.809587288887605 1.0630597199031757 37 38 42
0.5629349088417706 1.8158202749694872 1.065059122260234 37 38 41
0.5504270513103182 1.8395877009747967 1.0673238717418594 44 44 46
0.5376571588426928 1.8741056211581644 1.0697636968041722 51 51 52
0.5247139865765204 1.9121454543071095 1.0722746408644297 84 84 84
1.689689436255331 3.5702683377489794 0.9251063367947855 79 79 81
1.6090255395635045 3.3805373025214838 0.9351153207162899 35 35 37
1.1236550559036473 1.9637190612188273 0.9914648893182663 73 73 75
1.0922858449036974 1.8495878689232403 0.9947888718667375 78 78 80
1.0784899999781512 1.8228274081102458 0.9965808396279366 75 75 75
1.065492257263783 1.8098357615969172 0.998441299554419 60 60 60
1.0525448268562068 1.7969182520139244 1.000294893882331 40 40 40
1.03984948989655 1.7882765297770549 1.002169089745028 31 31 32
1.0285921211628055 1.8098575719425936 1.0042429743894465 28 28 30
1.0158025522599012 1.7987534357766366 1.0060972959460854 27 27 29
1.0026378741243631 1.7780468787367092 1.0078753172932184 27 27 29
0.9523100583430086 1.7391320672944048 1.0152395459363284 24 24 26
0.9391667241156069 1.710916064645125 1.016908422282462 19 19 21
0.9270176214815818 1.7094390036320024 1.0187976724490926 17 17 19
0.8676948997369915 1.7522087781128388 1.0287267947221856 11 11 13
0.8546110136785726 1.7127728835792504 1.0302282644587761 11 11 13
0.8180148430497514 1.6919861198091273 1.0356890095399267 9 9 11
0.7814210703483824 1.654600673032534 1.040915543592122 8 8 10
0.7692776660579632 1.6394476255119852 1.0426112373466223 8 8 10
0.6740310973024398 1.7042512364568105 1.0584986387142399 7 7 9
0.6620340836470121 1.7092965202267336 1.0604558613130353 16 16 18
0.6256155183809184 1.7803479844443897 1.0671824551296556 17 17 19
0.5892712827975839 1.787664034727807 1.0729994900095157 25 26 29
0.5770733963664116 1.7961085487003003 1.075036180107976 36 37 40
0.5646478573031964 1.8188494932580968 1.0773100623489305 37 38 40
0.5526439004483626 1.8109148762481169 1.0790855221256197 39 39 40
0.5399245741490125 1.8454585466188584 1.081571863984118 46 46 47
0.5266813752494628 1.9018863390949998 1.0844488607549612 67 67 67
0.5133735730264286 1.9530018319491136 1.0872611772865841 148 148 148
1.1253573481669545 1.9601995276280642 1.0039744437628357 75 75 77
1.0933575226120409 1.8349617082615277 1.0070295998790473 78 78 80
1.0803257635717047 1.8222892529689785 1.0088766088889616 75 75 75
1.0673261779390293 1.80935594481028 1.0107144634652419 53 53 53
1.05443281194325 1.7976187144552047 1.0125544495676766 34 34 34
1.0415505718409275 1.7852314982876196 1.0143824663494323 30 30 30
1.0167313732935002 1.778435601804096 1.0181728145204925 33 33 35
1.003531952090734 1.7563513544569807 1.0198981320416114 38 38 40
0.9404588006111538 1.6963269346359189 1.0288581737842684 29 29 31
0.9283866224330461 1.6965128364998852 1.030756727386217 22 22 24
0.8574856050449262 1.7574597259702607 1.0428484444882409 10 10 12
0.843649761201467 1.6826639556454273 1.0438447056865279 9 9 11
0.831736225937302 1.687737432018342 1.0457952149732517 11 11 13
0.8191375817818891 1.6581059382145635 1.0473075006596617 8 8 10
0.7832246365029961 1.6573208423893742 1.0529343723165874 7 7 9
0.7711529938687358 1.6484893960058538 1.0546910266282346 7 7 9
0.7592619061257458 1.6526274852250953 1.0566233003326284 7 7 9
0.7472185122516816 1.6421076026217294 1.05834896497495 13 13 15
0.7352112993257743 1.631347615003769 1.0600651722008567 11 11 13
0.7233088003379645 1.6305658127243101 1.06192186296748 9 9 11
0.6757876908091178 1.7195739986092873 1.0707836754980369 7 7 9
0.5793181178988405 1.7570602405757907 1.0865213229535717 27 28 30
0.5669638001049473 1.779353129267822 1.0888118544537058 33 34 35
0.5544585098084924 1.8070263537090825 1.0912107085219547 46 46 46
0.5417300634307193 1.8427694510774646 1.0937715179223517 46 46 46
0.5286504619316088 1.891321501862539 1.0965889128463537 63 63 63
0.5154060253571575 1.9406130468404532 1.0994438209183552 131 131 131
1.350866463443105 2.71258159887223 0.9945046805348232 66 68 71
1.0961898767756826 1.8524275973479805 1.0195077676538373 79 79 81
1.0821978736455222 1.8224235891550369 1.0211810760758335 71 71 73
1.0691605116004506 1.8088758141157695 1.0229904597832644 45 45 47
1.0563448005109826 1.7987772032350176 1.0248249827913767 32 32 34
1.044440139154529 1.806656526635376 1.0268288447180534 32 32 33
1.0315034131578242 1.7930139408407464 1.0286207989844014 41 41 43
1.0184311182982995 1.7753107179535899 1.0303634942323556 44 44 46
1.0053993706093016 1.7571229106739232 1.03209141471502 39 39 41
0.991653203537035 1.7204840717216912 1.0336109422864115 34 34 36
0.9791198283582877 1.7107355182155244 1.0354072655922029 30 30 32
0.966420867700966 1.695808240977236 1.0371396197862444 32 32 34
0.9539603387278218 1.6858591744521807 1.038921036252009 39 39 41
0.9416012443074347 1.6777257303773954 1.0407180762426085 36 36 38
0.9294751755987115 1.6755249517132174 1.0425816021966547 28 28 30
0.9174295066861567 1.6754407663403108 1.0444692774965296 19 19 21
0.8466838535709662 1.7373991738819912 1.056640428860652 9 9 11
0.8339073865892361 1.7060462595782064 1.058099676984261 9 9 11
0.8215586194900312 1.691116735835137 1.059777070869517 8 8 10
0.8086382517080238 1.6415902787143886 1.060943270044114 7 7 9
0.7965615735734721 1.6334654758220246 1.0626961684051526 7 7 9
0.785096872502378 1.664541834474772 1.0650338901130376 8 8 10
0.772946806412827 1.6510003107809006 1.0667042266512032 8 8 10
0.7610007619805275 1.6508855682799797 1.0685757470382413 7 7 9
0.7489865751430784 1.6434911801555045 1.0703315298106053 13 13 15
0.7370006878135336 1.6361137070109013 1.0720831680955445 11 11 13
0.7250430063028158 1.6287536421097781 1.0738306851528663 9 9 11
0.7131830647696793 1.634718610002152 1.075794287299297 8 8 10
0.7015313750055825 1.701989740409637 1.078789923649829 8 8 10
0.6894956782569469 1.6840639492638674 1.0803661826101214 8 8 10
0.6775314823433013 1.6882300225455864 1.0823148939786218 8 8 10
0.6294772710684011 1.7233376519091617 1.0904610048254688 13 13 15
0.5435807241343045 1.837400109533295 1.1059131727671563 60 60 61
0.5305273386779185 1.8854689739140726 1.1087951560400897 62 62 64
0.5173023152766747 1.93469562335473 1.111724164579839 114 114 115
1.5931857995297425 3.3028861188325522 0.9818806912057219 40 40 42
1.3883236939339518 2.804162571572618 1.0044904694815697 46 46 51
1.0840180794047678 1.8215776186321246 1.0334799812466147 65 64 69
1.0711650527199656 1.8116558267596263 1.0353046646126356 43 42 47
1.0589844273516618 1.8143311652536371 1.0372634613637723 32 31 36
1.0460971648800115 1.8026212948877978 1.0390595208894513 33 32 36
1.0332564002304128 1.7909965824830405 1.0408499157190354 37 37 39
1.0201797131243868 1.7732755473922768 1.042561390576755 38 38 40
1.004951981621767 1.7052668768873507 1.0436539704902896 33 33 35
0.9938229232242412 1.728660638208944 1.0458418524137925 23 23 25
0.9812844725833794 1.7192301678253372 1.0476265999627894 16 16 18
0.9684439437853511 1.7011939217776901 1.0492950922173327 14 14 16
0.9559773229560344 1.6914439982891987 1.051062516579799 22 22 24
0.9435280428205688 1.6811756568525396 1.0528173710344888 38 38 40
0.9314137715011251 1.679568028023838 1.0546843667991708 32 32 34
0.9193092894595514 1.6779621373818099 1.0565498622314091 23 23 25
0.9071741303658565 1.6750580854892103 1.0583954883712516 17 17 19
0.7986995643406913 1.655984741877201 1.0750241699895275 7 7 9
0.7868473279493248 1.6634128598765976 1.0770218659005322 8 8 10
0.7747098108575765 1.6510890228860502 1.0786888171684732 7 7 9
0.7627474955508166 1.6498241118405217 1.0805385250061894 8 8 10
0.7149618292977664 1.6407595387628815 1.0878512722922011 9 9 11
0.703284060409136 1.7003448170033655 1.0908130042604691 8 8 10
0.6912462412133442 1.6832562783997065 1.0923737751915452 8 8 10
0.6792779580866685 1.6816444478862609 1.0942178238296878 8 8 10
0.66730534530126 1.6951988609301676 1.0963508192599052 8 8 10
0.6553335269398094 1.6930440749350701 1.098185101557981 9 9 11
0.643321973379795 1.7033182571178165 1.100261848411443 11 11 13
0.5452058379418533 1.845304903440317 1.118329316344054 65 64 69
0.5323365835621674 1.8831719100046846 1.12106487528567 63 62 67
0.5191963916936444 1.9287846415784564 1.1239900982121676 99 98 100
0.505764674687206 1.9813909764456352 1.1270939141603247 168 168 168
1.0858545727501352 1.8210289356203484 1.0457841824621268 62 62 64
1.072961270890098 1.8104155735167986 1.0475821186937442 38 38 40
1.0612453666319206 1.8222540229352306 1.0496594462526918 29 29 31
1.0481112929309597 1.805887132379031 1.0513762501275643 28 28 30
1.0349485391531803 1.7877042987228835 1.0530600449689254 31 31 33
1.019669421646943 1.7219918524134943 1.0540935341023523 34 34 36
1.0071977998578152 1.7148324254039964 1.0558968182953328 30 30 32
0.9958925297684916 1.734380848042147 1.0580691011971943 19 19 21
0.9832085586253942 1.7217446218245889 1.0597925204466674 17 17 19
0.9705771663055104 1.709292128801725 1.0615115077938477 14 14 16
0.9581275645038424 1.7004660045676987 1.063276932872652 12 12 14
0.9455806420976669 1.6880382571390444 1.0649832163409911 22 22 24
0.9334615325214266 1.686693417197996 1.066851412503083 36 36 38
0.921295666342821 1.683660586143807 1.0686920695713937 26 26 28
0.908733906623685 1.6675467659239582 1.0703245636672885 19 18 21
0.849877860867484 1.720210679176094 1.0806196640987051 8 8 10
0.788682933205747 1.6678411892880973 1.0891119236071654 8 8 10
0.7764952009953814 1.6527626031115832 1.0907072789298986 8 8 10
0.7643984301591427 1.6408361383705183 1.092353489348127 9 9 11
0.7526255737729945 1.6556908580631413 1.0945020071395501 13 13 15
0.6690676837334848 1.678314190928274 1.1080412858671813 8 8 10
0.6570897895760472 1.6893201579542576 1.1101424110096174 8 8 10
0.5721496206784533 1.7841092250017614 1.1253880281834503 52 53 54
0.547043598188272 1.840673136185439 1.130483660364268 55 54 59
0.5210882484157322 1.9228805821425634 1.136241656442553 84 83 84
0.5076349207690709 1.9773816504895396 1.1394716980038644 167 167 165
1.0749938361380953 1.8136704578754774 1.0599232351656203 35 35 37
1.0632956341770388 1.8259530262529002 1.062024859212503 25 25 27
1.0498690094663772 1.8039097463600051 1.0636314429793634 21 21 23
1.036951319159201 1.7909417089155741 1.0653607884201255 19 19 21
1.0215111307444302 1.7222502437359637 1.0662422261224023 19 19 21
1.0106269727763788 1.7508776812374922 1.0685809749229487 20 20 22
0.9978576031027281 1.7375831897048974 1.0702798686619508 18 18 20
0.9854025413710957 1.730754716403774 1.0720737761692822 20 20 22
0.9726306207613958 1.7152635875852318 1.0737241064571874 23 23 25
0.9601272943721109 1.7053998938349062 1.0754579016768493 16 16 18
0.9476067337316065 1.6940647708421506 1.0771615922767024 14 14 16
0.9353186291144072 1.6882259045600991 1.0789514705184435 29 29 31
0.9229819420728053 1.6802204122614903 1.080700646694815 27 27 29
0.9106950597662891 1.6728313023854624 1.0824557797319148 21 20 23
0.7904949852626801 1.6705787616542072 1.1011869070642968 8 8 10
0.7778997021792408 1.6270098059109865 1.1021837957613148 8 8 10
0.7661594772680975 1.6410662565906236 1.104331524941906 10 10 12
0.7543488887005521 1.652343141370801 1.1064282932394671 13 13 15
0.6827942139830868 1.695338364054954 1.118567098861307 8 8 10
0.6469727838270192 1.6608770923423597 1.123396093391591 8 9 11
0.5488777261020249 1.8361709886126605 1.1426307268346956 43 42 47
0.5229626276356729 1.9177631840260145 1.1484986294481996 75 75 75
1.1525580477842463 2.04351951080686 1.065915084112391 81 80 80
1.0770198691606168 1.8167589384631477 1.072276638672326 35 35 37
1.0648951677781313 1.8207991608844625 1.074265470886853 26 26 28
1.0520429025406284 1.8103330287344805 1.0760206867807225 23 23 25
1.0390905952307667 1.7969784790678875 1.0777223909919371 22 22 24
1.0254353716389644 1.7674260065253398 1.0791461508194882 12 12 14
1.0127642012550335 1.7576353758773042 1.0808892713151934 12 12 14
1.0000732983526406 1.7465468422148016 1.0826044105405714 13 13 15
0.9877304052876826 1.7428697304570104 1.0844426062896126 15 15 17
0.9750595893063709 1.7305595602328645 1.0861253753091045 24 24 26
0.9623657243203687 1.716490195150323 1.0877696412484161 19 19 21
0.9496909130622999 1.7015785894253046 1.0893907777033207 13 13 15
0.9371136527195546 1.687948479084744 1.0910273586687946 22 22 24
0.9246562804099081 1.6764536080817334 1.09269632959063 25 25 27
0.9116923645155773 1.6477439248754844 1.094032375194857 19 18 20
0.9037989680949428 1.783555801424126 1.0985143661463321 17 15 18
0.8778547254024511 1.7271807719377044 1.1012140108599175 12 10 13
0.8533040297320912 1.7133571723579293 1.1047144991727442 8 8 10
0.7913371809370873 1.6117273546037254 1.1119527104779314 8 8 10
0.7793485071049786 1.6051969186517734 1.1136673437428566 8 8 10
0.7677870864895299 1.630625468344021 1.1160801252008217 10 10 12
0.756145169389947 1.655732431022455 1.1184977726596381 15 15 17
0.6002309095681838 1.7450729754121592 1.1449673232211874 51 51 53
0.5375469563159219 1.8883792623069087 1.1581791133712864 35 35 37
0.5248176206815962 1.9135590660563087 1.1607682032425486 71 71 71
0.5115537594419114 1.9606701752902802 1.1639655569151501 166 166 164
1.617803148355801 3.3070351722778266 1.0387053451834776 38 38 40
1.1714375196268112 2.1106982823116027 1.0776824553012438 81 79 80
1.1550770300463187 2.0531029699633354 1.0787595231315354 82 81 82
1.078814620897809 1.81544706770919 1.0845682643761843 36 36 37
1.0669572509630885 1.8246738191849867 1.0866523554625616 27 28 30
1.0539838214206725 1.8120038849464295 1.0883504177643772 26 27 29
1.0409409230676152 1.7969463786416435 1.0899982484111217 28 29 32
1.0277332043665919 1.777206887346019 1.0915520323463248 23 23 26
1.0144922721386052 1.7552080568114279 1.093053213161341 15 15 17
1.002207628747147 1.7535187458683983 1.0949247352820561 11 11 13
0.9771913262921414 1.738249195201796 1.098433356606808 28 28 30
0.9644630664425966 1.7237621917378236 1.1000467366046212 22 22 24
0.9517756313557106 1.7089913808867114 1.1016464954898857 14 14 16
0.9390090770907112 1.6905008529535632 1.103163458848511 20 20 22
0.9266402139216139 1.6819112424995715 1.1048716408623984 21 21 23
0.9136396044280423 1.652624008039981 1.106148972021509 17 16 19
0.8797386516582395 1.7301773076197287 1.113416216582678 13 11 14
0.7930160074436545 1.6068163725695483 1.123778280400618 8 8 10
0.7811650764631165 1.6095739891166831 1.1256959275336573 8 8 10
0.7695298167153191 1.629507786104493 1.1280192196395724 9 9 11
0.7578363051357337 1.6495419331693926 1.1303541573969556 15 15 17
0.6623979520198537 1.6490919348879922 1.1452179793771922 9 9 11
0.5648836791869267 1.8142327137504877 1.1646401461837086 19 19 22
0.5521011252136052 1.8548161841066972 1.167670349873906 23 23 26
0.5394631161189225 1.8800414150062361 1.170285255801526 33 32 36
0.526613960814742 1.9123554948368124 1.1731143604582592 70 70 70
0.5131254251663036 1.9708117146045363 1.1767116748369988 166 166 164
1.1571775154362434 2.0557818420470406 1.0915175516879934 84 83 83
1.0955906905279416 1.8622847897555246 1.0958383941926846 54 52 53
1.0808525548801853 1.818697373165489 1.0969463675041986 34 34 34
1.0690221416584116 1.82855331091171 1.0990562472419847 28 28 30
1.0547793267499572 1.7907663888080756 1.1002449843725501 30 29 33
1.0415500927250483 1.7712826725684254 1.1017740901829849 28 26 30
1.029502374495443 1.7755837919813091 1.103766614030834 38 36 39
1.0160435574144224 1.748882639890922 1.105135024360803 50 48 50
1.0041640800745504 1.7563186059954625 1.1071866783203175 35 35 37
0.9917499134399885 1.7514821619519951 1.1089875529677984 36 36 38
0.9789004479702521 1.7353636854968797 1.1105491310259512 37 37 39
0.9661623732813067 1.720658618895772 1.1121318372477014 32 32 34
