ply
format ascii 1.0
element vertex 721
property float x
property float y
property float z
property uchar diffuse_red
property uchar diffuse_green
property uchar diffuse_blue
end_header
0.4657736811921771 3.0879559734723263 0.10334611771384582 36 35 41
0.46843283812923986 3.10283671069194 0.10144555994923614 44 43 48
0.47027911408862944 3.1173639723088504 0.09970228996226599 50 49 54
0.46003540095033546 3.126265870736673 0.10033553904713836 65 65 67
0.4854775849368653 3.1518794460245507 0.09394319986102391 59 59 61
0.5263133213776413 3.1848555307652058 0.0845047621323386 54 54 56
0.5440657124037509 3.207088771324601 0.07960403782061821 52 52 54
0.5516560431593346 3.22458033586875 0.07670221052052321 55 55 57
0.5917726498819622 3.2576235905039552 0.06736455640553604 48 48 51
0.5797656715516831 3.265885301113848 0.06832620629586267 52 51 56
0.6084421722683068 3.293670075114272 0.061230810657455045 56 56 59
0.6350142883925132 3.3205658728566068 0.05453996539338568 45 45 49
0.6659713735061512 3.349705085045613 0.04696665660041126 66 65 68
0.6974539382631191 3.3792358903684945 0.03927519990579774 65 63 65
0.7268160274082399 3.4078691051822014 0.03199157042395505 62 60 62
0.756305376739127 3.436694856519059 0.024669461202842802 68 67 66
0.7736831722856324 3.4741734082955955 0.0182851481452449 141 141 139
0.9863815439606993 2.339975779680459 0.11378196710710393 152 151 151
0.895541920271764 2.3638613051697934 0.12483040465021274 55 53 56
0.8306221110141403 2.3553044841858775 0.1353022171384548 46 45 47
0.7661192768476969 2.3466697134776804 0.14572012935619694 48 48 50
0.6185170009807754 2.6399572073416886 0.13809364801294877 52 52 54
0.6184058365346752 2.653319294597587 0.13676701663432772 51 51 53
0.5951686392966206 2.6576005560321043 0.13977707667376166 50 50 52
0.5819863795775244 2.665782035316949 0.14090641931183406 52 52 54
0.5566196563447415 2.6690914564798565 0.1443294515277131 54 53 58
0.5393231100580766 2.6755388155752575 0.14624224127250163 54 54 57
0.5523957131758458 2.694104186290458 0.1424406749177447 56 56 58
0.5688100696176507 2.714077392819538 0.13800283558713589 56 56 58
0.623637071618519 2.7496609360224773 0.12630872670661236 56 56 58
0.6366771433349127 2.7684854659126956 0.12248592742123286 57 57 59
0.529298888852759 2.7515991028399394 0.14008118278130022 55 55 58
0.5283280207240485 2.764590626617597 0.13891908229464583 56 55 60
0.5426034762678963 2.797345576315749 0.13351316204815597 59 58 64
0.5175780665342481 2.8003541255269484 0.13691590311771318 64 63 69
0.4987039158855717 2.805862478861803 0.139156649738934 65 65 71
0.5078098796278597 2.823102513253951 0.13607558163687394 67 67 73
0.5428549260989624 2.851368807908062 0.12804578978326972 67 67 73
0.5130415884118688 2.852209594162284 0.1323753017497939 67 66 72
0.47994755428908065 2.851550777668137 0.13734127084549674 70 69 75
0.45831657028004635 2.8556970944291162 0.14012708641434077 73 72 78
0.4261294730642623 2.8552278970613667 0.144939719104426 76 75 81
0.4113435591209602 2.8755152487662072 0.14508966983472912 84 81 87
0.40122999852762165 2.884450134772205 0.14568894655056755 86 84 89
0.46748779623550407 2.940325495022317 0.13026281594470257 67 65 68
0.4511682637970359 2.9466072163672306 0.13204760265528326 67 65 68
0.42512571385007925 2.948522557909157 0.13571082049730174 75 72 75
0.42707621781778005 2.9628381585895163 0.13398310574141692 82 81 81
0.44334246660248755 2.997096628533063 0.1281313116429473 87 87 88
0.47950845904409045 3.0269584215403764 0.1197751862855781 69 69 72
0.49775190751213383 3.0488418591110955 0.11487453330427706 58 57 61
0.4976730752348262 3.062461726999735 0.11351720416183268 46 45 51
0.47927988566663793 3.067716040166921 0.11571227677226217 36 34 42
0.46231258379960516 3.0735690150460186 0.1176360646402481 35 34 40
0.45931167721859223 3.0858149416151712 0.11684946585317788 38 37 43
0.4619150410719175 3.100660214357534 0.11497185173679836 47 46 51
0.46533554717192604 3.115910072305664 0.11293258848283662 55 54 59
0.4543981850113157 3.1244796665704784 0.11369055070255725 64 64 66
0.4903622091971461 3.1550240188848395 0.10529572039038897 57 57 60
0.5051835136902526 3.175762576018411 0.1010168116962206 50 50 52
0.5534836585425785 3.2124087957544107 0.09018222390520023 47 47 49
0.5654200651370224 3.2319863245505176 0.0864471404583755 49 49 51
0.5767373795383883 3.251329700004899 0.08282725282834967 46 46 49
0.5812162546530846 3.267457349265607 0.08054306122782048 63 62 66
0.5918800303814251 3.286590829629769 0.07704103108203406 64 65 67
0.6194558772199666 3.3139447675333127 0.07020879956748244 48 49 53
0.6438939998666169 3.339900409969171 0.06398167448045397 56 55 59
0.6750402975679728 3.369230987048636 0.056422136844517204 65 64 67
0.7006634519741541 3.395999837880072 0.04993782186661558 54 52 55
0.7275950790028989 3.423526028335141 0.04318365656824026 55 53 55
0.7516085463548425 3.449735745191526 0.036993865677333385 76 75 74
0.7581374468756471 3.4818823669593 0.032796010264722036 159 159 157
0.9847006457508656 2.326522744144369 0.12814698732363322 139 137 138
0.9200381957108272 2.34577246180138 0.13569628242054288 73 71 74
0.8514290187771969 2.3362202894989723 0.14670523718714296 65 63 66
0.82594928922134 2.3410321404068806 0.14995742349076813 57 55 58
0.7679773406562782 2.334710004029788 0.15908456410812272 50 50 52
0.5649424040083515 2.5270685240485053 0.16959187009007742 55 55 57
0.572339242442481 2.5430817084276067 0.16690604581500906 55 55 57
0.5768854767919142 2.558051401336717 0.16474231367321238 54 54 56
0.5800995633889401 2.572542292626999 0.16282168149716547 53 53 55
0.5724592588277156 2.582889685507509 0.16290606734012072 53 53 55
0.5741032930593848 2.596805640942711 0.1612730127484064 53 53 55
0.5833842926087229 2.613702876941024 0.1582226603356249 53 53 55
0.5930373614367704 2.6307931903248454 0.1550984728553453 51 51 53
0.6040331266823653 2.6484587229001066 0.15171999408571937 51 51 53
0.6012039899714985 2.660740810886024 0.15090584883107827 51 51 53
0.6038059139499099 2.6751726226379033 0.14908082762970143 50 50 52
0.5449978375312852 2.6652436817568845 0.15869131163344788 52 51 56
0.5377912960375045 2.6756952134084058 0.15870171979537095 56 55 58
0.5404776260249667 2.690098713816335 0.15686716278580767 58 58 60
0.5536071934443527 2.708731183676235 0.15307928389738928 58 57 62
0.6096439095312365 2.7582866989972996 0.13991064457926816 61 59 65
0.5461564839529229 2.745882647271273 0.1504544074101665 64 61 68
0.5212538565873294 2.802678798844297 0.14842151797622083 72 71 77
0.5108963881570793 2.81176766661866 0.1490299548338287 75 73 78
0.5032830116083921 2.821987902718487 0.14912311566648795 78 76 82
0.5291862517186307 2.8463820045386603 0.14288710680003364 80 78 83
0.4692934426909293 2.8477977070347076 0.15152161870335024 81 79 83
0.4530347009393816 2.8542285991326097 0.15326067767353677 79 77 82
0.41704662656139424 2.8521103405101544 0.15874594830470815 83 81 86
0.42297625700281793 2.868011523382892 0.15628631977017937 90 88 91
0.39679699300500626 2.8699913188622603 0.15992432838034581 95 93 96
0.3883789931040965 2.879640125064602 0.1601925571656077 92 90 93
0.46625322361671584 2.9405951065903713 0.14268364697412628 74 69 73
0.451016465499408 2.9473540150641244 0.1442401391273572 75 70 74
0.4230446097580406 2.948411479905218 0.14823308758088768 79 74 78
0.42545531619804633 2.9629311275726 0.1464272985206801 84 83 86
0.4165182859571498 2.972389618455529 0.14679062037228072 90 90 92
0.4529275866544571 3.002232704599677 0.13847003374227257 80 80 82
0.45115074502682095 3.0149734948382596 0.13745580628814885 63 62 65
0.4814944819903143 3.042298423374401 0.1302759279619925 53 51 54
0.462545539301085 3.0472897806632746 0.13255319526937928 39 37 42
0.452279375277009 3.0561962826283304 0.13316649710925346 37 34 41
0.45367951681361374 3.070439197159362 0.13153647129237156 36 35 40
0.4542098562590726 3.0843003758029273 0.1300720871182986 43 42 47
0.4556799633257922 3.098613447985788 0.12842479062342865 49 48 53
0.4603980396351842 3.114458070231689 0.12614835036590083 61 60 65
0.4624613336792549 3.1290947011002626 0.12438176490196193 62 61 66
0.4952547306192401 3.158173735329183 0.11666745519879287 57 56 61
0.5032607083522993 3.175714849533733 0.11373951908875407 47 47 49
0.5257986676059329 3.20017700477118 0.10798981931815606 48 48 50
0.5441563993763786 3.222755376619397 0.10304110526212404 43 43 45
0.5534507955398712 3.2410964364672146 0.09984434960993914 46 46 48
0.5747833897860161 3.2652541714289303 0.09430172711315729 60 60 62
0.5955591491922281 3.2892419830818422 0.08885769718689977 63 64 66
0.6039028099526327 3.3073226950016252 0.08582629873864053 58 58 60
0.6331279123231551 3.335574410825516 0.07871761893518257 53 51 56
0.6735693349709901 3.369415008186356 0.06940629115003007 66 64 69
0.6850995606043506 3.3892993013106496 0.06572753255662507 51 49 53
0.7078818961622715 3.41476506606058 0.05984162298525679 51 49 51
0.7100049426274078 3.430157673064179 0.05799065405632603 66 64 64
0.7781320083818171 3.4782198026540727 0.04319980500171333 84 84 83
1.0176068737422277 2.324421321998359 0.13635163955442853 131 130 130
0.880306066424675 2.3331868183167686 0.1553883189079847 71 69 72
0.8052269705701983 2.3213801615634213 0.16745075492702538 64 62 65
0.7908277776287254 2.3298600235085987 0.1686944240234693 59 57 60
0.7562610479835632 2.3314373901773116 0.17354975046610122 55 54 56
0.7543872128718427 2.3440897580841864 0.17256173409829345 53 53 55
0.5902815578238473 2.497653417261015 0.18106843924323923 52 52 54
0.5805390504263623 2.507239594710584 0.18152671149661864 53 53 55
0.5728965271391754 2.517590944608229 0.18160428941445805 54 54 56
0.5896809358332947 2.5371320403629065 0.177224842710134 56 56 58
0.5543079080254754 2.536999032481049 0.18236738056968527 56 56 58
0.5624083484548312 2.5665286752271923 0.17825264984837508 53 53 55
0.5484693807899151 2.5744250701556197 0.17948767651081637 52 52 54
0.5504399869381357 2.588425274024408 0.17780799645778333 53 53 55
0.5730005637287554 2.6237453423158215 0.17101993791471715 51 51 53
0.5765255036883405 2.6384516763062975 0.16904456454641212 51 51 53
0.5835669808614204 2.6545684665683837 0.16641884069533686 51 51 53
0.5905919553126121 2.6707186939525007 0.1637921806669982 50 50 52
0.6017500166036222 2.6885504639811257 0.16039877614902404 55 54 59
0.5418742033394366 2.678092033690564 0.17012241149389706 59 58 63
0.5341402281680916 2.6883282550873875 0.17022471323966562 61 60 66
0.5281315889783011 2.725935642457748 0.1673516203167681 68 66 71
0.4945790726254815 2.7389168884877164 0.17092445235979498 74 72 77
0.4237193898561268 2.855781920304218 0.1695638486360738 91 89 91
0.4142252896346642 2.8650217060863543 0.17002058889913435 92 90 93
0.3955937193997122 2.8702662073271825 0.17220010611769038 94 92 95
0.42317901007407777 2.9090283050711916 0.16434072905528885 84 82 85
0.42635234532223787 2.923831006883798 0.16240674555179122 75 73 76
0.4441694802866809 2.945138818236018 0.15770164443905396 74 71 74
0.4211429279457882 2.9483798953075464 0.16071793062828746 74 72 75
0.4247572964742736 2.9634358167622676 0.15869478291126554 73 73 75
0.42454113199324006 2.9768029012717894 0.1573952338746793 80 80 82
0.44906933563879137 3.0013205130427716 0.15139740487158754 69 69 71
0.43864077276178004 3.0101455302714966 0.152030944101548 46 46 48
0.45327996158855244 3.030323726127622 0.1478991338750668 44 42 45
0.4501819094229341 3.0424868233645315 0.1471373503538046 38 36 40
0.4393699795838961 3.051121004605381 0.14784548061519454 38 35 42
0.44728853815090197 3.0683382883886607 0.1449830041884777 38 37 41
0.4450498221419755 3.080911449332227 0.14405578391813403 47 47 50
0.44670288377904466 3.0952943612279835 0.1423840453320807 51 50 53
0.4402195703194768 3.105910536235312 0.1422671637580813 67 67 70
0.46938863730175207 3.133181001961154 0.13532229457701628 59 58 64
0.4910076191246845 3.157035045082718 0.129812387902972 55 54 59
0.49566084155045087 3.1729912888362692 0.12754895970907687 45 45 47
0.5220989437765883 3.1992897334905646 0.12109687561891896 47 47 49
0.536386704019919 3.219931730368954 0.1169698462207729 39 39 41
0.5598702374519036 3.2450315441764133 0.11106553351719464 50 50 52
0.5715957540702602 3.2646044224016464 0.10741649118731028 60 60 62
0.5816956475783694 3.28345577583029 0.10407501230722453 59 60 62
0.6075632549070216 3.30997684477595 0.09768348770403038 59 59 61
0.634243816606876 3.337008022394789 0.09112329100072167 50 48 52
0.6497672516329771 3.3587261521103717 0.08670993637049236 62 60 64
0.6695982432035045 3.382625774967062 0.08145476054269998 49 49 51
0.6712098182193921 3.397675953264753 0.07972260136015062 46 45 47
0.6833933808214687 3.4179570989076646 0.07593662103117274 53 52 55
0.7735490217776637 3.491385367552739 0.05555264069872437 102 103 99
0.7695960167704913 3.5039384860134946 0.054875997841762406 149 149 145
0.9070214444641754 2.315844455409777 0.16588768355666136 74 72 73
0.84568250023898 2.3223053696471245 0.17404841537289945 62 60 63
0.8026123033394044 2.3212136387711175 0.18033632870398036 60 58 61
0.7634517577353818 2.3213043342982593 0.18594611677799372 59 57 60
0.7985777885992884 2.346558408064473 0.17840379274700624 57 57 59
0.7561291567922864 2.3454022795237597 0.18460890475814434 56 56 58
0.7353987153991773 2.351578803038094 0.1869712880918506 54 54 56
0.7172128433910149 2.3585739700723414 0.18888745602107265 50 50 52
0.6656414102814175 2.513030831791623 0.1809818394179627 52 52 54
0.5603005039519167 2.4872561007070213 0.19865022151253228 53 53 55
0.5493651598137113 2.4963433552576193 0.19931877529541783 54 54 56
0.5401429127444 2.506046442607911 0.19968051023665503 56 56 58
0.5621492328647522 2.5274995536882674 0.19439724594665608 57 57 59
0.54867303693827 2.5356080720688157 0.19552734529312915 57 57 59
0.5089457597228219 2.5863371099494596 0.1962007009521501 54 54 56
0.5150737330506493 2.6019219808090575 0.1937771531988044 53 53 55
0.5517379405623799 2.629504492399578 0.1857834061681376 53 53 55
0.5665417077792648 2.6486333576944747 0.18176387708721603 56 56 58
0.5261419095209842 2.6992142769665897 0.182548403464333 72 71 75
0.44334038999979475 2.8383001799909606 0.18064680208870348 97 95 99
0.466716529585426 2.8616957900238225 0.17497451341073011 92 90 94
0.4242230861603864 2.8567955768262934 0.1815570559216314 93 91 94
0.37778295217593894 2.850038948323564 0.18888982358270284 92 90 93
0.37594002230856693 2.862516406328821 0.1879178582629482 92 90 93
0.3764634877824926 2.8760344356567122 0.18650325124175823 91 89 92
0.3995383937073148 2.899462524970047 0.18087096535522001 83 81 84
0.40973335720690407 2.917317030967767 0.1776389858975027 75 73 76
0.42530308724692156 2.9376030534190196 0.17339489351373655 70 68 71
0.4242987102081518 2.9505959840308953 0.17225153408623672 71 69 72
0.4111934387762347 2.9581975726214504 0.17337864460974145 70 70 72
0.4187983584433881 2.975047281264447 0.170617851214938 78 78 80
0.42956594392768577 2.993364088357221 0.1672579023015653 52 52 54
0.4306670231239924 3.007365840997823 0.16571248688263485 48 48 50
0.4383199948186689 3.02436086665561 0.1629303995125691 40 38 41
0.43560616266804 3.036672545301358 0.1620998187543285 38 36 41
0.43031292015666667 3.047806901359776 0.16175599386795156 37 34 41
0.44420642476626515 3.06775761420891 0.15778563295383735 42 41 44
0.4385765734539284 3.078761230926424 0.15750305981596413 50 50 52
0.441183109050418 3.0935764852411567 0.15566103095918227 59 59 61
0.44600340299159846 3.1094468950612084 0.15339681569025423 69 69 71
0.47515715621039456 3.1367274357758186 0.14651059473561318 57 56 61
0.49385369056769646 3.1592257593801434 0.14159865021184 54 53 58
0.49899662986765014 3.175421520415862 0.13925590260856702 43 43 45
0.5268757214881143 3.202414337734976 0.13258108122827866 43 43 45
0.540758689207407 3.2228775417931175 0.12856144945926623 39 39 41
0.5592789654663698 3.2456225768356313 0.12365034793022256 51 51 53
0.5712374681460509 3.2653100002259454 0.11998371140258543 54 54 56
0.58206477908684 3.284514517462765 0.11652722995700737 57 58 60
0.6055319901807916 3.3098824785322467 0.11064643426151244 61 61 63
0.6321651421007021 3.3368926297536845 0.10414866333144555 46 44 48
0.6534227108008629 3.361403877275171 0.09866979989927348 58 57 61
0.6582658939951287 3.3779871877590377 0.09633165922614295 49 49 52
0.660673842509228 3.393409010133914 0.09445801898800828 41 42 46
0.6679870987087541 3.4112731634083064 0.09163855241792525 43 43 48
0.7679674497476461 3.5185863721148176 0.06665966742818667 148 149 144
0.9716447415800594 2.297216661684807 0.17120069247440822 87 86 84
0.9197050803538814 2.293758950580279 0.1789147591586383 72 72 72
0.887210768747029 2.3099933871191074 0.1819265308695368 69 68 70
0.8358079571175829 2.3063246221851315 0.18958520215336283 61 60 62
0.7880831932884601 2.3037173128913158 0.19661708173954873 58 57 60
0.7687718857225903 2.3105255032954943 0.19868702802543625 57 56 59
0.7754409619835554 2.3260783679796853 0.1962065805906516 58 57 60
0.7204218235847374 2.3471413412955267 0.20193969595567043 56 56 58
0.6402788379341926 2.4911076046989264 0.1991192015370486 51 51 53
0.6481826357874368 2.5073200641905604 0.19639843371625454 52 52 54
0.605670152467416 2.5048455695657093 0.20267730743697035 53 53 55
0.5302055038364797 2.4899262775060884 0.2148611391781739 54 54 56
0.5236422665371153 2.5005931229695197 0.2147409155043985 57 57 59
0.5237984252799398 2.5137826095661966 0.21341807180577466 59 59 61
0.5659162447424573 2.5428837482618545 0.20456944613519834 58 58 60
0.5030261044367955 2.5321767883681163 0.2145528681391991 56 56 58
0.4848243735071496 2.5383467668270887 0.21652824169007232 54 54 56
0.479292879867125 2.549333403074518 0.21623002097309618 54 54 56
0.4914760139180304 2.606652919903457 0.2088480238619131 55 55 57
0.579236389420901 2.654394780238038 0.1916819691911909 61 61 64
0.45936655569438434 2.859339248156157 0.18848755029054826 84 83 86
0.42717213422099354 2.858864134858738 0.19310455705831558 82 82 85
0.3811979926376047 2.852312122796451 0.20027693272507407 83 81 84
0.34592267336500937 2.850253714224081 0.20548742388052246 86 84 87
0.37424688181908916 2.889167067186165 0.1976292401429533 80 78 81
0.3918474448474567 2.910241068302457 0.1930525505825192 72 70 73
0.4073762274913071 2.9304790854752327 0.1888524004949023 68 66 69
0.41054584592791843 2.945295797220521 0.1869413134456318 68 66 69
0.3941244189567027 2.951391395902453 0.18867129918291378 75 74 76
0.40456991251997054 2.9694855244013545 0.1854041653034572 56 56 58
0.41447051495758935 2.9873883792733156 0.18223324372756922 51 51 53
0.40825566919769396 2.9980552010325168 0.18206356652936773 48 48 50
0.4135906208377016 3.0139578105086033 0.17973801457950875 35 33 36
0.418997816734775 3.0299280390132575 0.17739553898355037 38 36 40
0.4320561971410276 3.0494376235155154 0.17361790853849313 37 35 41
0.4366720433299598 3.0651286818158585 0.17141529912005066 49 48 51
0.43211251784055615 3.0766139762412976 0.17092992784197747 54 53 55
0.4251700583854453 3.086990745269351 0.1708921423626163 69 67 70
0.4529396563852437 3.113521621227374 0.1643337815244874 67 66 69
0.48495234733088743 3.1421586736674727 0.15696539335174656 58 58 62
0.486573497051519 3.1566620439617905 0.15530501896509447 51 51 54
0.5037552505428148 3.1785237554488703 0.1507101016825951 41 41 44
0.5309864710621358 3.2052250083444935 0.14421136447158742 38 38 40
0.5400313950387085 3.223400319025153 0.14113504246070596 37 37 39
0.5674518593767458 3.2503975575161475 0.1345802526683897 49 49 51
0.5796907137268462 3.2702393568278314 0.13088619666866486 48 48 50
0.5843200295479176 3.2864813649231075 0.12862734346612248 51 52 52
0.6042719011535812 3.310160540199581 0.12345996603439131 54 56 55
0.6275524018219887 3.3355475197169735 0.11765165916101497 44 45 46
0.6491909936062528 3.360240648969361 0.11214485296567164 56 57 59
0.6628999811457016 3.381155171894119 0.10813631822628514 50 51 54
0.6462597243069984 3.3872353444053918 0.10989888916632311 38 39 44
0.6562338942781563 3.4063866942459047 0.10659440446658049 35 37 42
0.7038451199236023 3.444221962929346 0.0961046503401288 57 58 61
0.7931103501396535 3.517527800720854 0.07620399234686892 91 92 86
0.9790878574908706 2.2867830493149968 0.18392186941445832 86 85 84
0.9232273246917561 2.2821361714411568 0.1922223369934469 75 73 75
0.8556577701410242 2.2868463014450815 0.20124879854626102 63 63 65
0.8502319716425429 2.2984450459891552 0.20087244480086036 59 59 61
0.7701056984463557 2.2984011995428006 0.21212878269175311 56 56 58
0.7727388303609222 2.312573653833713 0.2103681412491754 55 55 57
0.7845336509991213 2.329873470046004 0.20701401809921732 55 55 57
0.585500649287129 2.49809011370342 0.21845532570877296 52 52 54
0.5195872413396125 2.486695170592776 0.22882975630133956 52 52 54
0.4977448433271071 2.491610208827346 0.23141469948542803 55 55 57
0.5189550917044787 2.5126942954019826 0.22636699387029435 58 58 60
0.49514745026459606 2.5168098850577953 0.22930637107086627 57 57 59
0.5140529366803538 2.5371166577115924 0.2246586053673713 55 55 57
0.464342895377175 2.531250615333906 0.23221501480766973 54 54 56
0.4848229217236113 2.5916297245808053 0.22341346959409136 56 56 59
0.4758839610826977 2.6012958113440154 0.22372013449621458 63 63 67
0.4614331353839033 2.6087718042928527 0.22501575803644008 69 69 73
0.4954188340684742 2.6353710174120084 0.21763276116847136 74 72 77
0.5249540344279013 2.6603413292774585 0.21103460148941536 76 74 78
0.4788051979451181 2.8550520430201116 0.19840646422432684 79 79 81
0.41003717009222673 2.8389527976256845 0.20964344227515538 79 79 81
0.39891006996820144 2.847470445606761 0.2103700918495094 78 78 80
0.382555710554506 2.85369496576477 0.21205584490064272 81 79 82
0.34156582227676424 2.84915081317952 0.21825796462162883 87 85 88
0.35510428055753085 2.868296784936308 0.21447780425580623 94 92 95
0.38047333401191763 2.892701425551585 0.20852020605456756 79 77 80
0.3882298088838345 2.9094517672253906 0.2057871078913319 70 68 71
0.3931782960480972 2.925002339763505 0.20356607645266966 66 64 67
0.39167840131571796 2.9377182394556893 0.2025287760680878 69 67 70
0.3766757106533346 2.9444119310800083 0.203978671792137 58 57 60
0.38459086343632487 2.9613414120801913 0.20120571008542815 57 57 59
0.3985625496346682 2.981043393054033 0.1973101457276552 48 48 50
0.3975573847325804 2.9940381108658767 0.19617600803704838 44 43 46
0.40228390672554715 3.009646890320054 0.19398043451401978 37 35 38
0.41226471618321614 3.0276850296605256 0.19080859226896302 37 35 38
0.4235326265255538 3.0463654334603207 0.18739297266825358 42 40 45
0.42870324968477613 3.06229836282087 0.18510322273350877 52 50 54
0.409297030671814 3.0669112424575573 0.18737570988765556 64 62 65
0.42771633512862794 3.0890115154772184 0.1826202053551346 75 73 76
0.4628419125565685 3.1189799962589566 0.17474647932662976 63 62 64
0.49495484441437554 3.147689501714024 0.1674193703275308 55 55 57
0.4888883537184361 3.1586039094237344 0.16720014850515724 45 45 47
0.5142088638222557 3.1843135537188507 0.16112129511388965 42 42 44
0.5440803728300262 3.2122914558346656 0.1541807453903456 36 36 38
0.551894738703767 3.22991071894757 0.15135424237186026 36 36 38
0.5649547480469095 3.250079870852005 0.14754085588151855 43 43 45
0.5819016828586953 3.27217820347297 0.14299230485200665 40 40 42
0.5970802016331576 3.293506088530202 0.13876770147094974 42 44 45
0.6136167106576582 3.3155644473991934 0.13428070902801464 49 51 52
0.6153564496601697 3.3305213810069367 0.13256853745613273 43 44 46
0.6319660390853223 3.352745557028074 0.12805500925182672 51 51 53
0.6536860944963584 3.3775498926761536 0.12257060962795147 46 47 51
0.6639035044051507 3.3968045516979437 0.11924615354917005 38 39 44
0.6831462319528586 3.4205651718674592 0.11421207150334348 36 39 44
0.6941751215678932 3.4403498156252774 0.11072164801806736 48 49 52
0.9944546050691871 2.278891014148701 0.19531010791771092 86 85 84
0.781172266292642 2.3028213522297674 0.2225984015466158 54 54 56
0.8624576842573509 2.343532884134851 0.2073316242430851 52 52 54
0.7663934531286412 2.3244402492216465 0.2225398310018295 52 52 54
0.6513711436064894 2.351088589320643 0.23591412439916642 54 54 56
0.602923995054778 2.3604013964224695 0.2417340239959752 58 58 60
0.5584028783757644 2.396926606273179 0.24435092317534235 53 54 56
0.5998392013030918 2.4249514932909255 0.23585830454396128 51 51 53
0.5973303792288869 2.4372091791765707 0.2350096542693978 49 49 51
0.6395744801731387 2.492325328345508 0.22375899908545666 50 50 52
0.5658362284419797 2.4915184840302427 0.2340802157171794 49 49 51
0.5579128894250999 2.5017447090135985 0.23418205471596482 50 50 52
0.5221515959981823 2.5015054508102543 0.23917274962403887 51 51 53
0.5107370901018028 2.510332195083479 0.23989619847715507 54 54 56
0.49045395580915085 2.5157685399962535 0.24218263986344168 55 55 57
0.48394463694431633 2.5263901400213373 0.24204945431638053 54 54 56
0.45653203075725046 2.5290002154592557 0.24560222025263007 53 53 55
0.45365597838932026 2.567119786635177 0.24227881040847035 60 60 63
0.4501714807871138 2.5788606707784725 0.24161615656401852 64 63 68
0.45198476498615914 2.5926789982486227 0.24001473741679832 71 70 75
0.44842135174270137 2.6043997928046223 0.23936500716560932 77 77 79
0.5018276904588417 2.6519107894765885 0.2273066385314051 85 83 86
0.4788648495194361 2.682467227476621 0.2275119749800012 93 91 94
0.4394907209765464 2.839036668994684 0.2176899754157969 77 77 79
0.4217026593598926 2.844757211518723 0.21960208951423055 75 75 77
0.3912971858594826 2.844980118479782 0.2238037116111385 73 73 75
0.3300568230641612 2.831738462812262 0.2336033722933694 75 74 76
0.3546836438711287 2.8556534130571993 0.22784702501872212 82 80 83
0.3648525012653572 2.8733552310503425 0.22470572078409118 88 86 89
0.37017335060619394 2.888980986563811 0.2224405723584589 78 76 79
0.37634379858664213 2.905015604982757 0.2200174815917388 66 64 67
0.39052689523828543 2.9246365249321014 0.2161311633550575 66 64 67
0.37906555042143997 2.932918678924451 0.21691430497432787 58 56 59
0.37400511605388165 2.9440304281809 0.21653199613873347 41 40 43
0.37523768958503356 2.9579601054270954 0.21500036423697877 53 53 55
0.39108450285310536 2.9784931205822693 0.21079387319684084 53 53 55
0.38995342323016247 2.9914188819783782 0.20968860448402354 42 41 44
0.39248723433471433 3.006019729067085 0.20791067864802848 38 36 39
0.40230406545126496 3.023967873536955 0.20479421452648194 39 37 40
0.4146985649896493 3.0431491993788917 0.20119926905938784 46 44 49
0.4179576463550654 3.058188579468689 0.19927777269470243 56 54 57
0.40630320591472247 3.066363104519252 0.20009824719795266 74 72 75
0.4339189832137359 3.0927298584402028 0.1936872744689621 75 73 76
0.47171676841892074 3.1239622603000607 0.18538679938351507 58 56 59
0.5049534824779875 3.153221189377688 0.17791260459880762 48 48 50
0.4827983958385539 3.1565976002047726 0.18066024547343051 41 41 43
0.5298831960484204 3.1925692231889773 0.17060693197467836 39 39 41
0.5544478102849918 3.231995600066587 0.1633443212319478 31 31 33
0.5711645192928774 3.2539204450747845 0.1588810682964463 32 32 34
0.5903126623577273 3.2911312143633147 0.15258720273024787 34 35 39
0.595420068055002 3.307655369951293 0.1502639610093086 44 45 49
0.6176004326388289 3.3325020560115166 0.14475643546313507 43 44 47
0.6195530512400661 3.3475917573581775 0.14301149529697915 45 46 48
0.6364592528852453 3.3700215204117865 0.13847260919671367 46 46 48
0.6566068938581737 3.394125119745326 0.13332000639437797 42 42 46
0.6664747416921615 3.413252196931567 0.130081316939181 38 40 44
0.6719814466397384 3.4302734082019892 0.1276540672876413 44 46 48
0.9577800814375347 2.2677639505064637 0.21420446357488837 77 75 76
0.8568360414126227 2.2752645950628265 0.22734273479765274 57 57 60
0.8299799799235609 2.279792444926218 0.23059204820590842 56 56 58
0.7979126510089481 2.3091470221312465 0.2321443989085028 51 51 53
0.8443405482777283 2.3381437779364456 0.2229481992440171 50 50 52
0.8476646316101096 2.352707768464437 0.22107610420670307 50 50 52
0.7791905418079361 2.3428256712777262 0.23144319393552182 51 51 53
0.5618521094197457 2.425070610533569 0.2533069518216821 47 47 49
0.540447852426768 2.4959564461418635 0.24935811105951036 49 49 51
0.5232686762840147 2.502661024889051 0.2510665045980873 48 48 50
0.5063982197136256 2.5094323164557357 0.25272600391467553 52 52 54
0.49496868155181295 2.5182179346894897 0.2534422853000339 54 54 56
0.46072647609679906 2.5182828309941394 0.25814002060854524 53 53 55
0.434418164138792 2.560392883435914 0.25766154212482695 65 64 69
0.42863048189167186 2.5842710127588466 0.25613595721343085 80 79 83
0.429382802335159 2.5976507380130864 0.25473225610952777 90 90 92
0.3844560864386165 2.8561089895162652 0.23578501169586924 64 63 65
0.368585004018555 2.8625003911917695 0.23734414221303302 68 66 69
0.3549958039662481 2.86984309226287 0.23849734281947604 70 68 71
0.36291868230542457 2.886595922391573 0.2357807564444645 67 65 68
0.36291858208715744 2.8998979989010993 0.23448796609445946 65 63 66
0.3765245439614937 2.919241694080587 0.23073886152111478 65 63 66
0.37838496337124305 2.933425442316549 0.22910479319042215 45 43 46
0.38103568841438595 2.947983443876886 0.22732578318791238 43 43 45
0.36735873801343655 2.9552384374482483 0.2284995626774844 46 46 48
0.3923436638678671 2.9798790054217608 0.2226724732202208 47 47 49
0.38878161644100206 2.991709294035868 0.22201204772775596 40 40 42
0.3894717073982523 3.005472675485906 0.22057960860161396 39 37 40
0.3986239755790407 3.023115340763288 0.21760765267161525 40 38 41
0.4117927633079287 3.042648463492104 0.21390019503347218 51 49 54
0.40649323321451536 3.053745634929963 0.21354970750819274 68 66 70
0.411062812579137 3.069398364730855 0.2114006991962677 78 76 79
0.4348955281213317 3.094024190881137 0.20573332801673933 69 67 70
0.4574735672976403 3.118171703408235 0.20028480512988284 55 53 56
0.47340264796013687 3.139309088936075 0.19604223535649587 42 42 44
0.4927910543228998 3.1621484300609284 0.19115902884211491 39 39 41
0.5334317229327346 3.1951066553757768 0.18237284514161814 35 35 37
0.5550863688331995 3.2471148812840043 0.17434344292790124 23 23 25
0.6232471352042064 3.321998990285249 0.15770197134690983 37 39 37
0.6205426104963939 3.334822570355069 0.15682720703064013 41 43 41
0.6175944092843821 3.347531742183559 0.15599703703734757 43 43 43
0.6314993299760395 3.3684934056370945 0.15204961549393275 47 47 49
0.6521627259911417 3.3928459225981937 0.14684419380057043 46 46 48
0.6606008626937762 3.4112627912734066 0.14389509869801304 40 41 45
0.6601975489897736 3.4253482795785217 0.14258156169223285 45 46 48
0.7539179717842106 3.5589088518640857 0.11672616124534999 160 160 158
0.5544466676457565 2.4100193756473742 0.26795535201014087 46 46 48
0.5637167661461091 2.426471021694055 0.2651049453872658 45 45 47
0.5965136918318488 2.451547240683561 0.2582243534363061 45 45 47
0.5469397882477626 2.459691447742172 0.2641712433158582 46 46 48
0.5388162090533904 2.469814066741125 0.26429583563088865 48 48 50
0.5396843101062448 2.4832644033748394 0.2628770908777949 49 49 51
0.5301029091624514 2.492825929163353 0.26325399063817434 48 48 50
0.5264661002810148 2.5045984039140494 0.2626095008088467 48 48 50
0.5074991766825917 2.510584919484552 0.2646071567654015 51 51 53
0.47936716434653526 2.513038895907764 0.2681915158415185 54 53 55
0.4500827796808554 2.5149633018199014 0.27198363890919564 53 51 54
0.4294287379506503 2.5200980916218643 0.2742928596375487 53 51 54
0.4188849074178219 2.5290605009818186 0.2748584459246584 54 52 55
0.40592574094392964 2.537063329308376 0.27584495515694263 57 55 60
0.36943184906972837 2.535887682052764 0.28091629194200324 69 67 72
0.40883489651431204 2.577254150239002 0.2715627994460188 92 90 91
0.41067561935808683 2.5910284423923793 0.26998059504922733 99 98 96
0.4402914983817441 2.867718696166891 0.23919794097635444 49 49 52
0.39006692321330794 2.8726521281247503 0.24554374538494766 52 50 53
0.3784547660317674 2.880901402138931 0.24632343119112649 57 55 58
0.37844790659209526 2.894218681481951 0.24503641672014786 58 56 59
0.3661221912450525 2.9021145304295253 0.24594721886028179 55 55 57
0.3625430737338611 2.913853127789278 0.2452981681146471 43 43 45
0.36469830800276903 2.9281440241910093 0.24362327579450543 34 34 36
0.37093491964965863 2.9442813450363454 0.2412153626807078 44 43 47
0.3699399509132163 2.9572104877656384 0.2401001189153667 39 37 41
0.393274549583983 2.981117451381512 0.23461805053736046 38 36 39
0.3912253294576 2.9936364798080803 0.23368568829117306 44 43 45
0.3883468198884439 3.005784719058846 0.23290184361367716 40 40 42
0.39144792086421354 3.020666071038983 0.2310413524197507 44 43 45
0.3981876321170633 3.037241781588811 0.2285226962963956 56 54 57
0.4031578834355777 3.053042979523408 0.22631932347666134 73 72 73
0.4155193478413717 3.0722948914667634 0.2227781392267033 73 73 73
0.4457525174439214 3.0999063078739986 0.21600064437900413 62 62 62
0.46054530708913033 3.1204504742694716 0.21200419141171317 51 51 51
0.4788720360679112 3.142720739986611 0.207360723171038 39 39 41
0.5065652904081106 3.169479615678336 0.20101072304271947 37 37 39
0.5323080651107859 3.195439794925742 0.19500293633306126 32 32 34
0.5606660384871489 3.236697294140145 0.18716043821269418 21 21 23
0.5542686958145324 3.2475981295294014 0.1869752608548173 19 19 21
0.5731183672195341 3.270602680919383 0.18218973717384374 19 19 21
0.6247050487510278 3.3235944615263007 0.17005680529079362 32 32 32
0.6131634848042583 3.3321312901589115 0.17079909101537963 41 41 40
0.608893551618189 3.344183797775431 0.17021352745839882 47 47 47
0.6215450195240201 3.3645191273265027 0.16652816675593424 52 53 55
0.640824693514886 3.3881771982051236 0.16162102445710536 55 56 59
0.6450874883138357 3.4045149479333956 0.1594618672564168 53 54 58
0.6564321260079178 3.424393492940893 0.15599821409575199 45 47 49
0.6819094206092651 3.4513621179703007 0.14992896320291943 56 56 58
0.9095578144720414 2.2670570568687824 0.2461859426261051 60 58 61
0.5516939620261945 2.4097467596824425 0.28052255926153746 49 49 53
0.5706279390590289 2.429703130090712 0.27605879802822253 47 46 50
0.5680406513365575 2.4418939240011017 0.2752331244474015 46 45 49
0.5517297465776613 2.4490589079760774 0.2767344858850336 48 47 51
0.5468436200614946 2.460385756234357 0.2763007375190465 49 48 52
0.5420614373460394 2.4717466113521445 0.2758497546268712 49 49 53
0.518034926501701 2.475944252004262 0.278673050003995 48 48 52
0.5060867935961646 2.484582522647518 0.2794466160355411 46 46 49
0.5079220915183534 2.498368587103128 0.2778733734965213 48 48 50
0.4733257629942501 2.4984206780592446 0.28251536956609796 50 50 52
0.4618106677006778 2.5071151565781724 0.28322536035281287 52 51 54
0.4370061560547942 2.5107142795990876 0.2862107567692952 49 47 51
0.3935809575951066 2.874981926335268 0.25698779434844354 45 43 47
0.37077311580064143 2.878340678842549 0.25972812875958423 50 48 52
0.3615668976426465 2.887603315357419 0.26007331156548585 48 46 50
0.3659133792014406 2.902826021287339 0.2580245071783114 42 42 44
0.36981464863151314 2.9178819242850467 0.256051556617889 34 34 36
0.36460119598692053 2.9289091996066787 0.2556906048592795 42 42 44
0.3731405473960735 2.946079024973533 0.2528912264058854 41 39 44
0.3628416475374364 2.9548373676639277 0.253431710687855 35 33 37
0.3977927675466594 2.9839739322450445 0.24593304228724228 39 37 40
0.3950652586665572 2.996196741667885 0.2451231222715578 48 47 50
0.390907788633413 3.0077729100055506 0.24456750641692493 42 42 44
0.38993514352287195 3.0208016627465746 0.2434443103340582 48 47 50
0.39783931628413016 3.0379117923862555 0.2407359945452553 64 62 65
0.40107797667824907 3.052917963767453 0.23885683221120607 75 74 75
0.42051816527760566 3.0754435246633234 0.23407782608743694 65 65 66
0.45049586066172953 3.102952104828572 0.22740386409003444 54 54 55
0.48360565410474954 3.132051620970429 0.2201560897004184 44 44 45
0.47788999652218145 3.143112947330685 0.21985931759303934 39 39 41
0.5000133514536652 3.167256798055676 0.21456416753823157 34 34 36
0.5161594625493309 3.188678869149208 0.21033382087397118 30 30 32
0.5421995262202245 3.2148689347595645 0.2043156543478532 28 28 30
0.5493967789620178 3.23220498772031 0.20168055058663586 18 18 20
0.5526520648641258 3.2476995557796875 0.1997521534730666 17 17 19
0.5642855933034983 3.2672425844374446 0.19630877348105055 17 17 19
0.6204467621598179 3.336561434405332 0.18209414697330378 39 39 39
0.6136141119829693 3.3473803526248096 0.18197073881955242 49 50 50
0.6128919453912357 3.3611798900725303 0.18073972055756232 57 58 60
0.6247626838350574 3.3811832540607876 0.177220177211586 63 64 66
0.6402437113959374 3.403030466081191 0.17303825104031179 59 60 64
0.6574418959460204 3.42580466734481 0.16853646456356042 43 44 46
0.670650640715669 3.4466766530212753 0.1647536058549995 53 53 55
0.7273684347360246 3.5183019865909766 0.15024224487089113 67 63 63
0.5520446288736678 2.410594489053091 0.2925646592793824 58 57 62
0.5466941724336023 2.421741799194066 0.2922076888788669 56 55 60
0.5466056412619915 2.4348023589191596 0.2909687578029837 52 51 56
0.5407897740349724 2.445776325145731 0.2906901902060661 52 51 56
0.5239496473228421 2.452680604981636 0.2922652825123243 53 52 57
0.501602402860288 2.4574973506922078 0.2947715849293536 52 51 56
0.4853751963882037 2.4645227648315653 0.2962536858384397 54 53 58
0.4560025985232514 2.4926128715399716 0.29746423416262097 50 50 52
0.4359348478392555 2.498030943676501 0.2996102524303237 48 47 50
0.4336900412203982 2.536236215642522 0.29624978615992376 46 43 49
0.4388995133789919 2.551297549097912 0.2941157221284795 52 50 55
0.4039297488492535 2.550772508857527 0.2988097392734006 62 60 63
0.4912411142378489 2.703821983890112 0.2725592898238439 78 75 74
0.42680536286380133 2.810131146230989 0.27093567266940605 33 31 37
0.4510442365051591 2.833782324988219 0.2654520688844085 31 28 35
0.4434241992293412 2.8438995635196798 0.2654951231718491 32 29 36
0.4274920950378397 2.863790229822256 0.26570605195343405 33 30 37
0.3902099433423818 2.874312751715918 0.26964921638147665 34 31 37
0.3752227700245311 2.881087521817716 0.2709906514329184 36 33 39
0.37218363141924504 2.893070730769693 0.2702467080733104 38 36 41
0.3630666185989744 2.9023731839186264 0.27056657455172783 32 32 34
0.36943611243898933 2.918520875804919 0.268174437428713 31 31 33
0.3605809904319106 2.9279277413550044 0.26844952805066563 32 32 34
0.3705704507274048 2.9457418054193987 0.26541711197824935 29 27 31
0.378205075605596 2.96255059118187 0.26279366758036016 31 29 33
0.39669091174587046 2.9842969136503026 0.25825643697646183 37 35 38
0.3939170876136745 2.996498802815371 0.25745632076505465 45 43 46
0.38645616539178695 3.0065721240662686 0.2574824512379337 45 45 47
0.38999600503577947 3.0216559852715568 0.25556794539878985 50 49 52
0.3897750342778328 3.03504247052884 0.2543153905357435 63 61 64
0.3991840576889193 3.052878385905415 0.2513579599069035 69 68 71
0.4271304286962673 3.0793399637559187 0.24511290094761334 54 53 56
0.4552467060380516 3.106002780273776 0.23882600888017175 42 42 45
0.4897056361555143 3.1357473205071047 0.2314017493038525 40 40 43
0.47811561866587005 3.144070840117686 0.23214375671189086 38 38 40
0.5035443137648072 3.1697749707545797 0.22630556103940183 28 28 30
0.5119737076099861 3.1875640336936875 0.2234827049508857 31 31 33
0.5243731873999417 3.207283121675784 0.21994782894167547 23 23 25
0.5368500479973787 3.2271019233488896 0.21639312865945365 14 14 16
0.5550169691120732 3.2497044701497533 0.21181625515036193 15 15 17
0.5585894303859037 3.2653863582126927 0.20984014996095857 15 15 17
0.6231641420102862 3.3529345559499575 0.19288141174645151 46 46 47
0.6171138322841304 3.36414545288197 0.19261128783275802 57 58 60
0.625238955550259 3.382319151490313 0.18979200378572586 61 62 65
0.6354665272518727 3.4015779355994606 0.18658962089414213 55 56 60
0.6481193238496931 3.42209429380198 0.18294475909665414 43 43 45
0.6660925322142189 3.4453235755125076 0.1783335927512183 51 51 53
0.6823648964199333 3.4677890110096943 0.17402143294915798 59 59 61
0.6847358623651313 3.483360326412289 0.172215466402616 55 55 57
0.7002154596537783 3.505558073582347 0.16803421447772712 56 55 56
1.0283194416842765 2.2388810633658363 0.25858196746235756 88 87 88
0.5476884323434413 2.4097422970114453 0.3053914145988155 68 67 72
0.5222132712397902 2.413577211833901 0.3083699957606365 70 68 73
0.5126142001874767 2.423125105895956 0.30872024805932996 69 68 72
0.5038833973260912 2.432969604789379 0.3089282655361468 71 69 74
0.4965849353927074 2.443323337613651 0.30889974508400886 65 64 69
0.49045132713805806 2.4540950927182426 0.30867848939763975 64 63 68
0.47962283725474686 2.4631101769440273 0.30924088953726186 62 61 66
0.4845422696277154 2.47798943774902 0.3071773779490199 55 53 58
0.49152980131384827 2.4936776113912127 0.3047653210274675 52 50 55
0.460348295007066 2.494986930248776 0.3087335941624586 50 49 54
0.44874599359873135 2.5036266476567572 0.3094333350992888 48 46 51
0.4253856560585252 2.5337774466737315 0.30962681719982266 40 38 45
0.4204241593093233 2.544890249397568 0.30921920807932457 47 45 49
0.49134891152573223 2.784677775192482 0.2770612435800168 29 30 31
0.4352559485481021 2.774575603928652 0.28538685033598427 25 26 29
0.4153663837310635 2.7795052753962954 0.2875279264863553 25 23 28
0.39255293200304087 2.783138096354881 0.29017637559570536 24 23 27
0.45000227351506084 2.820766123426797 0.2790499352260125 26 25 30
0.4280108068131835 2.8247562940675537 0.281556436812886 29 27 31
0.419131420739403 2.834292156821281 0.2818133662782331 30 27 31
0.3967817445073175 2.891325224724854 0.2793127191274203 27 25 30
0.3932346844750565 2.903128353966402 0.27865366694178517 28 27 31
0.37702222313734124 2.909339300112283 0.2801899835240853 22 22 24
0.36268641330009643 2.916334514623436 0.2814052333499648 23 23 25
0.35823201503726865 2.9276899503084346 0.28090794092550236 25 25 27
0.37039692534810276 2.9464762407699356 0.2775210742724865 25 25 28
0.3788716388952461 2.963665450754625 0.2747707772893856 27 26 29
0.3871190602730862 2.9807986952972167 0.2720556483866023 30 29 31
0.3906802997737926 2.995854564783985 0.27015359149520607 35 35 37
0.38720180433466556 3.007735244589955 0.2694781498277431 41 41 43
0.38822156205166813 3.021671996843392 0.2680163343652837 45 45 47
0.38700740358333297 3.034601825634569 0.2669436974925792 51 49 53
0.39357426665185447 3.0511264403196874 0.2645071595952079 51 50 54
0.42991898696622377 3.081468990540571 0.2568452043889973 41 40 45
0.45466445367812847 3.106576888722208 0.2512046032060833 37 37 40
0.48948043394811847 3.136493576098421 0.2437838957526403 39 38 42
0.473983012569432 3.142987166372242 0.2451994212100736 34 34 36
0.48036929936011974 3.1597303744006493 0.24276575803322117 29 29 31
0.4948983838750505 3.180359493931629 0.23889296561493759 33 33 35
0.5144605882932506 3.2034470373555437 0.23412525240020493 23 23 26
0.5407135054880483 3.229811986890827 0.22816699860295742 14 14 18
0.5478586337009614 3.2471559109383743 0.22557648737594588 14 14 17
0.5556185266103159 3.2648376299872655 0.2228730925995328 14 14 16
0.6243301196983556 3.3543999537320746 0.20531977969326842 37 37 40
0.624180820904786 3.368506342492839 0.20399525634084725 46 47 48
0.622979761101855 3.382109797536101 0.2028567138963192 56 57 58
0.6348550875732999 3.402181918303206 0.19938533960656335 53 54 55
0.6439654306396793 3.4209447978817815 0.19640166049551105 44 45 47
0.659391349727736 3.44290275450472 0.19228452770345617 46 47 49
0.6809373054075926 3.467995482514433 0.1870653548524837 50 52 53
0.6817755532863481 3.4827979329271432 0.1855448775579092 50 52 54
0.6990360231500286 3.5058916384082757 0.18107871368506 47 51 52
0.7121734238043208 3.5269837979171017 0.17734447966874103 67 69 68
0.8478084056115588 2.2357621588801586 0.2951194389392114 55 55 55
0.6908349889610995 2.382384889144766 0.30158348795967715 54 53 58
0.5471241259669499 2.4102595272622125 0.3175852189586492 75 73 76
0.5244605857027966 2.4151141981753885 0.3200652337610168 81 79 82
0.5006574236778559 2.4194833630099977 0.32273912863306714 81 79 82
0.4888294175177843 2.4281712994009186 0.323449958353121 78 77 80
0.48427889840072014 2.4395120175193346 0.3229651297141834 79 79 81
0.4798514951704531 2.4508949950906436 0.32246032195614566 75 75 78
0.4795164983754393 2.46379875214177 0.32128039891471566 74 73 78
0.48463969533352713 2.4787568970881924 0.3191975781893533 70 67 74
0.4643211637565251 2.484181179983927 0.3213193568365931 61 58 64
0.45453510850187273 2.4935236210271454 0.32170321938596325 55 52 59
0.445101949726166 2.502977345664083 0.3220307479228181 51 49 55
0.43987539299234335 2.5140146133386754 0.3216623953783 45 44 49
0.4293287372336796 2.5230063046843054 0.3221781892425342 39 38 43
0.41073855396968195 2.528873689203794 0.3240337290585358 38 37 43
0.4233425321870946 2.5467606416381487 0.32070270583198357 39 38 43
0.3160021239822106 2.5695712043283274 0.33246599434704943 75 75 75
0.3456389910566351 2.607267239881617 0.3250471244289617 71 71 71
0.43868199535443075 2.697250205195187 0.30444495385636483 41 41 43
0.46692826390589326 2.7220394136281403 0.2984301699727686 36 35 39
0.4087401709113735 2.764251197982381 0.3019772328927695 23 23 25
0.3745037206175271 2.76309410642698 0.30652863677313186 21 21 23
0.35692212790170164 2.7688609290936115 0.30826286013839693 24 24 26
0.4426275521869887 2.818426928113722 0.2924445050212743 33 33 35
0.42964624046441724 2.826245559226068 0.29338737747089066 37 37 39
0.4191450605207119 2.835091264570349 0.29391111217758104 32 32 34
0.40115852467769453 2.907418082443413 0.2893874264564956 27 27 29
0.38328259324963543 2.912910035030481 0.2911858961492401 16 16 18
0.3687082295516414 2.919812205480625 0.29242233301730947 17 17 19
0.3633551497447147 2.930780745651407 0.2920769110196202 22 22 24
0.3727595065544477 2.9617347647956622 0.28792212671789236 25 25 27
0.38362573166569813 2.9800414916548665 0.28477675458960966 23 23 25
0.39256819272821486 2.9975322408545657 0.2819583255287563 24 24 26
0.3872107658045445 3.0085635262250574 0.2816075187385762 32 32 34
0.39293543557360744 3.0246532230300995 0.27933938471507574 37 37 39
0.389014054903269 3.0363519929124165 0.2787389878326205 38 37 42
0.3940652751906356 3.0521852263487217 0.2765825393610027 37 36 41
0.42429441676441915 3.0797051423307114 0.27005161142075834 36 35 39
0.4643876402995867 3.111940655367573 0.26179387834370277 36 36 38
0.48988481958323427 3.1375338650816835 0.25605952439689694 37 37 39
0.4785687395409416 3.145988456168055 0.25672606193176944 32 32 34
0.48089077397569746 3.1608313738838802 0.2550175774808275 33 33 35
0.4936735761234182 3.1806406958378095 0.2514810976182552 33 33 35
0.5127555579907903 3.20350297285655 0.24683794134420328 27 26 31
0.5392931121693918 3.2300060018816272 0.24088235477738235 15 14 20
0.5531620092011501 3.2505669889363156 0.23713370510713966 14 13 17
0.5536970239751255 3.2647924778998507 0.23571559894780547 14 14 16
0.6006640881390701 3.3014270498306852 0.22614901330832748 15 15 17
0.6055669896520619 3.3320075275738827 0.2226136448996226 19 18 23
0.6244223974001608 3.355341815528282 0.2179551328688666 25 24 28
0.6242406792384149 3.3694351521906816 0.2166425419558951 33 33 34
0.6205935269703547 3.3818376496997935 0.21593984849216583 45 45 45
0.6342448060046634 3.40278660135833 0.2121826494292489 50 50 48
0.6435147891450147 3.4216312958795907 0.20919336359471646 45 45 47
0.6578509788939051 3.443050374171017 0.20530273497850002 41 42 44
0.6783610443300885 3.4820071149746625 0.1989484148642677 45 49 50
0.6873705357099786 3.500941548530119 0.19598441619068252 46 49 50
0.7108893994342416 3.527266530269062 0.19043734298057946 63 63 64
0.759415586914912 2.39376356121628 0.3040960291243492 48 48 50
0.7053659386193195 2.3881993874190144 0.3115504543653839 51 51 53
0.6503547280792723 2.382113605970129 0.31917736298186755 57 57 59
0.6169891592444341 2.3835064188208213 0.3233236767432003 62 62 64
0.5909625814752996 2.3874034514682236 0.3262928519726563 68 68 70
0.5720135759302478 2.3937511570788876 0.3281234555887718 74 74 76
