ply
format ascii 1.0
element vertex 883
property float x
property float y
property float z
property float nx
property float ny
property float nz
property uchar diffuse_red
property uchar diffuse_green
property uchar diffuse_blue
property uchar class
property uchar detection
end_header
1.4285 3.5052 0.1137 0.964 -0.266 -0.007 54 55 56 0 0
1.4406 3.4743 0.1141 0.942 -0.299 -0.155 57 56 58 0 0
1.4765 3.4218 0.1118 0.756 -0.587 0.290 61 59 62 0 0
1.4635 3.4138 0.1150 0.205 -0.978 0.047 54 54 56 0 0
1.4723 3.3861 0.1157 0.967 -0.039 -0.251 43 43 45 0 0
1.4456 3.1389 0.1424 0.861 -0.503 -0.074 24 24 26 0 0
1.5094 2.9345 0.1479 0.805 -0.481 0.348 45 43 46 0 0
1.5370 2.7294 0.1605 0.788 -0.540 -0.295 38 38 40 0 0
1.3909 2.4554 0.2124 0.478 0.109 -0.872 12 12 14 0 0
1.2852 2.3783 0.2395 0.931 0.138 -0.337 50 50 50 0 0
1.2847 2.3269 0.2440 0.818 -0.476 -0.322 22 22 24 0 0
1.2115 2.2599 0.2640 0.476 -0.697 -0.536 26 24 29 0 0
1.1648 2.2417 0.2745 -0.153 -0.899 -0.410 48 48 50 0 0
0.7207 2.2695 0.3574 -0.273 -0.851 -0.449 74 75 75 0 0
0.6046 2.2938 0.3776 -0.323 -0.890 -0.323 155 155 155 0 0
1.4346 3.6044 0.1192 0.701 -0.675 0.229 166 163 164 0 0
1.4238 3.5941 0.1222 0.701 -0.675 0.229 151 150 148 0 0
1.4318 3.5464 0.1247 0.883 -0.005 -0.469 68 71 70 0 0
1.4361 3.5224 0.1260 0.970 0.008 -0.243 55 58 57 0 0
1.4266 3.5111 0.1288 0.930 -0.338 0.144 52 54 53 0 0
1.4877 3.4354 0.1235 0.852 0.268 -0.449 53 52 53 0 0
1.5080 3.3972 0.1228 0.789 0.178 -0.588 56 55 56 0 0
1.4774 3.4053 0.1281 0.985 0.057 -0.165 53 53 55 0 0
1.4362 3.1316 0.1596 0.657 -0.510 0.555 15 15 17 0 0
1.2892 2.3267 0.2574 0.861 -0.424 -0.282 29 29 31 0 0
1.2322 2.2480 0.2752 0.744 -0.550 -0.380 23 22 26 0 0
0.6566 2.2799 0.3838 -0.314 -0.867 -0.386 73 71 72 0 0
1.4272 3.6155 0.1350 0.828 0.004 -0.561 154 153 153 0 0
1.4344 3.5885 0.1359 0.795 0.108 -0.597 98 97 95 0 0
1.4387 3.5644 0.1371 0.795 0.108 -0.597 69 70 69 0 0
1.4810 3.4853 0.1356 0.632 -0.072 -0.772 55 58 57 0 0
1.4840 3.4626 0.1369 0.730 -0.052 -0.681 51 52 51 0 0
1.4969 3.4310 0.1371 0.751 0.292 -0.592 50 49 50 0 0
1.5190 3.3912 0.1362 0.839 0.163 -0.519 51 49 51 0 0
1.4806 3.4064 0.1424 0.998 0.056 0.022 51 51 53 0 0
1.4083 3.1595 0.1775 0.269 -0.668 0.694 14 14 16 0 0
1.4166 2.4595 0.2355 0.644 0.410 -0.646 11 11 13 0 0
1.3757 2.4732 0.2423 -0.330 -0.904 0.273 12 12 14 0 0
1.1375 2.2154 0.3106 0.788 0.138 -0.600 50 50 52 0 0
1.0481 2.2262 0.3271 0.057 -0.955 -0.291 43 43 45 0 0
0.6821 2.2658 0.3950 -0.312 -0.876 -0.369 70 68 71 0 0
0.6355 2.2791 0.4030 -0.312 -0.876 -0.369 90 90 90 0 0
0.6021 2.2835 0.4091 -0.327 -0.889 -0.321 153 153 153 0 0
1.4354 3.6323 0.1473 0.828 0.004 -0.561 161 160 159 0 0
1.4366 3.6109 0.1488 0.828 0.004 -0.561 113 113 112 0 0
1.4969 3.4549 0.1501 0.782 -0.067 -0.620 50 50 52 0 0
1.5290 3.4058 0.1480 0.793 0.144 -0.592 46 46 48 0 0
1.5069 3.4062 0.1523 0.856 -0.513 0.058 47 46 48 0 0
1.4421 3.1723 0.1847 0.627 -0.529 0.572 21 21 23 0 0
1.5322 2.9817 0.1831 0.920 -0.381 0.091 13 13 15 0 0
1.3016 2.4099 0.2764 0.451 -0.887 0.103 33 33 35 0 0
1.3143 2.3831 0.2762 0.950 -0.305 -0.065 23 23 25 0 0
1.3040 2.3562 0.2805 0.992 -0.051 -0.117 15 15 17 0 0
1.2405 2.2821 0.2992 0.679 -0.603 -0.418 64 64 67 0 0
1.2299 2.2385 0.3049 0.446 -0.831 -0.331 22 22 24 0 0
1.0931 2.2322 0.3323 0.019 -0.958 -0.287 50 50 52 0 0
1.0741 2.2282 0.3363 0.020 -0.925 -0.380 48 49 51 0 0
1.0571 2.2228 0.3401 0.057 -0.955 -0.291 41 42 44 0 0
0.7011 2.2736 0.4056 0.089 -0.899 -0.430 64 64 67 0 0
0.6998 2.2569 0.4073 -0.275 -0.900 -0.339 75 76 78 0 0
0.6606 2.2654 0.4143 -0.312 -0.876 -0.369 68 68 70 0 0
0.6260 2.2706 0.4206 -0.338 -0.885 -0.320 127 127 127 0 0
1.4420 3.6304 0.1614 0.868 0.023 -0.496 142 142 140 0 0
1.4476 3.6049 0.1625 0.907 -0.284 -0.309 71 71 70 0 0
1.4432 3.5886 0.1647 0.907 -0.284 -0.309 60 62 61 0 0
1.4547 3.5578 0.1650 0.810 -0.005 -0.587 57 59 58 0 0
1.5062 3.4505 0.1638 0.786 -0.184 -0.590 46 46 48 0 0
1.5342 2.9836 0.1971 0.962 -0.247 -0.114 17 17 19 0 0
1.3108 2.3715 0.2921 0.875 -0.363 -0.320 11 11 13 0 0
1.3030 2.3428 0.2960 0.717 -0.263 -0.646 15 15 17 0 0
1.2497 2.2443 0.3147 0.783 -0.388 -0.485 37 37 39 0 0
1.0414 2.2365 0.3565 -0.114 -0.985 -0.133 40 41 44 0 0
0.6818 2.2542 0.4260 -0.297 -0.893 -0.339 71 71 73 0 0
0.6367 2.2664 0.4339 -0.334 -0.874 -0.353 92 92 92 0 0
0.5981 2.2742 0.4409 -0.332 -0.895 -0.299 154 154 152 0 0
1.4627 3.5950 0.1756 0.889 0.121 -0.442 61 62 60 0 0
1.4665 3.5712 0.1768 0.889 0.121 -0.442 55 57 56 0 0
1.4673 3.5503 0.1783 0.896 -0.007 -0.445 53 55 54 0 0
1.5267 3.4755 0.1727 0.855 0.342 -0.389 54 56 55 0 0
1.5198 3.4619 0.1752 0.818 -0.191 -0.542 59 60 61 0 0
1.5117 3.4495 0.1778 0.591 -0.653 -0.474 45 45 47 0 0
1.5329 3.0070 0.2100 0.844 -0.434 -0.316 14 14 16 0 0
1.3783 2.4806 0.2840 -0.156 -0.987 -0.049 17 17 19 0 0
1.3470 2.4693 0.2911 0.791 -0.479 -0.380 27 27 29 0 0
1.3471 2.4517 0.2926 0.824 -0.142 -0.548 34 34 36 0 0
1.3047 2.3445 0.3098 0.887 -0.164 -0.432 22 22 24 0 0
1.2998 2.3137 0.3133 0.512 -0.787 -0.344 35 35 37 0 0
1.0806 2.2294 0.3638 -0.079 -0.995 0.062 40 41 43 0 0
1.0577 2.2281 0.3684 -0.002 -0.987 0.163 39 40 43 0 0
0.7192 2.2672 0.4325 0.244 -0.854 -0.459 52 53 55 0 0
0.7040 2.2598 0.4361 0.079 -0.920 -0.384 63 64 66 0 0
0.6589 2.2546 0.4455 -0.306 -0.894 -0.328 74 74 74 0 0
0.6215 2.2617 0.4524 -0.332 -0.895 -0.299 130 130 128 0 0
1.4618 3.6203 0.1890 0.852 0.274 -0.446 90 90 89 0 0
1.4739 3.5887 0.1891 0.852 0.237 -0.467 59 60 60 0 0
1.4739 3.5686 0.1908 0.889 0.121 -0.442 53 54 55 0 0
1.4782 3.5444 0.1919 0.970 -0.034 -0.241 52 53 53 0 0
1.5349 3.4719 0.1864 0.804 0.337 -0.490 53 54 54 0 0
1.5484 3.4397 0.1864 0.633 0.183 -0.752 57 57 59 0 0
1.5197 3.4462 0.1916 0.204 -0.743 -0.638 46 46 48 0 0
1.4572 3.2282 0.2218 0.903 -0.164 0.398 25 26 28 0 0
1.4208 3.2214 0.2296 0.052 -0.568 0.821 17 18 20 0 0
1.2940 2.3037 0.3295 0.512 -0.764 -0.392 12 12 14 0 0
1.2497 2.2331 0.3441 0.780 -0.606 -0.156 27 27 29 0 0
1.1104 2.2287 0.3723 -0.032 -0.967 0.254 30 31 33 0 0
1.0815 2.2317 0.3779 -0.090 -0.981 0.174 37 37 39 0 0
1.0533 2.2341 0.3833 -0.038 -0.954 0.298 37 38 40 0 0
0.6983 2.2490 0.4531 -0.130 -0.942 -0.310 71 71 73 0 0
0.6813 2.2427 0.4570 -0.306 -0.894 -0.328 73 73 74 0 0
0.6352 2.2555 0.4652 -0.306 -0.894 -0.328 93 94 92 0 0
0.5935 2.2653 0.4727 -0.332 -0.895 -0.299 155 155 154 0 0
1.4723 3.6351 0.2010 -0.111 -0.826 0.553 142 141 142 0 0
1.4826 3.5848 0.2030 0.852 0.237 -0.467 60 61 65 0 0
1.4854 3.5621 0.2043 0.925 0.124 -0.360 52 51 56 0 0
1.5326 3.4385 0.2047 0.148 -0.839 -0.524 50 50 52 0 0
1.4233 2.4701 0.3044 0.813 -0.563 -0.148 14 15 17 0 0
1.2786 2.3179 0.3457 0.714 -0.610 0.344 13 13 15 0 0
1.0842 2.2327 0.3917 -0.128 -0.949 0.289 31 31 33 0 0
0.7057 2.2469 0.4668 0.108 -0.962 -0.251 65 65 67 0 0
0.6870 2.2417 0.4709 -0.203 -0.928 -0.313 75 76 76 0 0
0.6546 2.2456 0.4772 -0.271 -0.913 -0.306 72 74 73 0 0
1.4729 3.6388 0.2160 0.811 0.296 -0.504 100 100 101 0 0
1.4824 3.5892 0.2180 0.899 0.062 -0.433 59 59 64 0 0
1.4856 3.5660 0.2192 0.940 -0.165 -0.300 49 48 53 0 0
1.5483 3.4479 0.2158 0.887 0.441 -0.138 51 51 53 0 0
1.5431 3.4329 0.2181 0.902 -0.386 -0.192 51 51 53 0 0
1.5546 2.9807 0.2516 0.664 -0.357 -0.657 21 21 23 0 0
1.3769 2.4386 0.3305 0.692 -0.356 -0.627 25 25 27 0 0
1.3093 2.4370 0.3444 0.213 -0.958 -0.190 19 19 21 0 0
0.7121 2.2281 0.4819 -0.185 -0.930 -0.318 70 71 71 0 0
0.6736 2.2360 0.4891 -0.271 -0.913 -0.306 70 72 71 0 0
0.6307 2.2466 0.4970 -0.296 -0.902 -0.315 98 99 97 0 0
1.4823 3.6546 0.2282 0.062 -0.854 0.517 133 133 132 0 0
1.4837 3.6329 0.2296 0.801 0.330 -0.499 70 70 70 0 0
1.4894 3.5869 0.2320 0.899 0.062 -0.433 58 57 62 0 0
1.4981 3.5586 0.2325 0.912 -0.106 -0.397 47 46 51 0 0
1.5482 3.4919 0.2275 0.916 0.244 -0.319 45 45 47 0 0
1.3189 2.4328 0.3571 0.501 -0.848 0.174 19 19 21 0 0
1.2690 2.3136 0.3766 0.508 -0.719 -0.475 13 13 15 0 0
1.1095 2.2552 0.4137 0.181 -0.850 0.495 13 13 15 0 0
1.1120 2.2191 0.4160 0.709 -0.610 0.353 23 23 25 0 0
1.1007 2.2099 0.4191 -0.017 -0.999 0.041 30 30 32 0 0
0.7086 2.2331 0.4972 0.083 -0.952 -0.295 63 64 65 0 0
1.4819 3.6592 0.2433 0.848 0.319 -0.423 102 102 100 0 0
1.5022 3.5791 0.2453 0.919 0.102 -0.380 59 58 61 0 0
1.2391 2.2865 0.3992 0.634 0.111 -0.766 14 12 15 0 0
1.2501 2.2445 0.4002 0.718 -0.521 -0.461 22 22 24 0 0
1.2470 2.2297 0.4020 0.721 -0.685 -0.107 13 13 15 0 0
1.1122 2.2562 0.4276 0.309 -0.841 0.444 13 13 15 0 0
1.1150 2.2370 0.4285 0.845 -0.490 0.214 15 15 17 0 0
1.1137 2.2209 0.4300 0.815 -0.535 0.223 22 20 23 0 0
0.7161 2.2310 0.5108 0.247 -0.886 -0.392 58 58 58 0 0
0.5848 2.2470 0.5365 -0.324 -0.890 -0.320 157 159 157 0 0
1.5016 3.6654 0.2541 -0.084 -0.896 0.436 153 151 152 0 0
1.5012 3.6046 0.2589 0.957 0.081 -0.277 56 56 57 0 0
1.5141 3.5722 0.2587 0.941 0.112 -0.319 55 55 57 0 0
1.4264 3.3334 0.2950 0.061 -0.879 0.473 22 22 24 0 0
1.5130 2.9897 0.3033 0.458 -0.889 -0.012 26 26 28 0 0
1.2890 2.3223 0.4005 0.449 -0.570 -0.688 26 26 28 0 0
1.2660 2.2531 0.4105 0.795 -0.553 -0.248 29 29 31 0 0
1.5393 3.5933 0.2671 0.782 0.166 -0.601 62 62 61 0 0
1.5634 3.5303 0.2668 0.820 0.262 -0.509 52 52 54 0 0
1.5684 3.0586 0.3013 0.715 -0.639 0.284 11 11 13 0 0
1.5778 3.0128 0.3028 0.881 -0.296 -0.368 12 12 14 0 0
1.5163 2.9905 0.3173 0.561 -0.825 0.073 26 26 28 0 0
1.4996 2.9859 0.3211 0.445 -0.863 0.239 25 25 27 0 0
1.4354 2.6538 0.3594 0.504 -0.844 0.186 35 35 37 0 0
0.7231 2.2320 0.5393 0.514 -0.605 -0.608 51 51 53 0 0
1.5740 3.0386 0.3163 0.629 -0.644 -0.434 13 13 15 0 0
1.5844 3.0109 0.3162 0.906 -0.310 -0.287 13 13 15 0 0
1.4238 2.6303 0.3781 0.618 -0.739 -0.268 36 36 38 0 0
1.3487 2.3709 0.4131 0.678 -0.725 -0.120 22 22 24 0 0
0.7337 2.2279 0.5524 0.514 -0.605 -0.608 48 48 52 0 0
1.5081 3.6927 0.2970 0.155 -0.889 0.431 133 131 132 0 0
1.5751 3.0225 0.3320 0.956 0.111 -0.273 13 13 15 0 0
1.4440 3.0215 0.3597 0.008 -0.831 0.556 22 22 24 0 0
1.4262 2.6318 0.3920 0.768 -0.581 -0.271 37 37 39 0 0
1.3519 2.3716 0.4267 0.678 -0.725 -0.120 25 25 27 0 0
1.3227 2.3240 0.4363 0.748 -0.557 -0.360 17 17 19 0 0
1.3110 2.2981 0.4407 0.649 -0.677 -0.348 16 16 18 0 0
1.5838 3.0188 0.3451 0.964 -0.259 -0.054 14 14 16 0 0
0.7312 2.2351 0.5824 0.842 -0.253 -0.477 40 40 42 0 0
0.7384 2.2130 0.5825 0.446 -0.656 -0.608 44 44 46 0 0
1.5570 3.6547 0.3202 0.844 -0.422 0.332 68 66 67 0 0
1.5901 3.0358 0.3572 0.888 -0.436 -0.147 14 14 16 0 0
1.4063 2.4414 0.4388 0.952 -0.095 -0.289 40 40 42 0 0
1.3974 2.4306 0.4415 0.243 -0.969 -0.039 41 41 43 0 0
1.5645 3.6928 0.3313 0.865 -0.318 0.389 155 155 152 0 0
1.5558 3.6601 0.3354 0.517 -0.692 0.504 63 63 66 0 0
1.5738 3.0726 0.3729 0.155 -0.757 0.635 12 12 14 0 0
1.4047 2.4282 0.4544 0.497 -0.851 -0.171 40 40 42 0 0
1.3856 2.4078 0.4600 0.822 -0.569 0.010 39 39 41 0 0
0.7185 2.2492 0.6143 0.428 -0.546 -0.720 42 42 44 0 0
0.7380 2.2188 0.6122 0.846 -0.342 -0.409 41 41 43 0 0
1.6064 3.0291 0.3836 0.738 -0.646 0.194 14 14 16 0 0
1.4113 2.5318 0.4602 0.886 -0.442 -0.136 35 35 37 0 0
1.4260 2.4852 0.4603 0.867 -0.142 -0.478 36 36 38 0 0
1.3873 2.3922 0.4751 0.587 -0.804 0.092 38 38 40 0 0
1.3399 2.3753 0.4865 0.969 0.037 0.243 39 39 41 0 0
0.9147 2.2426 0.5875 -0.348 -0.803 -0.483 16 16 18 0 0
0.7245 2.2306 0.6294 0.568 -0.822 0.038 42 42 44 0 0
1.5759 3.6496 0.3626 0.647 -0.599 -0.473 61 62 67 0 0
1.3845 2.3974 0.4897 0.768 -0.407 -0.495 35 35 37 0 0
1.3779 2.3849 0.4920 0.807 -0.476 -0.349 34 34 36 0 0
1.3707 2.3729 0.4943 0.851 -0.070 -0.520 34 34 36 0 0
0.9441 2.2255 0.5971 0.035 -0.998 -0.052 15 15 17 0 0
0.7927 2.2405 0.6289 0.974 0.197 0.108 33 33 35 0 0
0.7292 2.2303 0.6434 0.326 -0.944 -0.050 42 42 44 0 0
0.7358 2.2085 0.6435 0.807 -0.264 -0.528 43 43 45 0 0
0.7109 2.2073 0.6490 0.325 -0.572 -0.753 44 44 46 0 0
0.5813 2.1867 0.6785 -0.274 -0.835 -0.478 163 162 162 0 0
1.5705 3.6796 0.3772 0.677 -0.735 0.036 80 79 82 0 0
1.5722 3.6575 0.3783 0.879 -0.224 -0.421 62 62 68 0 0
0.8497 2.2749 0.6292 -0.324 -0.854 -0.407 14 14 16 0 0
0.7239 2.2191 0.6604 0.446 -0.857 0.260 45 45 47 0 0
0.5681 2.1804 0.6971 -0.274 -0.835 -0.478 167 167 167 0 0
1.5603 3.6731 0.3952 0.769 -0.565 -0.298 62 62 66 0 0
1.6206 3.0280 0.4248 0.253 -0.902 -0.350 13 13 15 0 0
1.4129 2.6474 0.4956 0.702 -0.615 -0.359 33 33 35 0 0
1.4251 2.5841 0.4972 0.617 -0.489 -0.616 33 33 35 0 0
1.4164 2.6480 0.5095 0.661 -0.710 -0.240 31 31 33 0 0
1.4261 2.6224 0.5090 0.728 -0.250 -0.638 32 32 34 0 0
1.4189 2.5922 0.5126 0.648 -0.241 -0.722 32 32 34 0 0
0.7816 2.2740 0.6743 0.981 0.171 0.096 17 17 19 0 0
0.5863 2.1568 0.7252 -0.248 -0.823 -0.511 163 163 163 0 0
1.5857 3.6987 0.4189 0.764 -0.629 0.146 63 64 64 0 0
1.5759 3.6875 0.4218 0.764 -0.629 0.146 63 64 66 0 0
1.4243 2.6451 0.5225 0.743 -0.558 -0.369 31 31 33 0 0
1.4370 2.6171 0.5215 0.820 -0.263 -0.509 31 31 33 0 0
1.3754 2.5045 0.5424 0.315 -0.795 0.518 35 35 37 0 0
0.7689 2.2503 0.6938 0.996 -0.073 0.046 26 26 28 0 0
0.6790 2.1870 0.7178 0.753 -0.649 -0.114 49 49 51 0 0
1.5977 3.6915 0.4321 0.989 0.035 -0.147 59 59 62 0 0
1.5748 3.6929 0.4372 0.680 -0.694 0.236 53 53 57 0 0
1.4495 2.6106 0.5337 0.910 -0.181 -0.373 30 30 32 0 0
1.1049 2.2329 0.6347 0.764 0.170 0.622 26 26 28 0 0
0.6758 2.1571 0.7356 0.253 -0.937 -0.243 66 66 67 0 0
1.6055 3.6882 0.4460 0.963 0.198 -0.183 59 58 62 0 0
1.6016 3.6714 0.4480 0.990 -0.066 -0.124 53 52 57 0 0
1.6406 3.6135 0.4428 0.878 0.446 -0.175 54 53 58 0 0
1.4910 3.0221 0.5133 0.008 -0.977 -0.215 28 28 30 0 0
1.4492 2.6141 0.5481 0.620 -0.254 -0.742 28 28 30 0 0
1.1872 2.2644 0.6289 0.568 -0.757 0.323 31 31 33 0 0
0.7372 2.2244 0.7327 0.163 -0.966 -0.200 44 43 46 0 0
0.7285 2.2126 0.7354 0.213 -0.952 -0.222 52 52 54 0 0
1.5958 3.7643 0.4591 0.317 -0.884 -0.344 165 163 164 0 0
1.5803 3.7585 0.4629 0.255 -0.897 -0.362 139 138 136 0 0
1.6037 3.6738 0.4628 0.990 -0.066 -0.124 52 52 54 0 0
1.6209 3.6367 0.4612 0.853 0.237 -0.466 52 52 54 0 0
1.6263 3.5907 0.4628 0.978 -0.202 -0.044 52 53 56 0 0
1.4361 3.3447 0.5209 0.516 0.026 -0.856 12 12 14 0 0
1.4957 3.0217 0.5272 -0.063 -0.923 -0.381 28 28 30 0 0
1.2038 2.2556 0.6403 0.918 -0.335 -0.210 30 30 32 0 0
1.1760 2.2580 0.6464 0.868 -0.175 -0.466 30 30 32 0 0
1.1535 2.2221 0.6537 0.889 0.425 -0.168 28 28 30 0 0
1.5854 3.7580 0.4774 0.860 -0.399 -0.317 145 144 142 0 0
1.5862 3.7157 0.4797 0.724 -0.683 0.100 59 58 61 0 0
1.6355 3.6270 0.4738 0.781 0.123 -0.613 49 49 51 0 0
1.6414 3.6010 0.4741 0.865 -0.473 0.168 49 49 51 0 0
1.6755 3.4677 0.4743 0.835 0.528 -0.154 35 34 39 0 0
1.5102 3.0131 0.5394 -0.157 -0.914 -0.374 29 29 31 0 0
1.3010 2.4672 0.6200 -0.315 -0.949 -0.008 33 33 35 0 0
1.1661 2.3725 0.6564 0.657 0.056 0.752 35 35 37 0 0
1.1323 2.2398 0.6721 0.973 -0.012 -0.231 27 27 29 0 0
1.5885 3.7179 0.4946 0.673 -0.719 -0.173 59 59 61 0 0
1.6268 3.6398 0.4905 0.831 0.122 -0.543 47 47 49 0 0
1.3400 2.5475 0.6209 0.779 0.295 0.553 24 24 26 0 0
1.2126 2.2552 0.6675 0.517 -0.775 -0.363 29 29 31 0 0
1.5925 3.7184 0.5092 0.806 -0.524 -0.275 61 61 63 0 0
1.6517 3.5388 0.5061 0.820 0.375 -0.434 47 47 49 0 0
1.6983 3.4545 0.5002 0.841 0.443 -0.310 35 35 37 0 0
1.5385 2.9963 0.5637 -0.059 -0.962 -0.265 30 30 32 0 0
1.1935 2.2890 0.6845 0.434 -0.884 0.172 31 31 33 0 0
1.6468 3.5883 0.5197 0.726 0.247 -0.642 49 49 51 0 0
1.6582 3.5571 0.5188 0.751 0.359 -0.555 52 52 54 0 0
1.4212 3.3541 0.5854 0.846 -0.193 -0.496 11 11 13 0 0
1.5485 2.9915 0.5766 0.104 -0.981 -0.163 30 30 32 0 0
1.4174 2.6558 0.6262 0.557 -0.446 -0.700 17 17 19 0 0
1.2820 2.2979 0.6781 -0.390 -0.834 -0.392 30 30 32 0 0
1.1180 2.2240 0.7204 0.661 0.371 -0.652 21 20 25 0 0
1.6220 3.7402 0.5323 0.982 0.045 -0.182 71 72 71 0 0
1.6529 3.6072 0.5326 0.529 -0.142 -0.836 38 37 41 0 0
1.6553 3.5845 0.5333 0.723 0.316 -0.615 46 46 49 0 0
1.6546 3.5649 0.5345 0.624 0.347 -0.700 54 54 57 0 0
1.2808 2.4771 0.6829 -0.052 -0.889 0.455 17 17 22 0 0
1.1905 2.3145 0.7131 0.435 -0.900 -0.006 26 26 28 0 0
1.0652 2.2811 0.7442 0.588 0.298 -0.752 21 21 23 0 0
1.0269 2.2380 0.7556 0.683 0.373 -0.628 14 14 17 0 0
1.6658 3.5991 0.5454 0.619 -0.201 -0.759 38 37 42 0 0
1.6747 3.5499 0.5460 0.796 0.411 -0.444 45 44 49 0 0
1.7091 3.4769 0.5420 0.791 0.470 -0.391 51 49 54 0 0
1.4516 3.4750 0.6025 0.944 0.330 0.006 19 19 21 0 0
1.4434 3.3423 0.6117 0.786 0.488 -0.380 12 12 14 0 0
1.5556 2.9551 0.6068 0.164 -0.623 -0.765 33 33 35 0 0
1.2735 2.4858 0.6989 -0.052 -0.889 0.455 13 14 19 0 0
1.2187 2.3322 0.7202 0.433 -0.898 0.075 23 23 25 0 0
1.0599 2.2528 0.7618 0.873 0.089 -0.480 18 18 20 0 0
1.0540 2.2395 0.7640 0.812 -0.167 -0.560 16 16 18 0 0
1.0369 2.2340 0.7683 0.809 0.435 -0.395 14 14 16 0 0
0.6901 2.0831 0.8580 -0.288 -0.715 -0.637 46 46 48 0 0
1.6221 3.7907 0.5607 0.972 0.096 -0.215 156 155 153 0 0
1.6729 3.5966 0.5592 0.529 -0.420 -0.738 38 37 42 0 0
1.7158 3.4748 0.5557 0.797 0.489 -0.354 48 46 51 0 0
1.4679 3.4040 0.6181 0.998 -0.012 -0.056 18 18 20 0 0
1.5882 2.9311 0.6153 0.822 -0.249 -0.512 33 33 36 0 0
1.4527 2.6560 0.6622 0.486 -0.572 -0.661 13 13 15 0 0
1.4439 2.6449 0.6648 0.171 -0.656 -0.736 13 13 15 0 0
1.2563 2.3081 0.7274 0.921 -0.364 0.138 20 20 22 0 0
1.0230 2.2118 0.7876 0.917 0.357 0.181 12 12 14 0 0
1.6112 3.8270 0.5770 0.925 0.276 -0.261 167 166 164 0 0
1.6895 3.6054 0.5702 0.947 -0.306 -0.099 60 60 62 0 0
1.7030 3.5113 0.5720 0.835 0.476 -0.274 32 31 36 0 0
1.4691 3.3671 0.6352 0.823 -0.306 -0.479 15 15 17 0 0
1.4578 3.3374 0.6395 0.826 0.311 -0.469 10 10 12 0 0
1.5745 2.9463 0.6326 0.244 -0.745 -0.621 34 34 36 0 0
1.4823 2.7084 0.6671 0.753 -0.655 -0.060 13 13 15 0 0
1.3750 2.5045 0.7034 0.469 -0.785 0.405 13 13 15 0 0
1.1293 2.2973 0.7727 -0.078 -0.933 -0.351 16 16 18 0 0
1.0541 2.2279 0.7943 0.886 0.209 -0.414 14 14 16 0 0
1.6803 3.6802 0.5839 0.854 0.328 -0.403 49 52 54 0 0
1.6828 3.6572 0.5845 0.895 0.092 -0.437 52 52 54 0 0
1.4863 3.3556 0.6472 0.751 -0.174 -0.637 14 14 16 0 0
1.5982 2.9298 0.6426 0.865 -0.476 -0.155 32 32 34 0 0
1.4934 2.7211 0.6785 0.510 -0.860 -0.001 14 14 16 0 0
1.4824 2.7117 0.6817 0.685 -0.719 0.119 13 13 15 0 0
1.1234 2.2695 0.7904 0.757 0.115 -0.644 16 15 18 0 0
1.0779 2.2144 0.8041 -0.178 -0.981 -0.082 14 14 16 0 0
0.4959 1.9534 0.9567 -0.011 -0.928 -0.372 154 155 154 0 0
0.4788 1.9466 0.9611 0.109 -0.966 -0.234 168 167 169 0 0
0.4567 1.9428 0.9666 0.109 -0.966 -0.234 171 169 171 0 0
1.6845 3.6599 0.5994 0.939 0.007 -0.345 47 47 50 0 0
1.4525 3.3701 0.6700 0.302 -0.178 -0.937 12 12 14 0 0
1.4587 3.3446 0.6698 0.680 0.339 -0.650 11 11 13 0 0
1.6000 2.9320 0.6570 0.848 -0.523 -0.083 29 29 31 0 0
1.5616 2.7787 0.6740 0.577 -0.815 -0.049 19 19 21 0 0
1.1058 2.2674 0.8096 0.375 -0.909 0.182 15 14 16 0 0
1.0779 2.2173 0.8188 -0.236 -0.965 -0.115 13 13 15 0 0
0.4591 1.9439 0.9813 -0.037 -0.953 -0.301 171 169 170 0 0
1.6715 3.7185 0.6151 0.946 0.104 -0.306 62 65 69 0 0
1.6767 3.6926 0.6152 0.958 0.161 -0.236 46 49 53 0 0
1.6823 3.6665 0.6151 0.967 -0.037 -0.251 43 42 46 0 0
1.5645 2.7799 0.6880 0.577 -0.815 -0.049 20 20 22 0 0
0.6589 1.9615 0.9476 0.877 -0.253 0.409 41 43 46 0 0
0.5259 1.9404 0.9808 -0.274 -0.898 -0.345 93 95 91 0 0
1.6769 3.7176 0.6294 0.949 0.223 -0.223 66 69 73 0 0
1.6801 3.6937 0.6298 0.958 0.161 -0.236 50 52 57 0 0
1.6562 3.6756 0.6365 0.572 -0.452 -0.685 41 40 45 0 0
1.5189 3.3384 0.6864 0.755 0.581 -0.303 15 15 17 0 0
1.5159 3.3212 0.6880 0.846 0.405 -0.347 14 14 16 0 0
0.6452 1.9726 0.9656 0.879 -0.361 0.312 39 42 46 0 0
0.6416 1.9577 0.9672 0.978 -0.207 -0.029 40 41 45 0 0
0.6363 1.9269 0.9700 0.085 -0.809 -0.582 53 54 57 0 0
0.5039 1.9392 1.0015 -0.283 -0.916 -0.284 138 138 135 0 0
0.4633 1.9465 1.0110 -0.214 -0.936 -0.281 165 164 163 0 0
1.6928 3.6857 0.6427 0.950 0.250 -0.189 57 58 62 0 0
1.6857 3.6720 0.6451 0.953 -0.060 -0.297 43 43 47 0 0
1.6677 3.6689 0.6496 0.007 -0.507 -0.862 39 38 43 0 0
1.4974 3.3817 0.7050 0.675 0.572 -0.465 20 20 22 0 0
1.5231 3.3385 0.7008 0.700 0.539 -0.469 15 15 17 0 0
1.5350 3.3081 0.6994 0.469 -0.018 -0.883 14 14 16 0 0
0.6434 1.9592 0.9818 0.961 -0.267 -0.064 45 45 49 0 0
0.6343 1.9477 0.9846 0.769 -0.293 -0.569 43 44 48 0 0
0.6310 1.9327 0.9861 0.256 -0.656 -0.710 45 46 51 0 0
0.6308 1.9159 0.9870 -0.016 -0.916 -0.401 55 56 58 0 0
0.4628 1.9321 1.0272 0.020 -0.972 -0.233 170 168 169 0 0
0.4375 1.9301 1.0335 0.020 -0.972 -0.233 171 169 170 0 0
1.6884 3.7152 0.6579 0.910 0.340 -0.236 68 70 71 0 0
1.6952 3.6878 0.6575 0.937 0.289 -0.197 67 68 72 0 0
1.6890 3.6526 0.6607 0.118 -0.455 -0.882 41 40 45 0 0
1.5511 3.2976 0.7113 0.488 -0.014 -0.873 14 14 16 0 0
0.6454 1.9606 0.9965 0.962 -0.244 -0.126 57 56 58 0 0
0.6425 1.9453 0.9979 0.745 -0.353 -0.565 51 52 55 0 0
0.6434 1.9277 0.9985 0.240 -0.776 -0.583 44 45 50 0 0
0.6441 1.9103 0.9992 -0.016 -0.916 -0.401 47 48 52 0 0
0.6177 1.9094 1.0057 -0.092 -0.956 -0.277 57 58 60 0 0
0.5789 1.9160 1.0149 -0.255 -0.952 -0.169 77 79 75 0 0
0.4426 1.9296 1.0477 0.038 -0.997 -0.061 172 170 171 0 0
1.6510 3.8194 0.6779 0.978 0.055 -0.199 155 154 152 0 0
1.6980 3.7102 0.6714 0.901 0.311 -0.301 57 59 61 0 0
1.7083 3.6795 0.6703 0.901 0.311 -0.301 66 67 70 0 0
1.7041 3.6423 0.6730 0.467 -0.310 -0.828 52 51 56 0 0
1.7049 3.6209 0.6738 0.263 -0.281 -0.923 41 40 45 0 0
1.7844 3.3636 0.6660 0.902 -0.431 -0.035 30 30 32 0 0
1.7720 3.3555 0.6694 0.699 -0.671 -0.245 25 25 27 0 0
1.5512 3.3015 0.7264 0.714 0.205 -0.669 14 14 16 0 0
0.6499 1.9433 1.0114 0.502 -0.712 -0.491 52 53 54 0 0
0.6395 1.9327 1.0144 0.893 -0.432 -0.127 44 45 50 0 0
0.6545 1.9065 1.0119 0.014 -0.954 -0.301 40 41 46 0 0
0.6220 1.9094 1.0198 0.008 -0.995 -0.102 49 50 52 0 0
0.5858 1.9144 1.0285 -0.234 -0.970 -0.068 69 70 66 0 0
0.4390 1.9344 1.0638 -0.053 -0.998 0.033 172 170 171 0 0
1.7086 3.6836 0.6855 0.905 0.254 -0.342 54 54 57 0 0
1.7128 3.6177 0.6875 0.497 -0.308 -0.811 53 53 55 0 0
1.5661 3.2921 0.7385 0.817 0.168 -0.552 13 13 15 0 0
1.3814 2.7064 0.8107 0.486 -0.609 -0.628 12 12 14 0 0
0.8846 1.9686 0.9672 0.733 -0.049 0.679 15 15 17 0 0
0.9069 1.9039 0.9646 0.956 -0.111 0.273 24 23 29 0 0
0.6669 1.9355 1.0227 0.234 -0.924 -0.303 46 46 50 0 0
0.6545 1.9261 1.0262 0.410 -0.880 -0.239 40 40 45 0 0
0.6383 1.9020 1.0313 -0.028 -0.999 0.025 45 47 46 0 0
0.4406 1.9360 1.0789 0.007 -0.981 0.196 171 170 170 0 0
1.6977 3.7822 0.6995 0.062 -0.965 -0.256 156 156 154 0 0
1.7051 3.7122 0.7007 0.896 0.230 -0.379 55 55 56 0 0
1.5071 2.8484 0.7881 0.370 -0.839 0.399 39 39 41 0 0
1.4642 2.7908 0.8013 0.855 0.484 -0.187 27 27 27 0 0
0.6762 1.9153 1.0365 0.117 -0.941 -0.318 38 37 41 0 0
0.6633 1.9062 1.0401 0.386 -0.918 -0.094 40 39 43 0 0
0.6468 1.8994 1.0445 -0.368 -0.928 0.059 44 45 44 0 0
1.7047 3.7798 0.7135 0.466 -0.809 -0.358 157 158 155 0 0
1.6594 3.7827 0.7248 0.980 -0.078 -0.182 66 66 66 0 0
1.5244 2.8563 0.7984 -0.269 -0.824 -0.498 38 38 40 0 0
1.3438 2.6512 0.8525 0.894 0.435 0.112 13 13 15 0 0
0.7223 1.9404 1.0390 0.518 -0.651 -0.555 22 22 24 0 0
1.7802 3.3642 0.7276 0.041 -0.848 -0.529 22 22 24 0 0
1.7649 3.3589 0.7317 -0.099 -0.961 0.259 22 22 24 0 0
1.4917 3.3512 0.8009 0.886 -0.462 -0.027 11 11 13 0 0
1.4353 2.8213 0.8374 0.939 0.168 -0.300 40 40 45 0 0
0.4534 1.9533 1.1215 0.951 -0.228 -0.209 166 164 165 0 0
0.4501 1.9380 1.1229 0.951 -0.228 -0.209 171 170 170 0 0
1.7096 3.7421 0.7452 0.954 0.138 -0.266 67 69 69 0 0
1.7186 3.6916 0.7450 0.961 -0.122 -0.250 47 46 46 0 0
1.7835 3.3653 0.7419 0.308 -0.951 -0.025 24 24 26 0 0
1.7670 3.3610 0.7462 0.051 -0.956 0.290 23 23 25 0 0
1.5198 3.2903 0.8118 0.963 -0.244 -0.111 10 10 12 0 0
1.2438 2.3390 0.9208 0.325 -0.522 0.788 11 12 16 0 0
0.4544 1.9380 1.1374 0.945 -0.167 -0.283 171 170 171 0 0
1.5193 3.3544 0.8249 0.835 -0.452 0.313 14 14 16 0 0
1.5105 3.3424 0.8276 0.827 -0.489 0.277 12 12 14 0 0
1.5128 3.2808 0.8295 0.928 -0.028 0.371 10 10 12 0 0
1.5144 2.9317 0.8430 0.786 -0.203 0.584 22 22 24 0 0
0.4518 1.9422 1.1534 0.869 -0.379 -0.318 171 170 171 0 0
1.6872 3.6690 0.7852 0.282 -0.104 -0.954 38 38 40 0 0
1.6943 3.6413 0.7844 0.619 0.248 -0.745 37 37 39 0 0
1.5134 3.2843 0.8447 0.900 -0.021 0.436 10 10 12 0 0
1.6441 3.8843 0.8038 0.853 0.390 -0.348 162 161 159 0 0
1.7387 3.6852 0.7869 0.975 0.213 -0.059 68 66 68 0 0
1.7300 3.6730 0.7896 0.756 -0.206 -0.621 54 53 55 0 0
1.5056 3.2952 0.8618 0.879 0.033 0.476 10 10 12 0 0
1.2762 2.6106 0.9468 -0.213 -0.136 -0.967 31 30 34 0 0
0.4608 1.9419 1.1822 0.891 -0.353 -0.284 171 170 170 0 0
1.7356 3.6719 0.8038 0.960 -0.047 -0.276 66 64 67 0 0
1.5304 3.4167 0.8664 0.776 -0.325 0.540 18 18 20 0 0
1.5088 3.2963 0.8764 0.850 -0.128 0.510 10 10 12 0 0
1.5121 3.2538 0.8771 0.778 -0.561 0.281 12 12 14 0 0
1.5379 3.1917 0.8727 0.099 -0.807 0.582 28 29 31 0 0
1.2357 2.3218 0.9830 -0.196 -0.248 -0.949 27 28 32 0 0
1.2109 2.3221 0.9895 -0.262 -0.368 -0.892 24 25 29 0 0
1.1994 2.3128 0.9928 -0.237 -0.392 -0.889 22 21 26 0 0
0.4583 1.9460 1.1983 0.886 -0.417 -0.204 171 170 171 0 0
1.6763 3.8613 0.8281 0.806 0.084 -0.586 164 163 161 0 0
1.7348 3.6772 0.8195 0.914 -0.118 0.389 52 50 54 0 0
1.8069 3.3839 0.8112 0.682 -0.679 -0.271 20 20 22 0 0
1.7970 3.3734 0.8142 0.234 -0.833 -0.501 23 23 25 0 0
1.4824 3.3840 0.8957 0.883 -0.427 0.192 14 14 16 0 0
1.4728 3.3725 0.8986 0.979 -0.111 0.170 12 12 14 0 0
1.5316 3.2011 0.8894 -0.146 -0.934 0.326 27 28 30 0 0
1.4388 2.7837 0.9285 0.531 -0.844 -0.075 40 39 44 0 0
0.6683 1.9069 1.1606 -0.056 -0.997 0.045 30 31 33 0 0
1.7351 3.7439 0.8327 0.974 -0.041 -0.221 64 62 67 0 0
1.7382 3.6783 0.8342 0.910 -0.060 0.410 47 45 50 0 0
1.8287 3.3872 0.8206 0.554 -0.255 -0.793 18 18 20 0 0
1.8213 3.3744 0.8230 0.446 -0.212 -0.870 22 22 24 0 0
1.4819 3.3885 0.9114 0.728 -0.546 -0.415 15 15 17 0 0
1.4983 3.3337 0.9090 0.913 0.378 -0.154 10 10 12 0 0
1.3676 2.7516 0.9634 -0.350 -0.720 -0.599 44 43 48 0 0
1.2054 2.3321 1.0205 0.520 -0.336 0.786 38 38 42 0 0
0.8662 1.9902 1.1212 0.636 0.307 -0.708 12 12 14 0 0
0.4662 1.9464 1.2274 0.881 -0.461 -0.109 171 170 170 0 0
1.6607 3.7170 0.8689 0.938 -0.036 0.345 49 49 51 0 0
1.8421 3.3787 0.8326 0.446 -0.212 -0.870 30 30 32 0 0
1.8378 3.3629 0.8343 0.446 -0.212 -0.870 27 27 29 0 0
1.5294 3.3898 0.9145 0.926 -0.371 -0.070 19 19 21 0 0
0.4686 1.9476 1.2424 0.881 -0.461 -0.109 170 170 170 0 0
1.7350 3.7321 0.8646 0.954 -0.276 0.115 48 47 51 0 0
1.7284 3.7177 0.8668 0.886 -0.162 -0.435 42 41 47 0 0
1.8475 3.3579 0.8471 0.737 -0.300 -0.606 28 29 31 0 0
1.8252 3.3592 0.8529 0.055 -0.841 -0.538 25 25 27 0 0
1.5256 3.3172 0.9336 0.847 0.313 -0.429 11 11 13 0 0
0.4320 1.9549 1.2674 -0.262 -0.961 0.085 169 171 170 0 0
1.7245 3.7681 0.8820 0.941 -0.204 0.270 66 66 68 0 0
1.7252 3.7464 0.8825 0.977 -0.169 0.128 52 51 55 0 0
1.7251 3.7255 0.8832 0.660 -0.163 -0.733 44 43 48 0 0
1.6431 3.7643 0.9038 0.323 -0.151 -0.934 36 36 38 0 0
1.6564 3.7303 0.9013 0.531 0.248 -0.811 36 36 38 0 0
1.8520 3.3578 0.8611 0.965 -0.239 -0.103 24 25 27 0 0
1.8303 3.3585 0.8668 0.366 -0.894 -0.259 24 25 27 0 0
1.2840 2.5698 1.0371 0.266 -0.959 -0.098 34 33 38 0 0
1.1724 2.3650 1.0732 0.321 -0.262 -0.910 38 37 42 0 0
1.1684 2.3502 1.0748 0.694 -0.720 -0.002 40 39 44 0 0
1.1523 2.3440 1.0792 0.694 -0.709 0.126 42 42 46 0 0
1.1035 2.2902 1.0939 0.883 -0.156 -0.442 42 41 46 0 0
1.7054 3.8553 0.9002 0.987 0.100 0.122 161 158 158 0 0
1.7362 3.7399 0.8955 0.985 -0.001 -0.174 58 58 60 0 0
1.7413 3.7140 0.8950 0.569 -0.202 -0.798 51 51 54 0 0
1.5323 3.3994 0.9605 0.873 -0.478 0.101 21 21 23 0 0
1.1513 2.3655 1.0940 0.809 -0.420 0.412 29 29 34 0 0
1.7009 3.8645 0.9171 0.879 0.432 -0.201 156 154 155 0 0
1.7386 3.7422 0.9106 0.975 0.024 -0.219 69 69 69 0 0
1.7521 3.7078 0.9080 0.709 -0.126 -0.694 61 61 61 0 0
1.5278 3.3875 0.9777 0.889 -0.456 0.036 21 21 23 0 0
1.5282 3.3470 0.9789 0.228 -0.925 0.303 15 15 17 0 0
1.6503 2.9663 0.9573 0.781 -0.466 0.416 28 28 30 0 0
1.6371 2.9398 0.9616 0.871 -0.247 0.425 23 23 25 0 0
1.1463 2.3544 1.1108 0.734 -0.217 0.644 20 21 25 0 0
1.1372 2.3431 1.1136 0.750 -0.223 0.622 23 24 28 0 0
1.0841 2.1697 1.1330 0.610 0.184 0.771 31 31 33 0 0
1.6914 3.9001 0.9347 0.829 0.412 -0.379 164 163 163 0 0
1.7072 3.8628 0.9315 0.837 0.383 -0.392 155 153 154 0 0
1.7504 3.7350 0.9234 0.908 0.035 -0.418 64 64 65 0 0
1.7509 3.7136 0.9239 0.863 -0.177 -0.473 65 65 66 0 0
1.5297 3.3899 0.9929 0.884 -0.466 0.025 21 21 23 0 0
1.5374 3.3628 0.9916 -0.033 -0.957 0.288 19 19 21 0 0
1.5200 3.3585 0.9964 0.227 -0.886 0.404 16 16 18 0 0
1.1433 2.3774 1.1261 0.662 -0.116 0.740 17 18 21 0 0
1.1375 2.3638 1.1281 0.650 -0.074 0.756 18 19 23 0 0
1.1128 2.2575 1.1378 0.971 -0.041 0.237 39 39 42 0 0
1.1027 2.2470 1.1408 0.836 -0.530 0.144 41 40 45 0 0
1.0703 2.2520 1.1494 0.055 -0.993 -0.102 41 40 45 0 0
1.7433 3.8099 0.9391 0.819 0.095 -0.566 96 96 96 0 0
1.7562 3.7337 0.9377 0.851 -0.036 -0.523 53 52 55 0 0
1.7471 3.7218 0.9405 0.893 -0.441 0.092 53 52 56 0 0
1.7386 3.7093 0.9431 0.940 -0.267 0.211 54 54 56 0 0
1.5371 3.3671 1.0072 -0.134 -0.986 0.102 19 19 21 0 0
1.1143 2.2770 1.1520 0.806 0.185 0.563 25 26 28 0 0
1.7590 3.7565 0.9521 0.776 0.064 -0.628 60 59 57 0 0
1.7503 3.7022 0.9559 0.893 -0.399 0.206 50 48 52 0 0
1.5450 3.3641 1.0209 -0.213 -0.972 0.095 21 21 23 0 0
1.6062 3.0733 1.0118 0.862 0.448 -0.238 34 33 38 0 0
0.9859 2.7192 1.1905 0.051 -0.882 0.469 68 68 66 0 0
0.8778 2.7624 1.2188 0.226 -0.971 -0.083 103 103 102 0 0
1.7565 3.7215 0.9695 0.743 -0.604 0.288 47 45 51 0 0
1.7492 3.7078 0.9718 0.824 -0.462 0.328 47 45 50 0 0
1.8143 3.3988 0.9618 0.351 -0.908 0.226 30 31 33 0 0
1.5497 3.3639 1.0353 -0.188 -0.981 0.053 20 20 22 0 0
1.4993 3.3693 1.0490 0.397 -0.874 0.279 15 15 17 0 0
1.6289 2.9807 1.0233 0.665 -0.685 0.297 30 30 32 0 0
1.2840 2.6999 1.1250 0.876 -0.232 0.424 17 17 19 0 0
0.9730 2.7323 1.2095 -0.166 -0.971 0.170 109 109 107 0 0
0.9364 2.7409 1.2193 -0.115 -0.981 0.156 156 156 154 0 0
0.9050 2.7454 1.2278 -0.093 -0.987 0.129 160 160 158 0 0
1.0642 2.3717 1.1937 0.768 0.047 0.639 30 30 34 0 0
1.0675 2.3515 1.1933 0.785 0.070 0.616 18 18 20 0 0
1.7473 3.7352 0.9875 0.424 -0.809 -0.407 43 40 47 0 0
1.7450 3.7165 0.9886 0.878 -0.466 -0.111 40 38 43 0 0
1.8295 3.3885 0.9733 0.778 -0.188 0.599 31 31 33 0 0
1.5387 3.3780 1.0537 0.948 0.307 0.088 20 20 22 0 0
1.5192 3.3755 1.0591 0.520 -0.643 0.561 19 19 21 0 0
1.5055 3.3678 1.0631 0.520 -0.643 0.561 15 15 17 0 0
1.4915 3.3603 1.0671 0.415 -0.738 0.532 14 14 16 0 0
1.6401 2.9939 1.0351 -0.230 -0.928 -0.292 36 36 40 0 0
1.6329 2.9810 1.0374 0.559 -0.829 0.020 35 35 37 0 0
0.9370 2.7437 1.2350 -0.195 -0.981 -0.016 157 157 155 0 0
0.9118 2.7436 1.2419 -0.090 -0.995 0.040 167 167 165 0 0
0.8661 2.7588 1.2542 0.036 -0.992 -0.123 167 167 165 0 0
1.0519 2.3656 1.2125 0.789 0.141 0.598 31 32 34 0 0
1.0584 2.3253 1.2117 0.835 0.154 0.528 13 14 16 0 0
1.0603 2.3062 1.2117 0.843 0.132 0.521 16 16 18 0 0
1.0307 2.0816 1.2253 0.696 -0.577 0.427 38 38 40 0 0
1.7239 3.7209 1.0102 0.622 -0.260 -0.739 36 35 39 0 0
1.8281 3.4142 0.9884 0.641 -0.535 0.550 30 30 32 0 0
1.8320 3.3904 0.9879 0.755 -0.461 0.466 30 30 32 0 0
1.8207 3.3811 0.9913 0.752 -0.405 -0.520 31 31 33 0 0
1.5185 3.3601 1.0755 0.883 0.109 -0.457 16 16 18 0 0
1.5217 3.3372 1.0751 0.893 0.278 -0.355 15 15 17 0 0
1.6151 3.0385 1.0562 0.802 0.242 -0.547 38 37 42 0 0
0.9108 2.7478 1.2581 -0.195 -0.970 -0.148 167 167 165 0 0
0.8785 2.7529 1.2669 -0.195 -0.970 -0.148 168 168 166 0 0
1.0466 2.3188 1.2305 0.857 0.137 0.496 17 17 20 0 0
1.0476 2.3003 1.2306 0.856 0.064 0.512 19 19 21 0 0
1.7393 3.7103 1.0220 0.316 -0.204 -0.927 35 35 37 0 0
1.8255 3.4008 1.0049 0.637 -0.316 -0.703 28 28 30 0 0
1.8318 3.3748 1.0037 0.388 -0.244 -0.889 30 30 32 0 0
1.5292 3.3747 1.0880 0.924 0.369 -0.101 20 20 22 0 0
1.5301 3.3537 1.0882 0.909 0.333 -0.251 17 17 19 0 0
1.5268 3.3366 1.0895 0.897 0.294 -0.330 16 16 18 0 0
1.6205 3.0569 1.0696 0.838 0.427 -0.339 32 31 34 0 0
1.6360 3.0241 1.0660 0.828 0.380 -0.412 37 36 41 0 0
1.6368 2.9852 1.0667 -0.174 -0.894 -0.413 37 36 41 0 0
1.2717 2.7571 1.1734 0.929 0.053 0.366 48 48 50 0 0
0.8868 2.7501 1.2807 -0.177 -0.969 -0.173 168 168 166 0 0
1.0287 2.3344 1.2505 0.877 0.062 0.476 16 18 21 0 0
1.0300 2.3157 1.2505 0.916 -0.019 0.400 14 15 17 0 0
1.0357 2.2939 1.2494 0.895 0.105 0.434 15 16 19 0 0
1.7762 3.7411 1.0269 0.999 -0.024 -0.035 67 67 67 0 0
1.8311 3.4199 1.0183 0.377 0.187 -0.907 24 24 26 0 0
1.8531 3.3588 1.0135 0.451 0.066 -0.890 30 30 32 0 0
1.5300 3.3781 1.1035 0.923 0.382 0.041 23 23 25 0 0
1.5661 3.2061 1.0970 0.046 -0.646 -0.762 12 12 14 0 0
1.6531 2.9748 1.0776 -0.169 -0.835 -0.524 37 36 41 0 0
1.6413 2.9470 1.0815 0.871 -0.162 -0.463 27 27 29 0 0
1.7564 3.7443 1.0482 0.556 -0.831 0.031 63 63 63 0 0
1.7491 3.7306 1.0505 0.892 -0.439 0.108 59 59 60 0 0
1.6922 3.7659 1.0658 0.862 0.099 0.497 55 55 57 0 0
1.5569 3.2976 1.1133 0.898 0.425 -0.115 16 16 18 0 0
1.6699 2.9640 1.0883 -0.180 -0.803 -0.569 37 36 41 0 0
1.6495 2.9436 1.0944 0.738 -0.414 -0.532 30 30 32 0 0
1.2777 3.0264 1.1973 0.749 -0.451 -0.485 12 12 14 0 0
0.9019 2.7455 1.3086 -0.394 -0.862 -0.318 162 162 160 0 0
1.7425 3.8907 1.0652 0.880 0.092 -0.467 160 159 156 0 0
1.7742 3.7734 1.0585 0.906 0.036 -0.422 52 52 54 0 0
1.7752 3.7513 1.0587 0.906 0.036 -0.422 50 50 52 0 0
1.6845 3.7781 1.0838 0.910 0.071 0.409 48 48 50 0 0
1.6333 3.0379 1.1124 0.893 0.446 0.063 36 35 40 0 0
1.6746 2.9447 1.1025 0.219 -0.947 -0.236 37 36 41 0 0
1.6571 2.9409 1.1076 0.749 -0.491 -0.446 35 34 38 0 0
1.1890 2.9090 1.2404 0.996 0.054 0.072 30 30 32 0 0
1.1935 2.8863 1.2396 0.984 0.165 -0.060 30 30 32 0 0
0.9258 2.7311 1.3182 -0.394 -0.862 -0.318 146 146 145 0 0
1.7485 3.8893 1.0797 0.894 0.253 -0.369 161 160 158 0 0
1.7534 3.8628 1.0787 0.867 0.210 -0.451 119 121 120 0 0
1.7793 3.7729 1.0730 0.949 0.054 -0.312 54 54 56 0 0
1.6857 3.7814 1.0994 0.984 -0.051 0.169 50 50 52 0 0
1.6782 2.9453 1.1167 0.535 -0.843 -0.054 38 37 42 0 0
1.6615 2.9407 1.1215 0.877 -0.448 -0.173 37 37 41 0 0
1.1853 2.8963 1.2575 0.968 -0.232 -0.100 26 26 28 0 0
1.0168 2.2657 1.3168 0.863 0.322 0.389 14 13 18 0 0
1.0256 2.2419 1.3147 0.881 0.296 0.369 14 13 18 0 0
1.8164 3.8249 1.0775 -0.045 -0.980 -0.195 160 159 157 0 0
1.7813 3.7967 1.0880 0.939 0.108 -0.325 62 63 63 0 0
1.7840 3.7728 1.0876 0.939 0.108 -0.325 52 52 54 0 0
1.7757 3.7600 1.0902 0.915 -0.076 -0.396 46 46 48 0 0
1.6906 3.7811 1.1141 0.896 -0.403 0.187 55 55 57 0 0
1.5230 3.3202 1.1698 0.282 -0.767 -0.576 14 14 16 0 0
1.6736 2.9531 1.1331 -0.145 -0.935 -0.323 39 38 43 0 0
1.6648 2.9416 1.1358 0.877 -0.448 -0.173 39 38 42 0 0
1.1874 2.8983 1.2728 0.968 -0.232 -0.100 23 24 26 0 0
1.1913 2.8760 1.2720 0.997 -0.039 -0.059 20 23 27 0 0
1.7830 3.7783 1.1037 0.915 -0.076 -0.396 52 52 55 0 0
1.7817 3.7585 1.1044 0.915 -0.076 -0.396 45 44 47 0 0
1.7424 3.7767 1.1154 -0.311 -0.847 -0.431 41 40 45 0 0
1.6842 2.9477 1.1454 -0.208 -0.927 -0.311 39 38 44 0 0
1.6681 2.9425 1.1501 0.877 -0.448 -0.173 40 39 42 0 0
1.2620 2.6918 1.2705 0.869 -0.394 -0.299 25 26 27 0 0
1.8192 3.8315 1.1085 0.645 -0.764 -0.009 163 163 161 0 0
1.8077 3.8218 1.1119 0.645 -0.764 -0.009 136 134 134 0 0
1.7930 3.7730 1.1169 0.947 0.034 -0.321 55 54 59 0 0
1.7828 3.7620 1.1200 0.818 -0.213 -0.535 47 46 51 0 0
1.7322 3.7702 1.1344 -0.129 -0.490 -0.862 38 38 41 0 0
1.6829 2.9335 1.1612 0.077 -0.873 -0.482 40 40 42 0 0
1.6777 2.9191 1.1629 0.814 -0.525 -0.250 41 41 41 0 0
0.8844 2.7184 1.3944 -0.356 -0.893 -0.275 167 167 165 0 0
1.8301 3.8251 1.1214 0.102 -0.932 0.349 163 163 161 0 0
1.6684 2.9307 1.1806 0.515 -0.857 -0.003 43 43 43 0 0
1.6679 2.9122 1.1810 0.721 -0.645 -0.254 37 37 38 0 0
0.8928 2.7155 1.4082 -0.413 -0.863 -0.290 163 163 161 0 0
1.7972 3.7356 1.1480 0.783 -0.527 -0.331 61 60 65 0 0
1.7818 3.7299 1.1526 0.232 -0.708 -0.667 54 54 57 0 0
1.7805 3.6892 1.1535 0.350 0.061 -0.935 44 43 48 0 0
1.6703 2.9328 1.1953 0.518 -0.855 0.021 42 42 42 0 0
1.6573 2.9250 1.1992 0.518 -0.855 0.021 41 41 42 0 0
1.6456 2.9160 1.2027 0.842 -0.537 0.059 30 30 32 0 0
1.1058 2.6911 1.3626 0.155 -0.950 -0.270 18 18 20 0 0
1.0922 2.6826 1.3667 0.024 -0.954 -0.300 28 28 30 0 0
1.8235 3.7350 1.1563 0.882 -0.001 -0.471 63 62 65 0 0
1.7863 3.7512 1.1670 0.936 -0.284 0.209 63 63 65 0 0
1.7851 3.7101 1.1678 0.982 -0.188 -0.013 59 58 64 0 0
1.6636 2.9233 1.2126 0.772 -0.623 0.123 41 41 42 0 0
1.6464 2.9191 1.2177 0.720 -0.693 0.043 36 36 39 0 0
1.7732 3.7477 1.1869 0.831 -0.319 0.456 52 51 56 0 0
1.7708 3.6869 1.1882 0.924 0.319 0.209 50 49 54 0 0
1.6512 2.9187 1.2316 0.882 -0.469 0.048 42 42 43 0 0
1.6394 2.9098 1.2352 0.831 -0.555 -0.030 36 36 37 0 0
0.9156 2.6897 1.4501 -0.411 -0.863 -0.293 146 146 146 0 0
1.9015 3.3991 1.1684 0.911 0.313 0.269 37 36 40 0 0
1.6530 2.9209 1.2464 0.909 -0.410 0.072 44 44 44 0 0
1.6446 2.9091 1.2490 0.634 -0.772 -0.049 41 41 41 0 0
1.2315 2.6426 1.3735 0.614 -0.789 0.015 14 14 16 0 0
1.1369 2.6776 1.4010 0.456 -0.758 -0.466 13 14 16 0 0
0.9361 2.2916 1.4640 -0.064 -0.735 -0.675 167 167 167 0 0
1.8266 3.7668 1.2029 0.518 -0.804 -0.291 51 51 53 0 0
1.7795 3.7718 1.2168 0.669 -0.743 0.017 47 47 49 0 0
1.7768 3.7533 1.2178 0.647 -0.599 0.472 50 50 52 0 0
1.7665 3.7424 1.2209 0.337 -0.640 0.691 53 53 55 0 0
1.7539 3.7338 1.2247 0.964 0.150 -0.222 58 58 60 0 0
1.7671 3.6786 1.2213 0.884 0.408 -0.229 61 61 64 0 0
1.8831 3.4413 1.1890 0.988 0.037 0.153 44 44 46 0 0
1.9160 3.3893 1.1796 0.920 0.208 0.334 40 40 44 0 0
1.6462 2.9114 1.2638 0.656 -0.715 -0.242 46 46 46 0 0
1.6324 2.9042 1.2679 0.626 -0.703 -0.336 33 33 33 0 0
1.6186 2.8780 1.2723 0.774 -0.630 -0.064 26 26 28 0 0
1.1467 2.6735 1.4140 0.252 -0.827 -0.503 13 14 16 0 0
0.9259 2.6698 1.4795 -0.365 -0.832 -0.417 140 140 140 0 0
1.7636 3.9431 1.2363 0.859 0.421 -0.291 167 165 166 0 0
1.7772 3.6731 1.2343 0.548 0.295 -0.783 53 52 57 0 0
1.9129 3.3966 1.1960 0.883 0.326 0.339 35 36 40 0 0
1.5302 3.3102 1.3107 -0.200 -0.980 0.022 13 13 15 0 0
1.6536 2.9088 1.2769 0.761 -0.542 -0.357 47 47 47 0 0
1.6425 2.8993 1.2803 0.203 -0.804 -0.560 42 42 42 0 0
1.2450 2.6205 1.4009 0.927 -0.350 0.138 15 15 17 0 0
1.1389 2.6454 1.4323 0.709 -0.593 -0.381 18 19 21 0 0
1.7950 3.7867 1.2442 0.202 -0.978 -0.053 44 43 48 0 0
1.7564 3.7830 1.2558 0.888 -0.238 -0.394 37 37 40 0 0
1.9028 3.4107 1.2144 0.903 0.427 0.053 26 27 31 0 0
1.5083 3.2736 1.3334 0.196 -0.958 0.210 13 13 15 0 0
1.6591 2.8889 1.2908 -0.084 -0.903 -0.422 46 46 46 0 0
1.6400 2.8861 1.2965 0.200 -0.929 -0.311 35 35 37 0 0
1.1457 2.6622 1.4459 0.941 -0.228 -0.251 13 14 16 0 0
1.7746 3.9415 1.2656 0.888 0.416 -0.196 168 166 167 0 0
1.8133 3.7729 1.2548 0.171 -0.957 -0.237 47 46 52 0 0
1.7739 3.7701 1.2667 0.193 -0.497 -0.846 37 36 41 0 0
1.8339 3.5226 1.2500 0.864 0.079 0.497 21 22 24 0 0
1.6785 2.8760 1.3003 -0.027 -0.923 -0.383 45 45 45 0 0
1.6573 2.8751 1.3067 -0.241 -0.904 -0.352 46 46 48 0 0
0.9266 2.6415 1.5277 -0.380 -0.755 -0.535 109 109 109 0 0
0.8791 2.6575 1.5419 -0.382 -0.743 -0.549 153 153 153 0 0
1.8236 3.7672 1.2678 0.244 -0.913 -0.328 56 55 59 0 0
1.8054 3.7643 1.2733 0.316 -0.902 -0.293 48 47 51 0 0
1.8239 3.5574 1.2687 0.882 -0.247 -0.401 26 25 29 0 0
1.9043 3.3976 1.2451 0.751 0.529 -0.395 29 28 32 0 0
1.9145 3.3475 1.2422 0.085 -0.813 0.576 32 33 37 0 0
1.5072 3.3229 1.3654 -0.296 -0.947 -0.123 12 12 14 0 0
1.4911 3.3171 1.3703 -0.186 -0.960 -0.208 13 13 15 0 0
1.6721 2.8663 1.3176 -0.329 -0.900 -0.288 44 44 44 0 0
0.8287 2.6597 1.5733 -0.384 -0.775 -0.503 169 169 169 0 0
1.8269 3.7686 1.2829 0.159 -0.954 -0.252 66 66 68 0 0
1.8067 3.7677 1.2890 0.642 -0.765 0.055 61 61 63 0 0
1.7602 3.7931 1.3030 0.959 -0.237 0.154 56 55 59 0 0
1.7597 3.7722 1.3032 0.967 -0.192 0.169 52 51 56 0 0
1.7597 3.7509 1.3033 0.625 -0.465 0.628 49 48 53 0 0
1.8153 3.5910 1.2870 0.557 -0.691 0.460 38 37 41 0 0
1.8323 3.5535 1.2819 0.965 -0.138 -0.224 38 37 42 0 0
1.9235 3.3432 1.2550 0.003 -0.992 -0.127 33 34 38 0 0
1.5140 3.3209 1.3794 -0.170 -0.985 0.040 12 12 14 0 0
1.5095 3.2646 1.3809 0.197 -0.268 -0.943 12 12 14 0 0
1.1848 2.6239 1.4816 0.082 -0.946 0.313 22 23 25 0 0
0.8174 2.6523 1.5931 -0.362 -0.814 -0.455 170 170 170 0 0
1.8213 3.7788 1.3006 0.382 -0.922 -0.056 54 54 56 0 0
1.8434 3.5060 1.2945 0.900 0.434 -0.044 37 36 41 0 0
1.9036 3.4069 1.2764 0.851 0.525 -0.014 34 33 38 0 0
1.9295 3.3416 1.2686 -0.039 -0.982 -0.185 33 34 38 0 0
1.9195 3.1728 1.2721 0.669 -0.693 -0.269 16 16 18 0 0
1.5140 3.3250 1.3954 -0.156 -0.961 0.229 15 15 17 0 0
1.5419 3.2398 1.3871 0.792 -0.026 -0.610 11 11 13 0 0
1.6429 2.8605 1.3571 0.486 -0.722 -0.492 37 37 39 0 0
0.8459 2.6349 1.6007 -0.359 -0.829 -0.429 170 170 170 0 0
1.7906 3.8361 1.3261 0.507 -0.550 -0.664 50 50 53 0 0
1.7642 3.7984 1.3342 0.927 -0.300 -0.223 53 52 56 0 0
1.8355 3.5386 1.3126 0.757 0.223 0.614 41 41 45 0 0
1.9329 3.3426 1.2830 -0.086 -0.720 -0.689 34 35 39 0 0
1.6827 2.8493 1.3603 -0.283 -0.885 -0.370 46 46 47 0 0
1.6508 2.8576 1.3701 0.268 -0.879 -0.395 43 43 45 0 0
1.7612 3.8061 1.3513 0.465 -0.020 -0.885 51 51 54 0 0
1.7393 3.8066 1.3580 0.551 0.285 -0.785 56 56 58 0 0
1.6557 2.8571 1.3840 0.369 -0.823 -0.432 47 46 51 0 0
1.8235 3.8335 1.3483 0.714 0.022 -0.700 57 58 60 0 0
1.7942 3.8418 1.3574 0.385 -0.459 -0.801 47 46 51 0 0
1.9330 3.1528 1.3138 0.839 0.510 -0.189 18 18 20 0 0
1.5166 3.3349 1.4428 -0.193 -0.973 0.130 21 21 23 0 0
1.6626 2.8549 1.3972 0.422 -0.884 -0.199 43 42 47 0 0
1.8401 3.8427 1.3593 0.790 -0.478 -0.383 74 74 76 0 0
1.8232 3.8386 1.3646 0.856 -0.405 -0.322 58 59 61 0 0
1.8168 3.8235 1.3666 0.856 -0.405 -0.322 48 47 52 0 0
1.7875 3.8103 1.3756 0.403 -0.894 -0.195 40 39 44 0 0
1.7980 3.7783 1.3723 0.553 0.003 -0.833 37 36 42 0 0
1.7825 3.7513 1.3771 0.830 0.270 -0.489 37 36 41 0 0
1.6708 2.8516 1.4100 0.276 -0.928 -0.251 42 41 46 0 0
1.6533 2.8475 1.4154 0.753 -0.635 -0.172 41 41 45 0 0
1.6082 2.7537 1.4293 0.159 -0.974 0.161 27 27 29 0 0
1.8453 3.8421 1.3739 0.923 -0.364 -0.129 77 78 79 0 0
1.8257 3.8407 1.3800 0.807 -0.583 -0.096 61 62 64 0 0
1.8171 3.8280 1.3827 0.709 -0.671 -0.218 51 51 55 0 0
1.7958 3.8066 1.3893 0.355 -0.897 -0.265 38 38 43 0 0
1.7854 3.7958 1.3925 0.937 -0.281 -0.209 36 35 40 0 0
1.7823 3.7774 1.3934 0.959 -0.094 -0.268 33 33 37 0 0
1.5658 2.7547 1.4579 -0.477 -0.824 -0.305 21 21 23 0 0
1.1641 2.6411 1.5829 0.889 -0.278 0.363 33 32 36 0 0
1.1735 2.6153 1.5798 0.916 -0.292 0.277 29 28 32 0 0
1.1621 2.6053 1.5834 0.474 -0.726 -0.498 27 27 30 0 0
1.1304 2.6105 1.5933 0.225 -0.843 -0.488 29 28 31 0 0
1.1783 2.6336 1.5943 0.553 0.442 -0.706 44 44 45 0 0
1.1714 2.6016 1.5963 0.790 -0.200 -0.580 40 38 43 0 0
1.1592 2.5921 1.6001 0.579 -0.623 -0.526 41 39 44 0 0
1.0720 2.6014 1.6275 -0.132 -0.979 -0.157 56 56 58 0 0
0.8465 2.6352 1.6983 -0.334 -0.934 0.129 171 171 169 0 0
1.8503 3.8250 1.4047 0.996 0.005 -0.093 75 76 78 0 0
1.8580 3.7790 1.4181 0.582 -0.618 -0.528 66 68 67 0 0
1.8447 3.7712 1.4223 0.538 -0.643 -0.544 59 60 64 0 0
1.7876 3.6587 1.4397 0.140 -0.975 -0.172 38 38 40 0 0
1.7863 3.6389 1.4400 0.407 -0.515 -0.754 38 38 40 0 0
1.5414 3.3331 1.5155 -0.188 -0.884 0.429 22 22 24 0 0
1.8358 3.9580 1.4427 0.778 -0.497 0.384 170 170 170 0 0
1.8655 3.7761 1.4319 0.455 -0.845 -0.283 62 61 65 0 0
1.7935 3.6574 1.4539 0.132 -0.977 -0.167 38 37 40 0 0
1.5473 3.3523 1.5299 0.154 -0.720 0.676 21 21 23 0 0
1.5285 3.3489 1.5359 -0.085 -0.807 0.584 22 22 24 0 0
1.5393 3.2583 1.5318 0.873 0.455 0.176 13 13 15 0 0
1.5390 2.6786 1.5276 0.615 0.251 -0.747 91 89 92 0 0
1.7743 2.7856 1.4689 0.691 -0.277 -0.667 36 36 38 0 0
1.9280 3.2495 1.4392 -0.089 -0.979 -0.182 30 30 32 0 0
1.7893 2.7951 1.4794 0.638 -0.253 -0.727 36 36 36 0 0
1.7840 2.7809 1.4810 0.691 -0.277 -0.667 50 50 50 0 0
1.7588 2.7092 1.4884 0.521 -0.307 -0.796 87 86 88 0 0
1.2853 2.5690 1.6389 -0.062 -0.977 -0.202 60 60 62 0 0
1.2606 2.5693 1.6468 -0.121 -0.946 -0.302 64 64 66 0 0
1.2352 2.5700 1.6549 -0.121 -0.946 -0.302 67 67 68 0 0
1.8503 3.8488 1.4861 0.654 -0.721 -0.231 61 60 62 0 0
1.8414 3.8363 1.4888 0.452 -0.858 -0.243 50 49 53 0 0
1.9353 3.2468 1.4524 -0.071 -0.980 -0.187 30 29 33 0 0
1.7997 2.7900 1.4913 0.678 -0.450 -0.581 50 50 49 0 0
1.7918 2.7780 1.4937 0.708 -0.197 -0.678 84 84 83 0 0
1.5899 2.6295 1.5571 0.643 0.353 -0.680 87 86 91 0 0
1.8593 3.8660 1.4997 0.117 -0.988 -0.105 74 75 77 0 0
1.9561 3.3513 1.4624 0.592 0.490 -0.640 30 30 32 0 0
1.9428 3.2438 1.4655 0.024 -0.940 -0.340 31 30 35 0 0
1.8080 2.7865 1.5038 0.678 -0.450 -0.581 84 84 82 0 0
1.8018 2.7731 1.5056 0.708 -0.197 -0.678 90 90 88 0 0
1.5996 2.6807 1.5699 0.457 0.276 -0.846 100 100 103 0 0
1.6060 2.6569 1.5676 0.458 0.335 -0.823 87 87 89 0 0
1.6228 2.6249 1.5618 0.453 0.360 -0.816 65 65 70 0 0
0.9729 2.6227 1.7720 0.882 0.446 -0.156 59 60 64 0 0
1.9798 3.3126 1.4699 0.361 -0.911 -0.197 34 34 36 0 0
1.9349 3.2356 1.4835 -0.205 -0.945 -0.254 28 28 30 0 0
1.8205 2.7982 1.5151 0.518 -0.445 -0.731 84 83 83 0 0
1.8131 2.7858 1.5174 0.518 -0.445 -0.731 86 86 85 0 0
1.6527 2.6409 1.5676 0.262 0.254 -0.931 61 60 65 0 0
1.6803 2.6001 1.5581 0.204 0.321 -0.925 42 41 46 0 0
1.8711 3.8202 1.5279 0.746 -0.662 -0.067 61 60 66 0 0
1.8575 2.8074 1.5184 0.254 -0.162 -0.954 67 65 67 0 0
1.8339 2.7903 1.5259 0.336 -0.434 -0.836 85 85 85 0 0
1.8768 3.8407 1.5426 0.763 -0.639 -0.099 78 79 79 0 0
1.8740 3.8220 1.5432 0.746 -0.662 -0.067 69 68 74 0 0
1.9053 2.8448 1.5185 -0.010 0.145 -0.989 14 14 16 0 0
1.8961 2.8152 1.5211 0.152 -0.664 0.733 46 46 46 0 0
1.8805 3.8416 1.5577 0.727 -0.682 -0.071 69 70 73 0 0
1.9604 2.8188 1.5152 -0.022 0.027 -0.999 23 23 25 0 0
1.7340 2.7143 1.5880 -0.021 0.025 -0.999 59 59 62 0 0
1.8842 3.8426 1.5728 0.580 -0.808 -0.105 58 59 63 0 0
1.9608 3.2079 1.5368 0.928 0.000 -0.372 27 28 30 0 0
1.9136 3.2326 1.5528 -0.372 -0.700 -0.610 21 22 24 0 0
1.9008 3.8302 1.5834 0.907 -0.412 -0.093 60 60 65 0 0
1.8866 3.8233 1.5880 0.762 -0.639 -0.104 52 50 57 0 0
1.9061 3.2039 1.5704 0.548 0.268 -0.792 17 17 19 0 0
0.9154 2.6660 1.8896 0.776 0.564 0.283 47 47 51 0 0
1.9783 3.3801 1.5653 0.120 -0.791 -0.600 32 31 36 0 0
1.9267 3.1888 1.5788 0.564 0.252 -0.786 18 18 20 0 0
0.8805 2.6950 1.9183 0.754 0.577 0.315 47 48 51 0 0
2.0101 3.3377 1.5852 0.299 -0.084 -0.951 43 43 46 0 0
1.9863 3.2202 1.5907 1.000 0.006 0.004 41 39 44 0 0
1.8317 2.7058 1.6318 0.312 0.415 -0.855 20 19 25 0 0
0.8895 2.6951 1.9484 0.955 0.266 0.133 45 46 50 0 0
1.9965 3.2346 1.6032 0.910 0.088 -0.406 53 53 53 0 0
0.8766 2.5367 1.9658 -0.449 -0.850 -0.275 157 157 157 0 0
2.0417 3.2753 1.6044 0.976 -0.123 -0.180 58 58 58 0 0
0.8692 2.7169 1.9890 0.686 0.537 -0.490 45 45 50 0 0
0.8450 2.5437 1.9932 -0.431 -0.860 -0.272 171 171 171 0 0
1.9335 3.9562 1.6735 0.744 -0.659 0.111 174 173 171 0 0
1.9139 3.9548 1.6802 0.845 -0.508 0.168 173 172 172 0 0
1.9055 3.9417 1.6827 0.845 -0.508 0.168 170 168 171 0 0
1.8973 3.9283 1.6852 0.953 -0.274 0.127 159 158 158 0 0
1.8923 3.9116 1.6865 0.953 -0.274 0.127 112 112 114 0 0
1.9279 3.7664 1.6708 0.937 0.204 -0.284 62 61 66 0 0
1.8590 2.7681 1.6698 0.667 0.247 -0.703 45 44 48 0 0
1.8597 2.7487 1.6690 0.654 0.300 -0.694 46 45 48 0 0
1.8815 2.7114 1.6607 0.639 0.154 -0.754 46 46 48 0 0
0.8711 2.5283 2.0004 -0.423 -0.868 -0.259 168 168 168 0 0
0.8256 2.5419 2.0162 -0.381 -0.870 -0.314 176 176 176 0 0
1.9179 3.9556 1.6953 0.786 -0.576 0.223 174 172 173 0 0
1.9083 3.9437 1.6983 0.786 -0.576 0.223 171 169 171 0 0
1.8987 3.9317 1.7013 0.786 -0.576 0.223 159 159 159 0 0
1.8891 3.9198 1.7043 0.786 -0.576 0.223 110 109 111 0 0
1.9192 3.8016 1.6909 0.795 0.135 -0.591 67 67 70 0 0
1.9544 2.8014 1.6533 0.254 -0.483 -0.838 28 28 32 0 0
1.9566 2.7808 1.6520 0.630 0.079 -0.772 33 33 38 0 0
1.9465 2.7709 1.6552 0.797 -0.065 -0.600 38 38 43 0 0
1.9454 2.7531 1.6551 0.801 -0.543 -0.253 43 43 48 0 0
1.8828 2.7700 1.6770 0.753 -0.080 -0.653 47 45 50 0 0
1.8826 2.7328 1.6761 0.744 0.221 -0.631 46 45 49 0 0
1.8906 2.6887 1.6722 0.697 0.325 -0.639 41 41 43 0 0
1.9228 3.9554 1.7102 0.684 -0.726 0.071 172 172 172 0 0
1.9116 3.9452 1.7138 0.684 -0.726 0.071 168 168 168 0 0
1.9004 3.9349 1.7174 0.684 -0.726 0.071 151 151 151 0 0
1.8923 3.9214 1.7198 0.930 -0.366 0.024 93 93 93 0 0
1.9247 2.7562 1.6775 0.597 -0.468 0.652 44 43 48 0 0
0.8620 2.5413 2.0368 -0.315 -0.949 0.009 164 164 162 0 0
1.9113 3.9724 1.7312 0.918 -0.279 -0.282 172 172 172 0 0
1.9065 3.9554 1.7324 0.918 -0.279 -0.282 167 167 167 0 0
1.9017 3.9384 1.7335 0.918 -0.279 -0.282 137 137 137 0 0
1.8971 3.9213 1.7346 0.941 -0.107 -0.322 86 86 86 0 0
0.9786 2.7070 2.0178 -0.320 -0.216 -0.922 40 39 44 0 0
0.9387 2.6791 2.0308 -0.236 -0.099 -0.967 39 38 43 0 0
1.9119 3.9768 1.7477 0.859 -0.249 -0.448 172 172 172 0 0
1.9075 3.9594 1.7487 0.859 -0.249 -0.448 166 166 166 0 0
1.9286 3.1844 1.7190 0.316 0.521 -0.793 44 41 48 0 0
