ply
format ascii 1.0
element vertex 873
property float x
property float y
property float z
property float nx
property float ny
property float nz
property uchar diffuse_red
property uchar diffuse_green
property uchar diffuse_blue
property uchar class
property uchar detection
end_header
0.8151 2.4741 -0.0273 -0.919 -0.357 -0.169 61 60 66 0 0
0.7942 2.6970 -0.0516 -0.951 0.089 -0.298 53 52 55 0 0
0.8476 2.7320 -0.0635 -0.843 0.199 0.500 59 57 60 0 0
0.8028 2.8820 -0.0755 -0.841 0.125 -0.526 60 60 62 0 0
0.7383 3.1976 -0.1051 -0.702 0.393 -0.595 59 58 60 0 0
0.9200 2.3723 -0.0155 -0.459 -0.882 0.108 119 119 119 0 0
0.8778 2.3828 -0.0109 -0.863 -0.256 0.435 63 64 64 0 0
0.8664 2.4100 -0.0126 -0.798 -0.587 0.139 48 49 50 0 0
0.9331 3.3950 -0.1424 -0.579 0.577 -0.576 153 152 150 0 0
0.9230 3.4075 -0.1425 -0.788 0.520 -0.330 167 166 164 0 0
0.9458 2.3618 -0.0036 -0.406 -0.912 0.057 163 163 163 0 0
0.8848 2.3849 0.0020 -0.865 -0.442 0.238 49 50 50 0 0
0.8729 2.3980 0.0020 -0.796 -0.599 0.082 47 48 47 0 0
0.8189 2.4634 0.0015 -0.775 -0.405 -0.485 90 90 89 0 0
0.8058 2.5746 -0.0103 -0.765 0.010 -0.644 42 42 44 0 0
0.9169 3.4224 -0.1291 -0.863 0.212 -0.458 169 168 167 0 0
0.8851 2.3581 0.0193 -0.829 0.424 0.365 148 148 148 0 0
0.8832 2.3862 0.0162 -0.732 -0.655 0.189 47 47 47 0 0
0.8715 2.3993 0.0162 -0.732 -0.655 0.189 49 49 49 0 0
0.8596 2.4124 0.0162 -0.679 -0.724 0.120 52 52 53 0 0
0.7664 2.7262 -0.0094 -0.973 -0.124 0.194 29 29 31 0 0
0.9241 3.4401 -0.1179 -0.735 0.295 -0.611 172 170 172 0 0
0.8965 3.4489 -0.1153 -0.849 -0.456 -0.266 171 171 171 0 0
0.8919 2.3602 0.0323 -0.829 0.424 0.365 120 120 120 0 0
0.8735 2.4010 0.0298 -0.732 -0.655 0.189 48 48 48 0 0
0.8618 2.4141 0.0298 -0.732 -0.655 0.189 49 49 50 0 0
0.7312 2.5554 0.0301 -0.762 -0.233 -0.604 29 29 31 0 0
0.6801 2.8422 0.0021 -0.981 0.140 -0.131 55 55 57 0 0
0.6826 2.8565 0.0000 -0.948 0.218 -0.231 57 57 59 0 0
0.6978 2.9288 -0.0108 -0.895 -0.406 -0.185 52 52 54 0 0
0.6638 3.2464 -0.0449 -0.727 0.262 -0.635 65 65 65 0 0
0.6703 3.2618 -0.0477 -0.660 0.208 -0.722 70 70 70 0 0
0.9211 3.4557 -0.1051 -0.876 0.112 -0.470 170 170 170 0 0
0.9887 3.4993 -0.1195 -0.644 0.268 -0.717 171 171 171 0 0
0.9495 2.3523 0.0397 -0.868 -0.496 -0.028 165 165 165 0 0
0.7258 2.7100 0.0259 -0.975 -0.117 -0.191 31 31 33 0 0
0.6512 3.2456 -0.0292 -0.701 0.323 -0.635 62 62 64 0 0
0.6726 3.2638 -0.0343 -0.615 0.422 -0.666 69 69 71 0 0
0.7783 3.3414 -0.0578 -0.518 0.649 -0.558 69 68 69 0 0
0.9146 3.4560 -0.0899 -0.938 0.091 -0.333 161 159 160 0 0
0.8890 3.4651 -0.0876 -0.772 -0.125 0.623 167 165 166 0 0
0.9680 3.4965 -0.1019 -0.644 0.268 -0.717 171 169 170 0 0
0.9483 2.3537 0.0539 -0.868 -0.496 -0.028 156 156 156 0 0
0.5292 2.9473 0.0369 -0.645 -0.763 -0.051 56 56 58 0 0
0.6578 3.2625 -0.0183 -0.719 0.693 -0.050 64 64 66 0 0
0.6819 3.2813 -0.0237 -0.890 0.456 -0.003 56 55 59 0 0
0.9111 3.4568 -0.0752 -0.972 0.114 -0.208 108 106 105 0 0
0.9724 2.3429 0.0662 -0.698 -0.701 -0.146 170 170 170 0 0
0.9561 2.3558 0.0668 -0.514 -0.836 -0.193 147 147 147 0 0
0.9117 2.3663 0.0713 -0.927 -0.296 0.229 68 68 68 0 0
0.5610 2.8986 0.0523 -0.382 0.074 -0.921 53 53 55 0 0
0.5616 2.9125 0.0506 -0.356 -0.182 -0.916 52 52 54 0 0
0.4990 2.9715 0.0515 -0.780 0.181 -0.599 56 56 56 0 0
0.5061 3.0139 0.0455 -0.639 -0.350 -0.685 44 43 47 0 0
0.9125 3.4733 -0.0630 -0.830 0.430 -0.356 95 94 92 0 0
0.9222 3.4900 -0.0663 -0.729 0.563 -0.390 150 149 147 0 0
0.9339 3.5071 -0.0699 -0.724 0.365 -0.585 166 164 165 0 0
0.9074 2.3674 0.0859 -0.958 -0.279 0.066 65 65 65 0 0
0.4380 2.9222 0.0789 -0.617 0.761 -0.200 51 51 53 0 0
0.4579 2.9390 0.0744 -0.803 0.548 -0.236 52 52 54 0 0
0.4649 2.9538 0.0717 -0.921 0.375 -0.109 55 55 57 0 0
0.4756 2.9692 0.0684 -0.953 0.250 0.173 54 54 56 0 0
0.4982 3.0003 0.0618 -0.590 -0.558 -0.583 45 44 48 0 0
0.4885 3.0124 0.0615 -0.613 -0.511 -0.603 44 42 47 0 0
0.9210 3.5060 -0.0537 -0.710 0.459 -0.534 156 154 155 0 0
0.9110 2.3550 0.1011 -0.936 -0.345 -0.067 95 95 95 0 0
0.9012 2.3684 0.1007 -0.939 -0.289 -0.185 60 60 60 0 0
0.4993 2.8648 0.0916 -0.834 -0.536 -0.130 53 53 55 0 0
0.5147 2.9770 0.0761 -0.585 -0.686 -0.433 50 50 52 0 0
0.5009 2.9885 0.0764 -0.585 -0.686 -0.433 45 45 49 0 0
0.9020 2.3557 0.1162 -0.939 -0.289 -0.185 76 77 79 0 0
0.8980 2.3696 0.1151 -0.939 -0.289 -0.185 52 53 55 0 0
0.8691 2.3812 0.1173 -0.645 -0.731 -0.221 41 41 43 0 0
0.8545 2.3941 0.1176 -0.645 -0.731 -0.221 40 40 42 0 0
0.7146 2.5485 0.1164 -0.974 0.139 0.177 50 50 52 0 0
0.6777 2.6139 0.1131 -0.964 0.263 -0.049 53 53 55 0 0
0.6842 2.6564 0.1072 -0.700 -0.138 -0.700 52 52 54 0 0
0.6905 2.6851 0.1029 -0.757 -0.216 -0.617 51 51 53 0 0
0.6760 2.6972 0.1033 -0.618 -0.191 -0.763 50 50 52 0 0
0.9105 3.5216 -0.0255 -0.664 0.488 -0.567 157 155 155 0 0
0.9254 3.5394 -0.0295 -0.695 0.486 -0.530 168 167 165 0 0
0.9760 2.3206 0.1255 -0.478 -0.793 -0.378 161 159 160 0 0
0.8802 2.3695 0.1314 -0.762 -0.523 -0.383 49 50 52 0 0
0.8624 2.3821 0.1321 -0.636 -0.726 -0.261 48 48 50 0 0
0.7163 2.5502 0.1299 -0.907 0.224 -0.358 49 49 51 0 0
0.6823 2.6020 0.1278 -0.615 -0.711 -0.342 50 50 52 0 0
0.6599 2.6133 0.1292 -0.784 0.562 -0.265 51 51 53 0 0
0.6300 2.6375 0.1300 -0.433 -0.153 -0.888 52 52 54 0 0
0.6320 2.7624 0.1147 -0.496 -0.756 -0.427 50 50 52 0 0
0.4443 2.9004 0.1213 -0.409 -0.765 -0.498 60 60 62 0 0
0.4452 3.0234 0.1063 -0.840 0.185 -0.510 82 82 83 0 0
0.4849 3.1953 0.0807 -0.836 0.130 -0.533 37 37 39 0 0
0.9143 3.5386 -0.0137 -0.708 0.505 -0.494 154 153 151 0 0
0.9834 2.3084 0.1403 -0.326 -0.761 -0.561 156 154 155 0 0
0.9561 2.3205 0.1422 -0.317 -0.805 -0.501 108 106 107 0 0
0.9226 2.3320 0.1449 -0.317 -0.805 -0.501 84 85 86 0 0
0.8733 2.3563 0.1480 -0.642 -0.498 -0.583 63 64 66 0 0
0.8520 2.3686 0.1491 -0.613 -0.402 -0.680 59 60 62 0 0
0.6907 2.5211 0.1504 -0.921 -0.226 -0.317 52 52 54 0 0
0.9299 3.5730 -0.0053 -0.751 0.433 -0.498 164 164 162 0 0
0.9883 2.2959 0.1555 -0.311 -0.729 -0.610 151 150 151 0 0
0.9543 2.3076 0.1582 -0.330 -0.745 -0.580 101 100 101 0 0
0.9220 2.3193 0.1607 -0.307 -0.760 -0.573 81 80 82 0 0
0.8559 2.3563 0.1641 -0.670 -0.526 -0.524 66 66 68 0 0
0.8340 2.3685 0.1653 -0.613 -0.402 -0.680 64 65 67 0 0
0.5888 2.5668 0.1710 -0.463 -0.148 -0.874 51 51 53 0 0
0.4267 3.0232 0.1356 -0.894 -0.065 -0.444 36 35 40 0 0
0.4252 3.0776 0.1293 -0.921 -0.053 -0.387 23 22 25 0 0
0.4902 3.2270 0.1035 -0.884 -0.100 -0.456 46 45 48 0 0
0.9231 3.5731 0.0099 -0.629 0.481 -0.611 151 151 149 0 0
0.9844 2.2829 0.1718 -0.324 -0.735 -0.595 147 145 146 0 0
0.9546 2.2949 0.1739 -0.311 -0.729 -0.610 96 96 96 0 0
0.9223 2.3066 0.1763 -0.311 -0.729 -0.610 79 79 80 0 0
0.4588 3.1811 0.1264 -0.886 0.219 -0.408 34 34 36 0 0
0.4876 3.2280 0.1174 -0.994 -0.014 -0.106 38 38 40 0 0
0.9186 3.5884 0.0230 -0.609 0.530 -0.590 157 157 155 0 0
0.9517 2.2819 0.1900 -0.307 -0.748 -0.588 95 94 95 0 0
0.7918 2.3678 0.1984 -0.469 -0.680 -0.563 64 64 66 0 0
0.6096 2.5169 0.2019 -0.298 -0.473 -0.829 55 55 57 0 0
0.5727 2.5953 0.1968 -0.488 -0.168 -0.857 51 50 53 0 0
0.5386 2.6050 0.1997 -0.737 -0.205 -0.644 50 49 54 0 0
0.5305 2.6314 0.1974 -0.665 -0.603 -0.440 53 52 57 0 0
0.4165 2.9564 0.1718 -0.645 0.038 -0.763 55 53 58 0 0
0.4861 3.2292 0.1310 -0.994 -0.014 -0.106 33 33 35 0 0
0.9227 3.6056 0.0348 -0.625 0.535 -0.568 162 161 159 0 0
0.5422 2.5386 0.2208 -0.739 -0.018 -0.674 55 55 57 0 0
0.5338 2.5513 0.2202 -0.650 0.075 -0.757 53 53 55 0 0
0.5329 2.5648 0.2187 -0.622 0.012 -0.783 53 53 55 0 0
0.5262 2.6050 0.2147 -0.669 -0.108 -0.735 50 49 54 0 0
0.5116 2.6170 0.2149 -0.920 0.102 -0.377 55 54 59 0 0
0.5180 2.6314 0.2125 -0.799 -0.275 -0.534 61 60 65 0 0
0.5032 2.6432 0.2128 -0.476 -0.828 -0.295 69 69 72 0 0
0.9506 2.2563 0.2216 -0.285 -0.784 -0.551 96 98 95 0 0
0.6022 2.4916 0.2332 -0.296 -0.915 -0.273 51 51 53 0 0
0.5138 2.5097 0.2411 -0.574 -0.034 -0.818 54 54 56 0 0
0.4995 2.5489 0.2380 -0.458 -0.145 -0.877 53 52 57 0 0
0.5026 2.5629 0.2360 -0.510 0.050 -0.859 53 52 57 0 0
0.4877 2.5884 0.2347 -0.685 0.457 -0.567 58 58 62 0 0
0.4969 2.6167 0.2302 -0.843 0.462 -0.276 66 66 68 0 0
0.5054 2.6313 0.2275 -0.950 0.058 -0.308 72 70 73 0 0
0.4883 2.6429 0.2281 -0.524 -0.764 -0.377 80 80 82 0 0
0.9037 3.6046 0.0660 -0.478 0.649 -0.593 91 90 89 0 0
0.9530 2.2438 0.2371 -0.257 -0.811 -0.526 104 105 106 0 0
0.9107 2.2550 0.2405 -0.257 -0.811 -0.526 80 81 82 0 0
0.8274 2.2770 0.2472 -0.257 -0.811 -0.526 69 70 73 0 0
0.8245 2.3189 0.2426 -0.562 -0.728 -0.392 62 61 64 0 0
0.7959 2.3306 0.2444 -0.520 -0.833 -0.187 58 58 60 0 0
0.7816 2.3434 0.2444 -0.361 -0.845 0.394 56 57 59 0 0
0.4741 2.5476 0.2546 -0.506 -0.177 -0.844 55 54 57 0 0
0.4971 2.6181 0.2436 -0.772 0.462 -0.437 77 76 77 0 0
0.5016 2.6323 0.2414 -0.744 -0.287 -0.604 84 82 84 0 0
0.3963 2.8355 0.2290 -0.835 -0.528 -0.158 74 74 76 0 0
0.3937 2.8487 0.2277 -0.341 -0.936 -0.086 73 73 75 0 0
0.9209 3.6248 0.0760 -0.532 0.647 -0.546 97 96 95 0 0
0.9184 2.2428 0.2553 -0.252 -0.818 -0.518 83 84 83 0 0
0.8332 2.2649 0.2620 -0.259 -0.809 -0.528 69 70 71 0 0
0.7946 2.2760 0.2650 -0.269 -0.843 -0.466 66 67 69 0 0
0.7836 2.3310 0.2597 -0.796 -0.598 0.096 54 55 57 0 0
0.3641 2.9267 0.2351 -0.991 -0.060 0.119 52 50 55 0 0
0.9506 2.2181 0.2689 -0.530 -0.772 -0.351 131 130 130 0 0
0.9285 2.2308 0.2698 -0.254 -0.840 -0.480 88 87 86 0 0
0.4775 2.6323 0.2712 -0.303 -0.694 0.653 80 79 79 0 0
0.4551 2.6431 0.2723 -0.660 -0.748 0.064 80 79 80 0 0
0.9417 2.2190 0.2839 -0.527 -0.789 -0.317 92 91 90 0 0
0.3685 2.8493 0.2706 -0.501 -0.806 -0.315 36 35 40 0 0
0.3463 2.8594 0.2718 -0.969 -0.201 0.142 39 39 43 0 0
0.3678 2.8897 0.2659 -0.682 0.728 0.068 44 44 47 0 0
0.9206 3.6737 0.1135 -0.889 0.345 -0.302 161 160 158 0 0
0.9739 2.1942 0.2977 -0.453 -0.831 -0.323 162 162 162 0 0
0.9510 2.2069 0.2986 -0.527 -0.789 -0.317 109 109 109 0 0
0.4540 2.5511 0.3103 -0.951 0.096 -0.294 60 60 65 0 0
0.5321 2.7789 0.2751 -0.727 -0.174 -0.664 25 25 28 0 0
0.3919 2.8136 0.2858 -0.716 -0.692 -0.093 28 28 30 0 0
0.3513 2.8482 0.2860 -0.549 -0.667 -0.504 32 32 34 0 0
0.3439 2.8605 0.2853 -0.573 -0.658 -0.489 34 34 36 0 0
0.3623 2.8768 0.2814 -0.804 0.138 -0.578 35 34 38 0 0
0.3616 2.9172 0.2767 -0.971 0.094 0.219 35 34 38 0 0
0.6023 3.4312 0.1903 -0.837 0.373 -0.400 48 48 50 0 0
0.9233 3.6760 0.1274 -0.661 0.571 -0.487 148 147 146 0 0
0.9599 2.1947 0.3133 -0.511 -0.804 -0.304 132 132 132 0 0
0.4442 2.5514 0.3248 -0.802 -0.594 0.070 82 82 86 0 0
0.4308 2.6851 0.3104 -0.689 -0.579 -0.435 46 48 51 0 0
0.4434 2.7003 0.3073 -0.749 0.012 -0.663 32 36 39 0 0
0.4510 2.7148 0.3048 -0.648 0.272 -0.712 28 29 32 0 0
0.4578 2.7565 0.2991 -0.294 0.018 -0.956 18 18 20 0 0
0.3982 2.7889 0.3015 -0.812 -0.532 -0.241 14 14 16 0 0
0.3930 2.8017 0.3005 -0.705 -0.603 -0.375 20 20 22 0 0
0.3687 2.9198 0.2891 -0.898 -0.418 0.139 28 27 30 0 0
0.3772 2.9618 0.2832 -0.980 -0.140 -0.143 21 19 22 0 0
0.5973 3.4317 0.2047 -0.913 0.405 0.048 53 53 55 0 0
0.9217 3.6919 0.1401 -0.833 0.435 -0.342 148 146 147 0 0
0.9321 3.7091 0.1370 -0.863 0.416 -0.287 165 164 165 0 0
0.3978 2.5745 0.3403 -0.987 0.145 -0.066 85 83 86 0 0
0.3487 2.8238 0.3159 -0.362 -0.595 -0.717 35 34 37 0 0
0.3774 2.9633 0.2965 -0.985 0.170 -0.000 18 17 19 0 0
0.3778 2.9769 0.2948 -0.941 -0.260 0.217 17 16 18 0 0
0.3817 2.9911 0.2927 -0.927 -0.255 0.277 17 17 19 0 0
0.3643 3.0018 0.2933 -0.937 -0.347 0.024 23 22 25 0 0
0.4640 3.1697 0.2632 -0.825 -0.517 -0.228 32 32 34 0 0
0.4464 3.1802 0.2638 -0.993 -0.041 -0.114 31 31 33 0 0
0.7283 3.5473 0.1915 -0.813 0.559 -0.161 51 51 53 0 0
0.9842 2.1707 0.3422 -0.534 -0.810 -0.242 165 165 165 0 0
0.9640 2.1837 0.3427 -0.538 -0.804 -0.252 119 119 119 0 0
0.5535 2.4025 0.3583 -0.554 0.139 -0.821 53 53 55 0 0
0.4402 2.6621 0.3391 -0.883 -0.458 0.105 44 45 50 0 0
0.3533 2.9338 0.3158 -0.984 0.118 0.132 28 28 30 0 0
0.3880 2.9937 0.3052 -0.904 -0.350 0.246 16 16 18 0 0
0.4626 3.1710 0.2768 -0.781 -0.611 0.129 37 37 39 0 0
0.6000 3.4354 0.2317 -0.921 0.197 0.337 61 61 63 0 0
0.7857 3.5907 0.1947 -0.702 0.115 0.703 48 48 50 0 0
0.9197 3.7095 0.1672 -0.766 0.496 -0.410 134 133 132 0 0
0.9959 2.1587 0.3567 -0.534 -0.810 -0.242 169 169 169 0 0
0.9759 2.1717 0.3572 -0.534 -0.810 -0.242 148 148 148 0 0
0.4164 2.6605 0.3551 -0.913 -0.215 -0.347 40 41 45 0 0
0.4017 2.6722 0.3552 -0.570 -0.329 -0.753 28 28 32 0 0
0.2553 2.8262 0.3516 -0.255 -0.640 -0.725 14 12 15 0 0
0.3774 2.9934 0.3198 -0.921 -0.367 0.131 16 16 18 0 0
0.3693 3.0056 0.3192 -0.783 -0.610 0.121 16 16 18 0 0
0.6435 3.4180 0.2434 -0.918 -0.175 -0.356 55 54 56 0 0
0.6205 3.4414 0.2429 -0.960 0.047 0.274 63 63 65 0 0
0.9876 2.1596 0.3717 -0.534 -0.810 -0.242 165 165 165 0 0
0.9478 2.1856 0.3726 -0.534 -0.810 -0.242 84 84 85 0 0
0.4329 2.6370 0.3698 -0.841 -0.151 0.520 42 43 47 0 0
0.4272 2.6498 0.3688 -0.753 0.637 0.165 41 42 45 0 0
0.4304 2.6637 0.3668 -0.955 -0.112 -0.276 35 35 39 0 0
0.3955 3.0251 0.3278 -0.995 -0.016 0.096 18 18 20 0 0
0.6312 3.4311 0.2570 -0.826 -0.542 -0.155 57 57 60 0 0
0.6199 3.4428 0.2567 -0.888 -0.444 0.123 64 64 66 0 0
0.5959 3.4799 0.2547 -0.950 0.089 -0.298 43 42 45 0 0
0.9595 2.1736 0.3871 -0.534 -0.810 -0.242 97 97 96 0 0
0.9282 2.2425 0.3820 -0.876 -0.177 0.448 51 51 53 0 0
0.3821 3.0107 0.3442 -0.928 -0.351 0.123 23 21 24 0 0
0.5201 3.1308 0.3169 -0.827 0.377 0.418 28 28 30 0 0
0.5257 3.1457 0.3146 -0.827 0.377 0.418 33 33 35 0 0
0.6300 3.4324 0.2709 -0.834 -0.547 -0.073 50 49 53 0 0
0.6375 3.4482 0.2683 -0.916 0.062 -0.395 59 59 61 0 0
0.7768 3.6080 0.2362 -0.977 -0.161 0.142 54 54 54 0 0
0.7632 3.6193 0.2362 -0.959 0.175 -0.225 62 62 62 0 0
0.9926 2.1486 0.4011 -0.609 -0.773 -0.178 164 164 165 0 0
0.9483 2.1744 0.4023 -0.495 -0.839 -0.224 85 85 84 0 0
0.9333 2.2444 0.3955 -0.912 0.028 0.409 48 48 50 0 0
0.4039 2.4614 0.4200 -0.975 0.076 -0.207 25 25 27 0 0
0.3741 3.0108 0.3584 -0.951 -0.294 0.092 25 23 26 0 0
0.6030 3.4988 0.2796 -0.882 0.449 0.144 51 51 53 0 0
1.0064 2.1366 0.4156 -0.566 -0.811 -0.149 169 169 171 0 0
0.9869 2.1497 0.4158 -0.497 -0.841 -0.212 145 145 147 0 0
0.9649 2.1627 0.4164 -0.497 -0.841 -0.212 96 96 95 0 0
0.3744 3.0124 0.3717 -0.986 -0.163 -0.031 15 13 16 0 0
0.5640 3.1558 0.3373 -0.698 0.506 0.506 18 18 20 0 0
0.5746 3.1717 0.3344 -0.638 0.494 0.590 23 23 25 0 0
0.6180 3.4613 0.2965 -0.889 -0.374 0.265 56 56 58 0 0
0.6020 3.5001 0.2935 -0.937 0.350 -0.009 58 60 59 0 0
1.0009 2.1378 0.4303 -0.566 -0.811 -0.149 164 164 164 0 0
0.6756 2.3395 0.4363 -0.143 -0.938 0.315 44 44 46 0 0
0.5675 2.3577 0.4441 -0.179 -0.978 0.109 48 48 50 0 0
0.5207 2.3673 0.4472 -0.268 -0.956 0.123 35 35 37 0 0
0.4167 2.4252 0.4499 -0.868 -0.314 -0.385 20 20 22 0 0
0.3543 2.9969 0.3888 -0.817 0.141 -0.559 24 24 26 0 0
0.3684 3.0128 0.3856 -0.833 0.183 -0.522 17 17 19 0 0
0.4001 3.0318 0.3805 -0.771 0.635 -0.040 12 11 14 0 0
0.4238 3.0496 0.3763 -0.851 0.495 -0.174 9 9 11 0 0
0.4296 3.0642 0.3740 -0.826 0.205 -0.526 10 10 12 0 0
0.5574 3.1561 0.3517 -0.688 0.671 0.277 15 15 17 0 0
0.5664 3.1717 0.3490 -0.697 0.684 0.214 20 20 22 0 0
0.5991 3.5011 0.3075 -0.913 -0.087 -0.398 61 63 60 0 0
1.0143 2.1257 0.4448 -0.566 -0.811 -0.149 166 166 166 0 0
0.9709 2.1517 0.4456 -0.478 -0.854 -0.203 92 92 92 0 0
0.3857 2.6922 0.4349 -0.795 -0.520 -0.313 18 18 20 0 0
0.3732 2.7041 0.4347 -0.705 -0.626 -0.332 15 15 17 0 0
0.3441 2.9966 0.4031 -0.544 0.734 -0.406 15 15 17 0 0
0.6004 3.2075 0.3556 -0.979 -0.046 0.197 27 27 29 0 0
0.5059 3.2036 0.3645 -0.839 -0.525 0.142 33 32 36 0 0
1.0068 2.1268 0.4597 -0.508 -0.835 -0.210 163 163 163 0 0
0.9849 2.1398 0.4601 -0.497 -0.841 -0.212 110 110 110 0 0
0.3953 2.4796 0.4723 -0.882 -0.025 -0.471 48 46 49 0 0
0.4270 2.6313 0.4518 -0.816 0.068 -0.575 12 12 14 0 0
0.4037 2.6825 0.4479 -0.981 -0.178 -0.082 17 17 19 0 0
0.3970 2.6952 0.4470 -0.979 -0.182 -0.091 16 16 18 0 0
0.3999 3.0620 0.4040 -0.826 0.045 -0.562 12 12 14 0 0
0.4176 3.0788 0.4005 -0.888 -0.134 0.440 11 11 13 0 0
0.6013 3.2092 0.3692 -0.875 0.398 -0.276 22 22 24 0 0
0.9989 2.1278 0.4746 -0.508 -0.835 -0.210 140 140 139 0 0
0.9769 2.1408 0.4750 -0.497 -0.841 -0.212 91 92 91 0 0
0.4301 2.4038 0.4915 -0.455 -0.841 0.293 18 18 20 0 0
0.4088 2.5093 0.4811 -0.711 -0.270 0.649 13 12 15 0 0
0.3975 2.6832 0.4618 -0.878 -0.469 -0.092 15 15 17 0 0
0.3847 2.6950 0.4616 -0.806 -0.591 0.044 16 16 18 0 0
0.4077 2.7115 0.4577 -0.777 0.597 0.200 16 16 18 0 0
0.4034 3.0505 0.4186 -0.907 0.401 0.126 16 16 18 0 0
0.4111 3.0655 0.4162 -0.919 0.363 0.154 16 16 18 0 0
0.4210 3.0809 0.4135 -0.876 0.240 0.419 13 13 15 0 0
0.4320 3.2752 0.3900 -0.831 -0.532 0.162 13 13 15 0 0
0.7681 3.6735 0.3146 -0.983 0.049 -0.176 60 61 63 0 0
0.5126 2.3586 0.5032 -0.937 0.349 -0.028 21 21 23 0 0
0.9543 3.8380 0.2940 -0.763 0.578 -0.289 169 167 168 0 0
0.9939 2.1304 0.5033 -0.692 -0.691 -0.211 93 93 93 0 0
0.4143 3.0690 0.4426 -0.753 0.651 -0.099 18 18 20 0 0
0.5243 3.1577 0.4232 -0.898 0.172 -0.406 13 13 15 0 0
0.7974 3.6983 0.3378 -0.980 -0.185 -0.071 47 47 49 0 0
0.9362 3.8203 0.3121 -0.693 0.662 -0.285 158 156 157 0 0
0.9489 3.8383 0.3090 -0.815 0.545 -0.198 168 166 167 0 0
1.0193 2.1048 0.5185 -0.993 0.039 0.112 161 161 161 0 0
0.4910 2.3461 0.5336 -0.972 0.194 0.131 23 23 25 0 0
0.5007 2.3604 0.5312 -0.847 -0.363 0.389 22 22 24 0 0
0.4064 3.0691 0.4568 -0.706 0.654 -0.272 20 20 22 0 0
0.4647 3.1344 0.4445 -0.961 -0.275 0.010 14 14 16 0 0
0.4814 3.1513 0.4411 -0.982 -0.041 -0.186 14 14 16 0 0
0.5446 3.1768 0.4330 -0.711 -0.522 0.472 13 13 15 0 0
0.4554 3.2844 0.4278 -0.932 -0.194 0.306 17 17 19 0 0
0.9510 3.8405 0.3231 -0.693 0.662 -0.285 167 165 166 0 0
0.5980 2.2746 0.5469 -0.768 -0.626 -0.135 28 28 30 0 0
0.4174 2.6644 0.5162 -0.691 0.542 -0.479 21 21 23 0 0
0.4647 3.1360 0.4579 -0.923 0.280 -0.265 15 15 17 0 0
0.5097 3.2274 0.4438 -0.881 -0.411 -0.233 21 21 23 0 0
0.4593 3.2868 0.4409 -0.890 -0.309 0.336 13 13 15 0 0
0.6157 3.4593 0.4085 -0.681 0.160 -0.715 17 17 19 0 0
0.6359 3.4778 0.4047 -0.901 -0.212 -0.379 18 18 20 0 0
1.0152 2.0932 0.5489 -0.778 0.542 0.319 160 160 160 0 0
1.0049 2.1069 0.5481 -0.909 0.366 0.198 106 106 106 0 0
0.5148 2.3645 0.5567 -0.686 -0.720 0.103 30 30 32 0 0
0.4355 3.0361 0.4854 -0.818 -0.001 0.575 31 31 33 0 0
0.5039 3.2278 0.4579 -0.944 -0.329 -0.017 19 19 21 0 0
0.6284 3.4495 0.4226 -0.673 -0.240 -0.700 12 12 14 0 0
0.9425 3.8418 0.3527 -0.606 0.704 -0.370 161 161 160 0 0
0.9689 3.8633 0.3482 -0.610 0.698 -0.375 168 167 168 0 0
1.0215 2.0950 0.5626 -0.868 0.309 0.388 132 132 132 0 0
0.5526 3.1829 0.4731 -0.861 0.091 0.501 14 14 16 0 0
0.6162 3.4484 0.4376 -0.635 -0.511 -0.579 12 12 14 0 0
0.7789 3.7004 0.3961 -0.972 0.115 -0.205 43 43 45 0 0
0.7822 3.7157 0.3941 -0.981 0.137 -0.137 54 54 56 0 0
1.0218 2.0822 0.5784 -0.772 0.440 0.459 154 154 154 0 0
1.0160 2.0962 0.5772 -0.796 0.439 0.416 100 100 100 0 0
0.5533 3.1846 0.4866 -0.839 0.084 0.537 14 14 16 0 0
0.5156 3.2331 0.4839 -0.847 -0.532 -0.009 18 18 20 0 0
0.7827 3.7175 0.4081 -0.902 0.351 -0.251 52 52 54 0 0
0.7860 3.7328 0.4061 -0.987 0.161 0.016 52 51 52 0 0
0.9497 3.8618 0.3790 -0.606 0.704 -0.370 158 157 158 0 0
1.0309 2.0841 0.5919 -0.772 0.440 0.459 124 124 126 0 0
1.0222 2.0979 0.5909 -0.873 0.326 0.363 86 86 88 0 0
0.8022 3.7384 0.4186 -0.808 -0.363 0.464 49 47 50 0 0
0.9384 3.8606 0.3945 -0.616 0.713 -0.335 146 145 143 0 0
0.9846 2.1259 0.6048 -0.795 -0.578 -0.182 51 51 53 0 0
0.9842 2.1401 0.6032 -0.987 0.157 0.018 44 44 46 0 0
0.6791 2.2603 0.6113 -0.768 -0.283 0.574 21 21 23 0 0
0.4865 2.4083 0.6081 -0.924 -0.372 0.085 41 41 43 0 0
0.4831 2.4216 0.6068 -0.967 -0.080 0.242 40 39 43 0 0
0.4962 2.9974 0.5398 -0.501 0.816 0.288 37 37 39 0 0
0.5056 3.1787 0.5184 -0.449 0.850 -0.277 16 16 18 0 0
0.5449 3.4517 0.4842 -0.888 -0.421 -0.186 11 11 13 0 0
0.8111 3.7422 0.4318 -0.819 -0.560 0.124 46 46 48 0 0
0.9497 3.8800 0.4061 -0.750 0.637 -0.178 161 160 158 0 0
1.0348 2.1302 0.6151 -0.993 0.119 -0.015 46 45 49 0 0
0.7071 2.2500 0.6244 -0.804 0.343 0.486 21 21 23 0 0
0.4872 2.4098 0.6215 -0.924 -0.372 0.085 42 41 45 0 0
0.4862 2.4233 0.6200 -0.967 -0.080 0.242 41 40 45 0 0
0.8130 3.7444 0.4458 -0.902 -0.420 0.103 44 45 47 0 0
0.9779 2.1285 0.6336 -0.998 0.034 0.050 44 43 46 0 0
0.5240 2.3875 0.6351 -0.711 -0.100 0.696 38 38 40 0 0
0.8113 3.7456 0.4601 -0.992 0.096 0.088 43 43 46 0 0
0.9571 3.9001 0.4324 -0.803 0.532 -0.269 168 167 165 0 0
0.5087 2.4147 0.6466 -0.704 -0.028 0.710 41 40 45 0 0
0.8040 3.7600 0.4733 -0.919 0.284 -0.274 48 48 50 0 0
0.9657 2.0312 0.6741 -0.865 0.362 -0.347 144 144 145 0 0
0.9588 2.0877 0.6681 -0.991 0.087 0.100 57 55 59 0 0
0.9807 2.1173 0.6633 -0.880 0.182 0.438 43 41 45 0 0
0.8283 2.2070 0.6630 -0.642 0.449 0.621 29 29 31 0 0
0.5791 2.3680 0.6609 -0.513 -0.066 0.856 36 36 38 0 0
0.4484 3.1466 0.5807 -0.910 0.240 0.338 20 20 22 0 0
0.8631 3.8056 0.4785 -0.971 0.167 0.173 48 48 51 0 0
0.9479 2.0319 0.6895 -0.729 0.106 -0.677 95 95 97 0 0
0.9486 2.0461 0.6878 -0.750 0.040 -0.660 75 75 77 0 0
0.9697 2.1039 0.6799 -0.940 0.281 0.195 44 42 47 0 0
0.6083 2.3308 0.6770 -0.700 0.199 0.685 30 29 34 0 0
0.5740 2.3826 0.6733 -0.698 -0.028 0.716 37 37 39 0 0
0.4747 3.1253 0.5951 -0.634 -0.342 0.694 26 26 28 0 0
0.4587 3.1362 0.5949 -0.675 -0.405 0.617 23 23 25 0 0
0.8616 3.8069 0.4929 -0.986 -0.059 -0.154 47 48 49 0 0
0.9599 2.0764 0.6979 -0.913 0.395 -0.101 49 47 52 0 0
0.9706 2.0912 0.6956 -0.975 0.131 0.182 44 44 46 0 0
0.6390 2.3485 0.6869 -0.365 -0.801 0.475 33 33 35 0 0
0.9651 2.0924 0.7101 -0.784 -0.401 -0.473 41 40 44 0 0
0.8497 2.1987 0.7050 -0.696 0.557 0.453 23 23 25 0 0
0.5623 2.3981 0.6997 -0.828 -0.477 0.296 38 38 40 0 0
0.6648 2.5046 0.6814 -0.370 0.499 0.783 41 40 45 0 0
0.5535 2.4138 0.7258 -0.485 0.760 0.433 37 36 40 0 0
0.5551 2.6487 0.7129 -0.671 -0.738 0.073 37 36 41 0 0
0.5194 2.6855 0.7107 -0.653 -0.754 0.072 35 34 39 0 0
0.5106 3.2784 0.6443 -0.803 -0.516 0.299 15 15 17 0 0
0.5626 2.4313 0.7508 -0.623 0.427 0.656 36 36 38 0 0
0.5529 2.7326 0.7173 -0.622 0.182 0.762 33 32 37 0 0
0.5624 2.4327 0.7643 -0.503 -0.414 0.759 36 36 38 0 0
0.5049 2.8376 0.7218 -0.242 -0.968 -0.063 29 29 31 0 0
0.5227 3.1864 0.6816 -0.913 0.213 -0.349 22 22 24 0 0
0.8988 1.8582 0.8256 -0.789 -0.399 0.468 106 106 106 0 0
0.8955 1.8722 0.8242 -0.946 -0.309 0.097 80 78 81 0 0
0.8903 1.9001 0.8213 -0.980 -0.027 -0.196 65 64 67 0 0
0.5880 2.8234 0.7329 -0.116 -0.918 0.378 29 29 31 0 0
0.5284 3.1056 0.7042 -0.835 -0.375 0.402 18 18 20 0 0
0.5009 3.2533 0.6890 -0.907 -0.403 -0.120 28 28 30 0 0
0.9667 3.9362 0.5887 -0.422 0.877 -0.231 141 140 138 0 0
0.8964 1.8736 0.8382 -0.946 -0.309 0.097 65 65 67 0 0
0.8917 1.8875 0.8368 -0.946 -0.309 0.097 61 60 62 0 0
0.5579 3.1402 0.7126 -0.646 -0.350 -0.678 18 18 20 0 0
0.5499 3.2365 0.7022 -0.987 0.097 0.129 35 34 39 0 0
0.9520 3.9340 0.6043 -0.422 0.888 -0.181 118 117 115 0 0
0.8993 1.8611 0.8536 -0.716 -0.689 0.109 61 63 65 0 0
0.8829 1.8747 0.8529 -0.833 -0.551 0.052 57 58 58 0 0
0.8849 1.9028 0.8496 -0.931 -0.024 0.365 50 49 54 0 0
0.8840 1.9168 0.8481 -0.931 -0.024 0.365 45 44 49 0 0
0.6973 2.3110 0.8128 -0.672 -0.709 -0.215 26 26 28 0 0
0.5102 2.7740 0.7698 -0.919 -0.072 0.388 23 23 25 0 0
0.8635 1.8616 0.8694 -0.494 -0.843 -0.214 53 56 57 0 0
0.5918 2.4275 0.8185 -0.159 -0.879 0.450 28 28 30 0 0
0.5264 2.7930 0.7943 -0.478 0.799 0.364 18 18 20 0 0
0.5376 3.0160 0.7690 -0.269 -0.623 0.735 17 17 19 0 0
0.8240 3.8467 0.6636 -0.967 -0.081 -0.240 47 46 49 0 0
0.5570 2.5918 0.8292 -0.390 0.267 -0.881 19 19 21 0 0
0.5838 2.4999 0.8521 -0.595 0.751 -0.286 19 19 21 0 0
0.5694 2.9965 0.7974 -0.886 -0.461 0.041 15 15 17 0 0
0.8272 3.8509 0.6919 -0.837 0.546 0.034 48 48 50 0 0
0.6342 2.5066 0.8632 -0.925 0.377 0.048 18 18 20 0 0
0.5775 2.9993 0.8107 -0.852 -0.498 -0.164 14 14 16 0 0
0.5312 3.2421 0.7855 -0.942 -0.304 -0.140 24 24 26 0 0
0.7536 3.7030 0.7256 -0.922 0.323 0.213 20 20 22 0 0
0.6203 2.6035 0.8668 -0.923 0.206 -0.325 15 15 17 0 0
0.5851 2.7933 0.8471 -0.433 0.289 -0.854 16 16 18 0 0
0.5758 2.8059 0.8460 -0.688 -0.702 -0.185 16 16 18 0 0
0.5620 2.8178 0.8452 -0.767 -0.631 -0.112 16 16 18 0 0
0.5320 3.1184 0.8130 -0.936 -0.283 0.209 23 23 25 0 0
0.5942 2.5329 0.8894 -0.903 0.416 -0.105 17 17 19 0 0
0.5701 2.5441 0.8891 -0.947 -0.276 0.165 17 17 19 0 0
0.6319 2.6063 0.8800 -0.993 -0.003 -0.115 13 13 15 0 0
0.6025 2.6583 0.8753 -0.379 -0.280 -0.882 14 14 16 0 0
0.5507 3.1093 0.8272 -0.996 -0.082 -0.039 23 23 26 0 0
0.6145 2.5227 0.9037 -0.404 -0.508 -0.761 16 16 18 0 0
0.5716 2.5319 0.9041 -0.949 -0.032 0.312 17 17 19 0 0
0.5706 2.5456 0.9027 -0.949 -0.032 0.312 16 16 18 0 0
0.6085 2.6190 0.8933 -0.903 -0.091 -0.420 12 12 14 0 0
0.6054 2.6324 0.8919 -0.831 -0.311 -0.461 12 12 14 0 0
0.6017 2.6459 0.8905 -0.875 -0.239 -0.421 12 12 14 0 0
0.5877 2.6580 0.8897 -0.719 0.470 -0.512 13 13 15 0 0
0.5794 2.7539 0.8793 -0.519 -0.670 -0.531 13 13 15 0 0
0.5980 2.8120 0.8723 -0.455 -0.783 -0.423 13 13 15 0 0
0.5793 2.8232 0.8717 -0.455 -0.783 -0.423 13 13 15 0 0
0.5378 2.8449 0.8707 -0.304 -0.769 -0.563 14 14 16 0 0
0.5454 3.0681 0.8458 -0.896 -0.121 0.427 13 13 15 0 0
0.5429 3.0816 0.8444 -0.896 -0.121 0.427 16 16 18 0 0
0.5485 3.1104 0.8410 -0.986 0.011 -0.166 29 29 31 0 0
0.7344 3.4151 0.8009 -0.320 0.947 -0.006 16 16 18 0 0
0.6151 2.5381 0.9158 -0.616 -0.671 -0.412 16 16 18 0 0
0.5991 2.7025 0.8982 -0.710 -0.240 0.662 12 12 14 0 0
0.5679 2.8231 0.8859 -0.487 -0.773 -0.407 12 12 14 0 0
0.5371 3.0126 0.8660 -0.919 0.343 0.195 12 12 14 0 0
0.5459 3.1115 0.8548 -0.914 0.189 -0.358 35 35 37 0 0
0.5511 3.1264 0.8530 -0.921 0.268 -0.284 34 34 36 0 0
0.6440 2.5566 0.9268 -0.905 -0.221 0.364 15 15 17 0 0
0.6314 2.5829 0.9242 -0.798 -0.440 0.412 13 13 15 0 0
0.5547 3.0588 0.8742 -0.978 0.207 0.032 14 14 16 0 0
0.5428 3.0846 0.8717 -0.996 0.089 -0.017 28 27 32 0 0
0.5411 3.0982 0.8703 -0.931 0.309 -0.194 34 33 38 0 0
0.5431 3.1125 0.8686 -0.938 0.259 -0.232 35 35 39 0 0
0.5573 3.1569 0.8633 -0.958 -0.283 -0.052 39 39 41 0 0
0.5883 3.2328 0.8540 -0.929 0.369 -0.031 14 14 16 0 0
0.7532 3.7401 0.7930 -0.580 0.711 0.397 30 30 32 0 0
0.9939 1.7800 1.0158 -0.882 -0.470 -0.009 79 78 82 0 0
0.5418 2.9747 0.8977 -0.999 -0.035 0.004 12 12 14 0 0
0.5454 3.0031 0.8944 -0.996 -0.083 -0.011 11 11 13 0 0
0.5496 3.0177 0.8927 -0.988 0.110 -0.105 12 12 14 0 0
0.5569 3.1584 0.8770 -0.990 -0.138 0.040 30 30 32 0 0
0.7975 3.7818 0.8014 -0.759 0.629 0.169 37 37 39 0 0
0.5446 3.0045 0.9082 -0.990 -0.135 0.026 12 12 14 0 0
0.5503 3.0333 0.9048 -0.979 -0.134 0.155 20 19 23 0 0
0.5482 3.0468 0.9034 -0.979 -0.134 0.155 30 28 32 0 0
0.5447 3.0060 0.9218 -0.990 -0.135 0.026 17 17 19 0 0
0.5317 3.2406 0.8964 -0.795 -0.129 0.592 14 14 16 0 0
0.6091 3.1179 0.9358 -0.967 -0.253 0.023 20 20 24 0 0
0.6103 3.1322 0.9342 -0.888 -0.411 -0.208 17 16 20 0 0
0.5924 3.1430 0.9334 -0.900 -0.115 0.421 17 17 19 0 0
0.5797 3.1687 0.9309 -0.979 -0.061 0.196 13 13 15 0 0
0.5860 3.1589 0.9597 -0.875 -0.472 0.109 12 12 14 0 0
0.5379 3.4583 0.9281 -0.869 -0.404 0.287 11 9 12 0 0
0.9898 1.7899 1.1153 -0.826 -0.559 0.069 62 62 64 0 0
0.6155 2.4268 1.0527 -0.347 0.629 0.696 19 18 23 0 0
0.6214 3.0825 0.9813 -0.966 0.028 0.258 14 14 16 0 0
0.9955 1.7915 1.1294 -0.702 -0.704 0.111 57 58 60 0 0
0.6614 2.9077 1.0137 -0.877 0.249 0.410 41 41 44 0 0
0.7180 3.7461 0.9217 -0.900 0.436 -0.017 32 32 34 0 0
0.9887 1.7786 1.1452 -0.751 0.580 0.317 140 139 141 0 0
0.6169 2.3746 1.0861 -0.249 -0.312 0.917 35 34 39 0 0
0.6392 2.9340 1.0252 -0.843 -0.058 -0.535 41 42 46 0 0
0.6082 2.9992 1.0186 -0.894 -0.443 -0.065 38 38 40 0 0
0.5574 3.2003 0.9975 -0.569 -0.730 -0.378 24 24 26 0 0
0.5624 3.4684 0.9684 -0.918 0.364 0.158 11 11 13 0 0
0.6179 3.6229 0.9508 -0.755 0.326 0.569 16 16 18 0 0
0.9942 1.7801 1.1593 -0.822 0.435 0.368 137 136 138 0 0
0.6571 2.9101 1.0415 -0.766 -0.641 0.056 41 42 46 0 0
0.6417 3.1330 1.0176 -0.560 -0.453 -0.694 19 19 21 0 0
0.5520 3.2009 1.0114 -0.662 -0.749 0.025 23 23 25 0 0
1.0010 1.7816 1.1735 -0.789 0.541 0.291 132 131 133 0 0
0.6563 2.9256 1.0539 -0.872 -0.243 0.426 39 40 44 0 0
0.6349 2.9784 1.0484 -0.896 -0.193 0.400 29 30 34 0 0
0.6196 2.9900 1.0473 -0.720 -0.655 -0.227 23 24 28 0 0
0.6433 3.0361 1.0421 -0.684 0.334 0.649 17 17 19 0 0
0.6295 3.1323 1.0319 -0.676 -0.291 -0.677 15 15 17 0 0
0.6293 3.1464 1.0303 -0.654 -0.010 -0.756 9 9 11 0 0
1.0056 1.7831 1.1876 -0.736 0.637 0.228 130 130 132 0 0
0.6186 3.1319 1.0460 -0.735 -0.237 -0.635 10 10 12 0 0
0.6158 3.1455 1.0446 -0.689 -0.002 -0.725 10 10 12 0 0
0.6240 3.1611 1.0428 -0.886 0.160 -0.435 11 11 13 0 0
0.6208 2.2429 1.1557 -0.803 0.158 0.574 18 18 20 0 0
0.6161 3.1330 1.0599 -0.876 0.271 -0.400 11 11 13 0 0
0.6228 3.1483 1.0582 -0.968 0.146 -0.203 11 11 13 0 0
0.6254 3.1629 1.0567 -0.968 0.146 -0.203 12 12 14 0 0
0.8703 3.9251 0.9726 -0.860 0.456 -0.229 45 44 48 0 0
1.0417 1.8009 1.2143 -0.667 0.592 0.453 74 74 76 0 0
0.6788 2.8631 1.1025 -0.876 -0.288 0.386 32 33 37 0 0
0.7368 2.9283 1.0952 -0.346 0.566 0.748 28 29 31 0 0
0.7608 2.9890 1.0885 -0.292 0.562 0.774 25 26 28 0 0
0.6242 3.1642 1.0705 -0.991 0.133 -0.002 12 12 14 0 0
0.8718 3.9273 0.9870 -0.880 0.327 -0.345 45 45 48 0 0
1.0559 1.7883 1.2300 -0.646 0.750 -0.146 157 157 158 0 0
1.0466 1.8024 1.2286 -0.702 0.606 0.373 91 91 92 0 0
0.6889 2.8661 1.1162 -0.696 0.681 0.226 39 39 42 0 0
0.8174 2.9565 1.1059 -0.344 0.699 0.627 26 27 29 0 0
0.6387 3.1402 1.0871 -0.890 -0.306 0.338 10 11 13 0 0
1.0565 1.7898 1.2444 -0.762 0.636 -0.127 162 162 162 0 0
0.9805 2.6920 1.1480 -0.761 -0.521 -0.387 35 36 38 0 0
0.7850 2.7535 1.1421 -0.732 -0.582 0.355 31 33 32 0 0
0.7012 2.8553 1.1314 -0.597 -0.718 0.358 41 41 43 0 0
0.6367 3.1555 1.0995 -0.983 -0.179 0.044 11 11 13 0 0
0.5425 3.2083 1.0941 -0.183 -0.937 -0.298 18 18 20 0 0
1.0689 1.8058 1.2571 -0.811 0.577 -0.097 148 148 148 0 0
0.6868 2.2118 1.2143 -0.861 0.508 0.040 24 24 26 0 0
0.6857 2.2256 1.2129 -0.798 0.575 0.180 30 30 32 0 0
0.6959 2.2402 1.2113 -0.798 0.575 0.180 35 35 37 0 0
0.9805 2.6935 1.1624 -0.724 -0.682 0.106 49 49 54 0 0
0.7900 2.7557 1.1560 -0.732 -0.582 0.355 37 37 37 0 0
0.6412 3.1578 1.1133 -0.926 -0.347 0.152 12 12 14 0 0
1.0682 1.8072 1.2715 -0.811 0.577 -0.097 165 165 165 0 0
0.6861 2.1993 1.2296 -0.876 0.462 -0.135 29 29 31 0 0
0.7428 2.2869 1.2203 -0.530 0.570 0.628 21 22 27 0 0
0.9816 2.6952 1.1767 -0.619 -0.785 0.038 71 70 72 0 0
0.9717 2.7085 1.1753 -0.746 -0.665 -0.044 46 48 47 0 0
0.9553 2.7210 1.1740 -0.751 -0.659 0.028 41 43 42 0 0
0.7381 2.7928 1.1663 -0.655 -0.152 0.740 32 31 36 0 0
1.0773 1.8232 1.2843 -0.802 0.576 -0.159 164 164 164 0 0
1.0714 1.8374 1.2828 -0.613 0.604 -0.509 138 138 138 0 0
0.7172 2.2585 1.2373 -0.527 0.688 0.499 35 34 39 0 0
0.7424 2.2744 1.2357 -0.507 0.674 0.536 19 18 22 0 0
0.7863 2.3198 1.2309 -0.646 0.506 0.571 14 15 17 0 0
0.9046 2.4007 1.2225 -0.232 0.617 0.752 79 78 74 0 0
0.8047 2.8606 1.1734 -0.312 -0.175 0.934 31 31 33 0 0
0.6943 3.1421 1.1432 -0.306 -0.951 -0.056 10 11 13 0 0
1.0691 1.8388 1.2972 -0.718 0.423 -0.552 165 165 165 0 0
1.0568 1.8528 1.2956 -0.670 0.157 -0.726 155 155 155 0 0
0.7181 2.2461 1.2527 -0.536 0.665 0.520 33 32 37 0 0
0.7582 2.2770 1.2495 -0.522 0.723 0.453 12 12 15 0 0
1.1228 2.4948 1.2276 -0.518 0.358 0.777 167 167 167 0 0
1.0038 2.6719 1.2084 -0.844 -0.236 0.481 156 155 153 0 0
0.7920 2.7748 1.1967 -0.465 -0.370 0.804 13 13 17 0 0
0.7801 2.7874 1.1953 -0.569 -0.250 0.783 18 17 22 0 0
0.7786 2.8014 1.1938 -0.572 0.010 0.820 30 29 33 0 0
0.9764 3.0035 1.1730 -0.880 0.223 -0.420 33 32 37 0 0
0.6894 3.1428 1.1572 -0.304 -0.944 -0.128 11 12 14 0 0
0.8401 3.8259 1.0851 -0.553 0.564 0.614 47 47 50 0 0
0.8579 3.8451 1.0831 -0.532 0.599 0.598 45 45 47 0 0
1.0605 1.8687 1.3085 -0.950 -0.271 -0.157 164 164 164 0 0
1.0622 1.8974 1.3054 -0.812 -0.581 0.063 122 122 122 0 0
0.7808 2.2802 1.2634 -0.594 0.541 0.596 10 12 13 0 0
1.0795 2.6677 1.2238 -0.968 -0.220 0.118 166 165 163 0 0
1.0785 2.6823 1.2222 -0.953 -0.289 0.094 132 131 130 0 0
0.8062 2.7782 1.2107 -0.390 -0.920 -0.040 13 14 16 0 0
0.7938 2.7908 1.2093 -0.588 0.162 0.792 22 21 25 0 0
0.8542 2.8420 1.2041 -0.705 0.587 0.398 39 39 41 0 0
0.6923 3.1307 1.1727 -0.430 -0.892 -0.137 10 11 13 0 0
1.0593 1.8701 1.3229 -0.920 -0.366 -0.141 166 166 166 0 0
1.0657 1.8846 1.3214 -0.905 -0.425 -0.024 166 166 166 0 0
1.0620 1.8989 1.3198 -0.817 -0.543 0.191 144 144 144 0 0
1.0561 2.6665 1.2384 -0.471 0.784 0.406 157 156 154 0 0
1.0751 2.6834 1.2368 -0.836 -0.543 -0.081 103 103 101 0 0
0.9369 2.7248 1.2315 -0.963 -0.259 0.081 11 12 15 0 0
0.8191 2.7814 1.2247 -0.511 -0.858 -0.059 13 14 16 0 0
0.8517 2.8001 1.2229 -0.658 0.725 0.203 24 23 27 0 0
0.8610 2.8301 1.2198 -0.817 0.566 0.109 39 39 41 0 0
0.8640 2.8449 1.2183 -0.881 0.462 0.098 43 43 45 0 0
1.0145 2.9980 1.2030 -0.797 0.310 -0.518 35 35 39 0 0
0.8587 3.8487 1.1119 -0.902 0.370 0.222 49 48 51 0 0
1.0860 2.6716 1.2528 -0.988 0.151 0.030 134 134 131 0 0
0.8723 2.8045 1.2370 -0.929 0.369 0.022 24 23 26 0 0
1.0338 2.9584 1.2220 -0.330 -0.494 -0.804 31 31 33 0 0
1.0138 2.9994 1.2175 -0.622 0.741 -0.253 36 36 38 0 0
0.6409 3.1106 1.2027 -0.962 0.029 -0.271 10 11 13 0 0
1.0261 2.9882 1.2335 -0.725 0.657 -0.208 41 41 43 0 0
1.0700 3.0541 1.2270 -0.844 -0.071 -0.531 22 20 23 0 0
0.5233 3.6103 1.1628 -0.263 -0.965 0.008 17 17 19 0 0
0.8336 3.8162 1.1442 -0.782 0.247 -0.573 23 23 25 0 0
0.8335 3.8309 1.1426 -0.757 0.363 -0.544 26 26 28 0 0
0.8522 3.8504 1.1407 -0.708 0.573 -0.413 29 29 31 0 0
1.0592 1.9319 1.3599 -0.457 0.707 -0.540 125 125 125 0 0
0.9122 2.0260 1.3483 -0.895 -0.118 0.429 50 49 53 0 0
0.6259 3.0969 1.2321 -0.620 -0.301 -0.725 11 12 14 0 0
0.8311 3.8026 1.1601 -0.525 -0.076 -0.848 19 19 21 0 0
1.0432 1.9328 1.3742 -0.416 0.687 -0.596 162 162 162 0 0
0.9556 1.9440 1.3718 -0.697 -0.014 -0.717 127 127 127 0 0
0.9622 1.9585 1.3704 -0.647 0.060 -0.760 91 91 91 0 0
0.9775 2.7361 1.2888 -0.762 -0.644 -0.070 10 11 13 0 0
0.8737 2.8525 1.2751 -0.812 0.580 -0.068 51 49 52 0 0
0.5061 3.6094 1.1907 -0.934 0.189 -0.305 16 16 18 0 0
0.7063 3.7004 1.1837 -0.341 0.937 0.072 15 15 17 0 0
0.8232 3.8023 1.1745 -0.706 0.518 -0.483 20 19 24 0 0
0.8416 3.8363 1.1712 -0.787 0.373 -0.491 29 29 31 0 0
0.9408 1.9733 1.3829 -0.739 -0.156 -0.656 111 111 111 0 0
0.9415 1.9876 1.3814 -0.783 -0.295 -0.548 87 87 87 0 0
0.6811 3.0813 1.2627 -0.423 -0.904 -0.062 11 11 13 0 0
0.9587 2.0182 1.3929 -0.876 0.158 0.456 125 125 125 0 0
0.8840 2.7562 1.3142 -0.829 -0.247 0.502 16 16 19 0 0
0.8773 2.7697 1.3127 -0.807 -0.317 0.499 23 21 24 0 0
0.9784 2.9580 1.2946 -0.908 -0.266 -0.323 43 42 47 0 0
1.0032 2.9764 1.2931 -0.845 0.517 -0.138 36 35 40 0 0
0.9551 2.0195 1.4071 -0.766 0.310 0.563 166 166 166 0 0
0.9731 2.9588 1.3091 -0.908 -0.266 -0.323 40 40 45 0 0
1.0251 3.0255 1.3030 -0.741 0.023 -0.671 17 17 19 0 0
0.8942 3.8993 1.2092 -0.602 0.029 0.798 50 50 57 0 0
0.9665 2.0214 1.4215 -0.766 0.310 0.563 167 167 167 0 0
0.9620 2.0355 1.4199 -0.754 0.454 0.475 167 167 167 0 0
0.9735 2.0503 1.4186 -0.927 0.256 0.275 166 166 166 0 0
0.9712 2.9454 1.3250 -0.790 -0.493 -0.365 41 42 43 0 0
1.0141 3.0106 1.3191 -0.816 0.051 -0.576 23 23 26 0 0
0.9751 3.4015 1.2774 -0.527 -0.847 -0.074 28 27 32 0 0
0.9892 2.0811 1.4302 -0.843 -0.144 0.518 165 163 164 0 0
0.8950 2.8199 1.3511 -0.824 0.405 0.395 60 60 62 0 0
0.9812 2.8901 1.3456 -0.937 0.306 -0.168 25 26 28 0 0
1.0001 2.9514 1.3396 -0.959 0.205 -0.196 38 39 41 0 0
1.0000 2.9953 1.3350 -0.890 0.421 0.177 28 27 32 0 0
0.6313 3.0789 1.3184 -0.723 -0.380 -0.576 13 13 15 0 0
0.6106 3.0894 1.3169 -0.921 -0.151 -0.358 15 15 17 0 0
0.6821 3.2298 1.3038 -0.560 0.796 0.231 38 37 42 0 0
1.0012 2.0976 1.4432 -0.844 0.230 0.485 168 166 167 0 0
0.9118 2.7659 1.3715 -0.784 -0.037 0.620 36 35 39 0 0
1.0198 2.9853 1.3512 -0.792 0.535 0.295 32 33 37 0 0
1.0248 3.0008 1.3497 -0.859 -0.470 -0.203 22 21 26 0 0
0.6290 3.0659 1.3338 -0.844 -0.129 -0.521 13 13 15 0 0
0.6141 3.1197 1.3279 -0.981 0.109 -0.160 16 16 18 0 0
0.5128 3.4655 1.2895 -0.701 -0.561 -0.440 13 13 15 0 0
0.6130 3.6160 1.2762 -0.543 0.824 0.163 18 18 20 0 0
0.9336 2.7269 1.3906 -0.852 -0.438 0.287 18 18 23 0 0
0.9157 2.7535 1.3874 -0.744 0.250 0.620 30 29 34 0 0
0.9927 2.9388 1.3700 -0.984 0.135 0.114 39 40 44 0 0
1.0148 2.9714 1.3672 -0.798 0.542 0.263 33 34 38 0 0
1.0246 2.9876 1.3658 -0.811 0.489 0.321 29 30 34 0 0
1.0212 3.0018 1.3642 -0.953 -0.026 -0.301 18 18 21 0 0
0.6185 3.0657 1.3476 -0.953 -0.150 -0.262 14 14 16 0 0
0.6114 3.1067 1.3432 -0.997 0.052 -0.064 16 16 18 0 0
0.6283 3.6498 1.2872 -0.353 0.773 -0.528 14 14 16 0 0
0.9298 2.8148 1.3959 -0.794 0.169 0.583 55 55 57 0 0
0.9971 2.9410 1.3846 -0.874 0.477 0.092 35 36 39 0 0
1.0095 2.9575 1.3832 -0.742 0.633 0.223 33 34 37 0 0
0.6195 3.0674 1.3615 -0.897 -0.434 0.083 14 14 16 0 0
0.6339 3.1971 1.3485 -0.869 0.305 0.390 39 38 43 0 0
0.4812 3.5739 1.3053 -0.694 -0.088 -0.715 18 18 20 0 0
0.9971 2.9426 1.3991 -0.766 0.625 0.151 32 33 35 0 0
1.0105 2.9593 1.3977 -0.745 0.603 0.284 32 33 35 0 0
0.9059 3.3664 1.3526 -0.751 -0.653 -0.100 33 32 37 0 0
0.9402 2.7034 1.4368 -0.874 0.206 -0.440 15 18 22 0 0
0.9434 2.7183 1.4353 -0.673 -0.084 0.735 18 22 25 0 0
1.0062 2.9602 1.4122 -0.766 0.598 0.235 31 32 34 0 0
0.6285 3.0438 1.3924 -0.983 -0.173 0.057 13 13 15 0 0
0.6220 3.0568 1.3908 -0.982 -0.170 0.085 13 13 15 0 0
0.5907 3.0655 1.3890 -0.932 0.353 0.086 15 15 17 0 0
1.1437 2.5969 1.4686 -0.403 -0.673 -0.620 85 85 86 0 0
1.0092 2.8743 1.4358 -0.372 -0.851 -0.371 27 27 29 0 0
0.9484 2.9239 1.4288 -0.693 0.285 -0.662 31 31 33 0 0
1.0109 2.9625 1.4268 -0.798 0.576 0.179 27 27 29 0 0
1.0006 2.9756 1.4251 -0.997 0.055 -0.062 19 19 21 0 0
0.6009 3.0548 1.4044 -0.953 0.212 -0.217 14 14 16 0 0
0.9093 3.3556 1.3830 -0.948 -0.279 -0.152 36 36 38 0 0
0.5357 3.4362 1.3630 -0.409 -0.909 0.087 14 14 16 0 0
0.5142 3.4456 1.3614 -0.423 -0.901 0.094 14 14 16 0 0
1.1235 2.5963 1.4829 -0.411 -0.673 -0.615 79 77 81 0 0
0.9796 2.9301 1.4437 -0.909 0.371 -0.189 32 32 34 0 0
0.9944 2.9616 1.4410 -0.859 0.487 -0.154 23 23 25 0 0
0.6035 3.0567 1.4183 -0.995 0.093 0.022 15 15 17 0 0
0.6068 3.0714 1.4169 -0.921 0.261 -0.290 15 15 17 0 0
0.4988 3.4438 1.3750 -0.861 -0.508 0.007 13 13 15 0 0
0.6238 3.6568 1.3572 -0.460 0.782 -0.421 21 21 23 0 0
0.9412 3.9418 1.3382 -0.329 -0.940 -0.085 49 48 53 0 0
1.0791 2.5490 1.5010 -0.587 0.731 0.347 134 132 133 0 0
1.0987 2.5658 1.5000 -0.684 0.693 0.226 80 78 82 0 0
1.0968 2.5802 1.4984 -0.838 0.524 0.152 70 68 73 0 0
1.1027 2.5956 1.4970 -0.436 -0.660 -0.612 62 60 66 0 0
0.9698 2.6101 1.4909 -0.694 -0.582 -0.424 40 40 42 0 0
0.9775 2.8000 1.4717 -0.853 0.403 0.331 46 45 50 0 0
0.9789 2.9316 1.4582 -0.917 0.297 -0.265 31 31 33 0 0
0.9832 2.9468 1.4568 -0.820 0.548 -0.163 28 28 30 0 0
1.0181 2.9668 1.4559 -0.929 0.283 0.239 20 20 22 0 0
0.6103 3.0454 1.4338 -0.966 -0.238 0.096 14 14 16 0 0
0.6040 3.0584 1.4322 -0.995 0.093 0.022 15 15 17 0 0
0.6280 3.1613 1.4225 -0.853 0.193 0.485 40 39 44 0 0
0.5228 3.4225 1.3920 -0.636 -0.679 -0.368 12 12 14 0 0
0.4862 3.4426 1.3886 -0.900 0.408 -0.155 13 13 15 0 0
1.0948 2.5522 1.5160 -0.573 0.695 0.434 93 91 93 0 0
0.9934 2.5998 1.5074 -0.765 -0.619 -0.175 32 33 35 0 0
0.9508 2.6095 1.5049 -0.751 -0.498 -0.433 29 30 31 0 0
1.0093 2.8351 1.4838 -0.941 0.336 0.052 26 26 29 0 0
0.9951 2.9355 1.4730 -0.710 0.577 0.404 29 29 31 0 0
1.0077 2.9521 1.4718 -0.747 0.566 0.349 24 24 26 0 0
0.6397 3.0377 1.4497 -0.994 -0.099 0.038 14 14 16 0 0
0.6128 3.0473 1.4477 -0.995 -0.086 0.046 14 14 16 0 0
0.6343 3.0651 1.4467 -0.827 -0.528 0.196 15 15 17 0 0
0.9036 3.9501 1.3655 -0.549 0.262 -0.793 41 40 45 0 0
1.0068 2.5882 1.5237 -0.881 -0.428 0.203 34 34 37 0 0
0.9906 2.6010 1.5218 -0.826 -0.561 -0.061 28 29 31 0 0
0.9718 2.6134 1.5198 -0.858 -0.439 -0.268 22 23 25 0 0
0.6436 3.0117 1.4666 -0.959 -0.213 -0.186 13 13 15 0 0
0.9347 3.9154 1.3850 -0.824 -0.559 0.097 35 32 41 0 0
1.0946 2.5553 1.5452 -0.863 0.205 0.462 56 56 58 0 0
1.0226 2.5769 1.5401 -0.898 -0.439 0.041 40 39 44 0 0
0.9596 2.7151 1.5235 -0.699 0.197 -0.688 56 55 60 0 0
1.0193 2.9423 1.5026 -0.977 0.003 0.214 24 24 26 0 0
0.6197 3.0515 1.4757 -0.951 -0.052 -0.306 15 15 17 0 0
0.5321 3.4151 1.4350 -0.510 -0.759 -0.406 12 12 14 0 0
0.8324 3.9198 1.3952 -0.188 -0.334 -0.924 52 51 56 0 0
0.9874 2.6328 1.5476 -0.790 0.612 0.029 16 17 19 0 0
0.5219 3.4145 1.4487 -0.545 -0.758 -0.357 12 12 14 0 0
0.9761 2.6330 1.5617 -0.711 0.021 0.703 14 15 17 0 0
1.0055 2.8555 1.5403 -0.558 -0.825 0.083 27 28 30 0 0
1.0577 2.8922 1.5388 -0.972 0.039 0.230 26 27 29 0 0
1.0369 2.9039 1.5367 -0.948 0.232 -0.220 24 25 27 0 0
1.0212 2.9164 1.5348 -0.877 0.467 0.114 26 26 28 0 0
0.9707 2.9236 1.5319 -0.893 0.310 0.326 24 24 26 0 0
0.5867 3.6148 1.4450 -0.075 -0.919 0.388 19 19 21 0 0
1.1576 2.5370 1.5941 -0.292 -0.952 0.095 84 84 82 0 0
1.0809 2.5585 1.5885 -0.872 -0.489 -0.017 58 59 61 0 0
1.0006 2.8564 1.5547 -0.805 -0.592 -0.026 30 31 33 0 0
1.0437 2.9065 1.5515 -0.984 -0.057 -0.170 25 25 27 0 0
0.5693 2.9916 1.5218 -0.504 -0.687 -0.524 14 14 16 0 0
0.5360 3.4066 1.4781 -0.083 -0.739 0.669 13 13 15 0 0
0.5020 3.4134 1.4759 -0.736 -0.676 -0.003 13 13 15 0 0
0.9799 3.9341 1.4441 -0.932 0.264 0.248 50 48 53 0 0
0.9843 3.9502 1.4426 -0.829 -0.045 0.558 49 48 53 0 0
0.9829 3.9649 1.4411 -0.702 0.315 0.638 50 49 53 0 0
1.2147 2.5146 1.6139 -0.511 -0.857 0.063 170 170 170 0 0
1.0485 2.9383 1.5632 -0.954 0.272 -0.127 20 20 22 0 0
1.2027 2.5150 1.6283 -0.813 -0.581 0.012 170 170 169 0 0
1.0511 2.5877 1.6137 -0.630 -0.632 -0.452 39 39 43 0 0
0.9394 2.6768 1.5993 -0.218 -0.570 0.792 39 40 43 0 0
0.9143 2.6883 1.5969 -0.261 -0.319 0.911 47 46 51 0 0
0.9226 3.9224 1.4722 -0.377 0.589 -0.715 55 53 58 0 0
0.9633 3.9481 1.4716 -0.440 0.232 -0.867 50 48 53 0 0
1.1998 2.5162 1.6429 -0.900 -0.422 -0.113 169 168 167 0 0
1.1507 2.5409 1.6380 -0.347 -0.923 -0.163 93 92 90 0 0
1.0521 2.6040 1.6268 -0.660 -0.486 -0.573 39 39 43 0 0
1.0456 2.6179 1.6250 -0.674 -0.739 -0.025 39 40 44 0 0
0.9427 2.6788 1.6138 -0.286 -0.498 0.819 54 53 57 0 0
0.9430 2.9404 1.5873 -0.908 -0.325 -0.264 13 13 15 0 0
0.8453 2.9546 1.5811 -0.476 -0.737 0.480 12 12 14 0 0
1.0318 2.6033 1.6405 -0.563 -0.137 -0.815 40 42 46 0 0
1.0267 2.6173 1.6388 -0.648 -0.295 -0.702 42 43 47 0 0
0.9638 2.7119 1.6261 -0.344 -0.402 0.849 71 69 73 0 0
0.9310 2.7223 1.6234 -0.432 -0.393 0.812 64 62 63 0 0
0.8771 2.9321 1.5994 -0.323 0.605 -0.728 13 13 15 0 0
1.0287 2.6045 1.6549 -0.352 0.342 -0.871 41 43 47 0 0
0.9541 2.6977 1.6416 -0.136 -0.868 -0.478 78 75 77 0 0
0.9643 2.7135 1.6405 -0.320 -0.753 -0.574 78 76 78 0 0
0.6853 2.9615 1.6009 -0.470 0.466 -0.750 14 14 16 0 0
0.8887 3.9037 1.5166 -0.468 0.840 -0.276 37 35 40 0 0
0.8558 3.9840 1.5067 -0.634 0.773 0.014 63 63 66 0 0
0.5731 3.0855 1.5965 -0.859 -0.265 -0.438 43 42 47 0 0
0.6847 2.8795 1.6375 -0.828 -0.028 -0.560 38 36 38 0 0
0.5923 2.9920 1.6210 -0.753 -0.641 -0.150 15 15 17 0 0
0.5819 3.0043 1.6192 -0.995 0.100 -0.027 15 15 17 0 0
0.5939 3.0907 1.6112 -0.593 -0.723 0.354 44 43 48 0 0
0.8898 3.9371 1.5427 -0.744 0.500 0.443 63 63 68 0 0
0.6738 2.9218 1.6468 -0.751 -0.318 -0.580 38 37 38 0 0
0.5814 3.0058 1.6330 -0.996 0.074 -0.052 27 27 28 0 0
0.5954 3.0784 1.6265 -0.771 -0.381 -0.511 44 43 48 0 0
1.1552 2.5064 1.7310 -0.388 -0.861 -0.328 85 84 85 0 0
1.1604 2.4789 1.7489 -0.620 0.672 0.404 134 132 135 0 0
0.5819 3.0370 1.6580 -0.914 -0.405 -0.028 51 49 50 0 0
0.5815 3.0510 1.6566 -0.936 -0.242 -0.255 48 46 47 0 0
0.5789 3.0646 1.6551 -0.974 -0.130 -0.186 46 46 48 0 0
0.9046 3.9909 1.5823 -0.724 0.609 0.324 57 56 61 0 0
1.1734 2.4817 1.7644 -0.620 0.672 0.404 103 103 105 0 0
0.5774 3.0518 1.6703 -0.947 -0.182 -0.267 49 47 48 0 0
0.6330 3.7026 1.6089 -0.254 0.294 -0.921 15 15 17 0 0
1.1725 2.4831 1.7791 -0.795 0.498 0.347 89 90 92 0 0
0.6604 2.8412 1.7106 -0.871 -0.375 0.316 38 38 43 0 0
0.6532 2.8542 1.7088 -0.781 -0.595 0.192 38 36 41 0 0
0.7291 3.1507 1.6842 -0.337 0.735 -0.589 43 42 47 0 0
1.1772 2.4703 1.7956 -0.555 0.740 0.380 100 100 101 0 0
1.1580 2.4981 1.7916 -0.940 -0.128 0.316 70 71 75 0 0
1.1446 2.5411 1.7864 -0.615 0.378 0.692 54 53 57 0 0
0.6538 2.8418 1.7243 -0.588 -0.743 0.319 39 40 44 0 0
0.6338 2.8670 1.7204 -0.665 -0.640 0.385 38 38 42 0 0
0.6198 2.8790 1.7183 -0.822 -0.569 0.026 39 38 42 0 0
0.6173 2.9208 1.7140 -0.675 -0.521 -0.523 64 64 66 0 0
0.5296 3.0328 1.6971 -0.917 -0.221 -0.332 79 77 78 0 0
0.5274 3.0463 1.6956 -0.905 -0.037 -0.424 83 81 82 0 0
0.6637 3.1406 1.6952 -0.345 0.637 -0.689 42 41 47 0 0
0.6399 3.1505 1.6927 -0.529 0.762 -0.375 41 40 44 0 0
0.5147 3.0597 1.7074 -0.925 -0.356 0.131 83 83 83 0 0
1.1873 2.4596 1.8272 -0.482 0.813 0.328 97 97 101 0 0
0.5429 3.0241 1.7268 -0.927 -0.189 -0.323 91 89 90 0 0
0.5185 3.0339 1.7242 -0.907 -0.107 -0.408 86 84 85 0 0
0.5168 3.0476 1.7227 -0.917 -0.221 -0.332 82 80 81 0 0
0.5160 3.0614 1.7213 -0.925 -0.356 0.131 78 78 78 0 0
1.1675 2.4593 1.8408 -0.995 0.099 0.011 84 83 88 0 0
1.0400 2.6521 1.8127 -0.431 0.125 0.894 68 68 71 0 0
0.5524 2.9852 1.7453 -0.538 -0.289 -0.791 30 29 33 0 0
0.5041 3.0191 1.7386 -0.824 -0.154 -0.545 95 93 94 0 0
0.5026 3.0328 1.7371 -0.835 -0.062 -0.547 95 93 95 0 0
0.5029 3.0467 1.7357 -0.890 -0.005 -0.456 89 88 89 0 0
0.5089 3.0617 1.7347 -0.925 -0.040 -0.377 87 87 86 0 0
0.5225 3.0780 1.7340 -0.748 -0.068 -0.660 82 81 80 0 0
1.1758 2.4468 1.8575 -0.682 0.696 0.224 98 97 100 0 0
0.6390 2.8457 1.7793 -0.599 -0.665 -0.446 29 30 32 0 0
0.5108 3.0915 1.7458 -0.817 -0.037 -0.576 86 85 82 0 0
0.5349 3.1517 1.7416 -0.575 0.291 -0.765 45 46 44 0 0
0.6319 3.5399 1.7104 -0.978 -0.193 -0.073 20 20 22 0 0
1.1658 2.4327 1.8731 -0.690 0.682 0.242 125 125 127 0 0
0.6333 3.5419 1.7245 -0.991 -0.090 0.098 21 21 23 0 0
1.1573 2.4187 1.8888 -0.845 0.510 0.159 159 157 158 0 0
1.1319 2.4312 1.8856 -0.264 -0.918 -0.295 98 98 100 0 0
0.4381 3.4013 1.7378 -0.758 -0.589 0.278 12 12 14 0 0
0.6339 3.5436 1.7386 -0.987 -0.136 0.084 21 21 23 0 0
1.1622 2.4207 1.9038 -0.863 0.500 0.076 135 135 137 0 0
0.7803 2.7849 1.8386 -0.170 -0.818 0.550 40 41 45 0 0
0.4512 3.0593 1.8001 -0.893 -0.373 -0.250 18 17 20 0 0
0.4987 3.2211 1.7880 -0.367 0.263 -0.892 85 85 84 0 0
1.1301 2.4209 1.9311 -0.417 -0.902 -0.117 90 91 93 0 0
0.4633 3.0907 1.8119 -0.957 -0.082 0.278 28 27 33 0 0
0.4473 3.1156 1.8081 -0.988 -0.083 0.128 23 20 27 0 0
0.4498 3.1299 1.8069 -0.987 0.091 0.133 24 22 28 0 0
0.4838 3.3597 1.7872 -0.583 -0.476 -0.658 12 12 14 0 0
0.4686 3.3705 1.7850 -0.933 -0.178 -0.312 13 13 15 0 0
0.4497 3.4784 1.7729 -0.864 0.279 0.419 18 18 20 0 0
0.4736 3.3592 1.8004 -0.817 -0.510 -0.267 14 14 16 0 0
1.1269 2.4237 1.9603 -0.605 -0.698 0.383 72 73 78 0 0
0.4894 3.3220 1.8193 -0.951 -0.067 -0.303 54 54 56 0 0
0.4460 3.3410 1.8138 -0.315 -0.397 0.862 29 28 33 0 0
0.5026 3.2281 1.8436 -0.699 0.112 0.706 13 14 18 0 0
0.5100 3.2435 1.8427 -0.778 0.424 0.463 13 14 16 0 0
0.4946 3.3386 1.8321 -0.411 -0.111 0.905 63 63 63 0 0
0.4628 3.4020 1.8233 -0.981 -0.020 0.192 21 20 26 0 0
0.4623 3.4720 1.8164 -0.830 -0.140 -0.541 22 19 25 0 0
1.1860 2.4321 1.9943 -0.597 -0.068 0.799 82 83 88 0 0
0.5028 3.0759 1.8723 -0.693 -0.092 -0.715 46 46 49 0 0
0.5150 3.2460 1.8569 -0.562 0.070 0.824 12 13 15 0 0
0.5310 3.6164 1.8224 -0.946 -0.315 0.072 25 26 28 0 0
1.2621 2.3956 2.0196 -0.376 -0.773 0.511 176 175 175 0 0
1.2314 2.4079 2.0157 -0.376 -0.773 0.511 173 172 173 0 0
1.2045 2.4204 2.0121 -0.409 -0.730 0.547 140 138 141 0 0
1.1726 2.4324 2.0081 -0.359 -0.748 0.558 94 93 97 0 0
0.9835 2.5752 1.9775 -0.137 0.235 -0.962 39 40 44 0 0
0.4900 3.0891 1.8839 -0.487 0.159 -0.859 46 45 49 0 0
0.5301 3.1522 1.8813 -0.379 0.274 -0.884 37 36 40 0 0
0.4997 3.1606 1.8778 -0.851 -0.488 -0.193 27 26 31 0 0
0.5009 3.2028 1.8738 -0.835 -0.550 0.015 12 12 15 0 0
1.2218 2.4235 2.0284 -0.337 -0.740 0.582 158 156 158 0 0
1.1885 2.4354 2.0242 -0.337 -0.740 0.582 110 108 111 0 0
1.1132 2.4581 2.0152 -0.307 -0.759 0.575 80 79 82 0 0
0.9438 2.5869 1.9874 -0.195 0.353 -0.915 38 39 43 0 0
0.5217 3.0543 1.9040 -0.751 -0.385 0.537 19 19 21 0 0
0.4975 3.1618 1.8915 -0.741 -0.521 -0.423 46 46 46 0 0
0.4966 3.1756 1.8901 -0.756 -0.612 -0.230 41 41 43 0 0
0.4910 3.1885 1.8883 -0.804 -0.556 -0.209 32 32 34 0 0
0.4942 3.2171 1.8858 -0.875 -0.020 -0.483 14 15 17 0 0
0.5047 3.2331 1.8852 -0.808 0.348 -0.476 13 13 15 0 0
1.2535 2.3980 2.0488 -0.560 -0.747 0.359 176 176 175 0 0
1.2316 2.4110 2.0455 -0.651 -0.680 0.337 177 175 176 0 0
1.2161 2.4245 2.0428 -0.651 -0.680 0.337 170 168 170 0 0
1.2017 2.4381 2.0401 -0.762 -0.552 0.339 123 121 124 0 0
1.1756 2.4506 2.0365 -0.568 -0.740 0.360 102 104 104 0 0
