ply
format ascii 1.0
element vertex 732
property float x
property float y
property float z
property uchar diffuse_red
property uchar diffuse_green
property uchar diffuse_blue
end_header
1.0873499466511614 2.05372188213073 1.3350120090924478 43 44 48
1.0883330603292911 2.0316805047835715 1.3345070391475593 43 44 47
1.0878139619730587 2.0113797766199726 1.334413837408488 45 45 48
1.038902481477168 1.9818738206209323 1.3468499216814485 12 13 16
0.9387121409578221 1.9658705948857023 1.3728246514685019 51 52 56
0.8940479884614894 1.9927967364319243 1.384787737425956 55 55 57
0.8990549762233546 1.946256874711092 1.3829563142491972 62 62 64
0.8893372477276609 1.935994808954955 1.3853775445862557 65 66 68
1.7369022183886857 3.9941914857194214 1.203849004395081 170 168 169
1.2186696444129101 2.8462570911484844 1.3253081369457325 28 28 30
1.2152127689099816 2.826591004909379 1.3259674939771817 28 28 30
1.271596419682647 2.707392230626903 1.3096867898543987 27 27 29
1.2140740849958838 2.6387357345922835 1.3239064783921135 10 10 12
1.130768448081659 2.6949132196071925 1.3464544016675806 12 12 14
1.1538044859719223 2.6432335041379162 1.3397653457738765 13 13 15
1.1440137141068085 2.6319859522052553 1.3421911589463182 12 12 14
1.1234761137924707 2.633849663815569 1.3475994193430287 15 15 17
1.1015417623098256 2.6373330572767646 1.3533942447256053 29 29 31
1.0815470438321766 2.6383794145121233 1.358649897901076 48 46 49
1.0598613316515082 2.6413945765237976 1.3643736501007395 53 51 56
1.036550123888757 2.646279769650167 1.3705470874056134 35 33 39
1.0084361868164884 2.656825072438008 1.378050869447383 47 45 50
0.9428893370600724 2.7119630129913106 1.3959294745845847 72 72 74
0.8853473085997048 2.7571354632173586 1.4115840851507633 91 92 92
1.07570869294049 2.070472234483739 1.3530474351324775 39 39 43
1.0765097839818285 2.048567706815197 1.3525622595296056 45 45 48
0.9240296236180912 2.005937106057102 1.3920062924443595 57 57 59
1.753238491177286 4.003785044953996 1.2162345797392509 170 170 170
1.747705196428623 3.983118679708297 1.2174053518464363 170 168 169
1.7162909663320105 3.7999564426843477 1.2231400217637767 48 47 51
1.762107202936746 3.642151839961011 1.208888407075879 50 49 54
1.248282695916356 2.7653009857741178 1.3320479193330084 27 27 29
1.226311949197882 2.6280664250945707 1.3359321354302585 12 12 14
1.1733734038831094 2.6236839020609413 1.3498120865466114 13 13 15
1.1686731265590484 2.606268311345551 1.350808536440741 12 12 14
1.1383289802294922 2.6201859576798054 1.3589921109900425 13 13 15
1.1142779076807852 2.626294954711673 1.3654102917642927 23 23 25
1.091200021114071 2.6311190356455727 1.3715543931959568 38 36 39
1.0700699947114587 2.6334935203093375 1.3771516100079653 52 50 54
1.0480235823947421 2.6368900539395197 1.383004306375177 44 41 47
1.0200032952903757 2.647365248854226 1.3905282250722277 35 31 37
0.9653130213451075 2.6895932238411184 1.4055152962527893 63 63 67
0.9072093926144962 2.7355421789253103 1.4214527869449554 75 78 80
1.0622387709224084 2.0892758969606615 1.3716732961230576 23 22 28
1.0468582882296968 2.0431687615706973 1.3750846946173911 48 48 47
0.8714807186840346 2.086969094526158 1.4218749749456505 74 74 74
0.8503479251595333 2.088613827615886 1.4274628091594743 73 73 73
1.8049497631939693 3.896021450828981 1.217485227401352 170 168 169
1.7269332107126538 3.732080477472989 1.2356350214234355 53 52 57
1.7874810815418951 3.5803894680588364 1.2173229169105886 54 54 57
1.286066599239892 2.96367402291765 1.3405925690555707 11 11 13
1.2808622579457025 2.9458799292323 1.3416993984343881 11 11 13
1.218103880397324 2.8323578789586374 1.3565776542231824 29 29 30
1.2383374890647314 2.617647551038844 1.3479730001062347 12 12 14
1.1236274582953532 2.619363441631646 1.3783374999125135 19 19 21
1.0923789946795974 2.634124809048158 1.3868257542042728 31 30 34
1.0717557611286264 2.635882617123409 1.392306819692462 47 46 50
1.0548667114504418 2.6330659907697793 1.396730957094063 52 51 54
1.031502077675381 2.637976185582433 1.4029848325867935 34 31 37
0.9903786066055948 2.6640350828586716 1.414256007260743 48 46 51
0.9359761995743563 2.7056890541671916 1.4292754890727175 67 68 70
0.8770730384717798 2.7523489292416183 1.4455611789858553 95 95 95
1.0507690793503262 2.105878314397481 1.3898268003569891 15 13 18
1.0438807014325784 2.092361764655534 1.3914438365667197 27 26 29
1.0409806822478167 2.074466144658462 1.3919396806805056 42 41 42
1.034332206041156 2.060754454174475 1.3934903109485162 50 49 49
1.0212662091002231 2.0541150077739427 1.3968454046231258 53 53 51
0.8676158993918496 2.11600316472831 1.4384205511696904 101 101 101
0.8332428995886177 2.131872159488595 1.4477519652359976 111 111 111
1.8057030764496762 3.9013155850301473 1.233745074906222 169 167 168
1.7652642490193626 3.6494678194944545 1.2403439580677986 46 46 48
1.7867028897776518 3.5876916636114555 1.233633194045701 42 42 44
1.5932480252190317 2.925318110803443 1.2741240532025984 26 26 28
1.2589227974048 3.0541347887785637 1.3650476647105951 12 12 14
1.2822630792192165 2.9489479201595055 1.357117719460334 11 11 13
1.2690272819254935 2.941682900211748 1.3605139594073314 11 11 13
1.2108931960940414 2.8222055745004724 1.3739904766027438 29 29 29
1.2010336412352594 2.6451078386962417 1.3736963381705884 10 10 12
1.206808335303156 2.6146960706973728 1.3716622010313462 12 12 14
1.1963339256041912 2.6044033390513603 1.3742751482588242 14 14 16
1.1490752788869374 2.6159655202040666 1.3870183518452657 13 13 15
1.1258780526972259 2.621065609471703 1.3932639766271664 16 16 18
1.1002273682185346 2.6290433928805097 1.4002086331683081 26 25 30
1.079630766877232 2.6307913631357973 1.4057083314741332 40 39 42
1.0601511619216153 2.6311163024092465 1.4108879216827979 52 52 54
1.0412439356398284 2.630686299895687 1.4159030565411959 42 40 45
1.0163799450313817 2.6373250550563276 1.4226167229269122 35 33 38
0.9547806234226239 2.687685778843014 1.4398073449776576 65 65 67
0.8966933339588663 2.733469087666341 1.4559897943273903 79 81 80
1.0386201377716326 2.1232572648816768 1.4082533294002313 13 14 16
1.007032209179106 2.0735397567276554 1.4158260324306071 55 55 55
0.8661349513578693 2.142610221592304 1.4543878233977272 74 74 75
0.8320185770619937 2.1582426043042493 1.4637070780842212 84 84 85
0.807693938895876 2.1206933714897334 1.4695506340686029 157 157 157
0.7975495268999951 2.110386421040295 1.4720756921914722 168 168 168
1.7216470308114307 3.7815847182883164 1.2704341768286491 34 33 39
1.7596303801528523 3.6928318332888885 1.2587263338625625 33 32 37
1.78331442309061 3.627173246333669 1.2512429451464109 32 32 34
1.8018383340472703 3.570011865292915 1.2452869152704753 29 29 32
1.6347585976923573 2.9472903790434106 1.278807127018627 30 30 32
1.6148964491636981 2.9252042200709782 1.2837137586622929 26 26 28
1.6068869085367739 2.9115133015145718 1.2856074792314751 26 26 28
1.5958642142775787 2.902010442579517 1.2883793388350397 26 26 28
1.2634546161848934 3.0782223485951956 1.38018290877599 15 15 17
1.2657004279878619 2.950926242887139 1.3773246868748845 10 10 12
1.2116755275158444 2.636441236754275 1.3861556879046186 11 11 13
1.2189527040442543 2.604188236962119 1.3836419770672788 11 11 13
1.2179978432475775 2.582215252856356 1.383506751488338 13 13 15
1.1942076791380087 2.5883277797543895 1.3899616923925866 18 18 20
1.1556750651359464 2.612353153422573 1.4006673495353499 12 12 14
1.137444721924369 2.6114226327437207 1.405514114044306 16 16 18
1.106760751695051 2.6255526806906566 1.4139503902412454 21 20 25
1.0708649240287982 2.64582965032211 1.4238861137485865 32 32 35
1.0700249528092693 2.623630351702432 1.4237162228885385 46 46 48
1.0483024729018982 2.6266130547185607 1.4295640264637886 48 47 51
1.0287625202220678 2.6268960902877323 1.4347816901674333 32 30 35
0.9835197482291322 2.657799166977014 1.4473994628677234 53 53 55
0.9216942546870677 2.708163498635337 1.4647863574531441 73 75 74
1.0294506532822507 2.180124385694831 1.4266693082367434 132 132 133
1.0266670308158816 2.1404397696056163 1.426707611924235 35 38 38
0.9247099967105296 2.167807496702082 1.454392212598436 61 61 62
0.901582549147803 2.1717946137273705 1.4606326422884455 66 66 68
0.8703696019692787 2.18451905459023 1.4691850876278894 72 72 72
0.8498085415333944 2.1855072593903433 1.4746876651137395 79 79 79
0.8237243773659628 2.1924154299548864 1.4817686928042018 90 90 90
0.8532433854079567 2.1179031139697386 1.4725715939594017 131 131 131
0.8095826994112867 2.143650000564775 1.4846758098518693 162 162 162
1.8161529967079586 3.8972602419612574 1.263660688952911 170 168 169
1.7411988195042396 3.96073969087508 1.2849509589121155 123 121 124
1.7415242511726055 3.756303677396626 1.280970130985284 32 31 37
1.7666385367244426 3.687949310668954 1.2729398071498979 32 31 36
1.5648238354982986 2.9003737124243814 1.3120087622463543 21 21 23
1.2624453803139932 3.084616867466046 1.3965291623360412 16 16 18
1.2569621467321428 3.066779599399641 1.397658471631251 14 14 16
1.140121146518322 2.897421989423953 1.4257362378006622 29 29 29
1.1428471289037836 2.869720807554941 1.4244783194110218 28 28 30
1.2255222937072183 2.6237916203065623 1.3976445957773829 12 12 14
1.2030444158648437 2.581934589443101 1.40286952931816 14 14 16
1.1694407277583512 2.5999730780180283 1.4122159764941664 14 14 16
1.1355976796533982 2.618117999522391 1.4216285786034222 14 14 16
1.1073768916145155 2.6292466624099875 1.429401269876708 20 19 24
1.076053656333287 2.64399219585257 1.4380740355165016 29 28 31
1.0600262026198881 2.6401162287241404 1.4422941901100221 41 41 43
1.0476449901558063 2.6318153817102985 1.4454531912851611 51 50 54
1.03419425727501 2.624786470140886 1.448922956678039 40 38 43
1.0185553781509733 2.620353129777233 1.4530283911933632 31 31 33
0.9597826531436573 2.667243419944387 1.469667474265106 66 68 67
0.8910580841477918 2.7255660145643272 1.4891905302434423 82 82 80
1.0145555516085163 2.1578201182645627 1.4452907046310641 117 116 117
1.0121396514685863 2.1178716802402135 1.445177108946521 86 85 85
0.9505327586465521 2.1432817808087976 1.4621663979209403 88 88 87
0.9293163696688844 2.1452616333484396 1.4678882682266918 92 92 91
0.9003775887190505 2.1556008717331756 1.4758382844851634 94 94 92
0.8929703835199435 2.1423684694929666 1.477570755439546 106 106 104
0.876613309677303 2.138871854643335 1.4818864448549773 129 129 127
0.8482376229768275 2.1483338498651383 1.4896688926497934 154 154 153
0.8149032995537718 2.1630159673646174 1.498879248665889 167 167 167
1.81710108650496 3.9022511991761357 1.2799035762940834 171 169 170
1.7430751903575306 3.9642440807209423 1.3010822628053562 113 113 113
1.7237912114826246 3.7907804523222977 1.3027415958120092 38 37 42
1.780020088746514 3.644673026779892 1.2846400177575532 37 36 41
1.801668468231618 3.582457685370245 1.2775494992358132 36 35 40
1.4989829417109646 3.4639988049809007 1.3565799517831187 34 35 38
1.5587816265230185 2.889016680013509 1.3287921867079024 17 18 20
1.265001959960501 3.0862726243964214 1.41184982263407 19 19 21
1.2572428542045253 3.071442666709801 1.4136357637944255 14 14 16
1.2087618438328698 2.9364053378260784 1.4239326542426485 13 13 15
1.1858271383938108 2.9414548859528282 1.4302062017060553 19 19 21
1.1259809262036446 2.9201455812651447 1.4458748732292999 29 29 29
1.11945433962828 2.904064502298171 1.4473037380331042 28 28 30
1.120906687375635 2.877959977742975 1.4463818582719399 28 28 30
1.237759027638388 2.613123263098807 1.4095533184086926 12 12 14
1.216094409545425 2.5703604667144555 1.414512367404346 15 15 17
1.1857115845658481 2.5845119927920623 1.4229750906409013 15 15 17
1.145252089015779 2.6107945871627205 1.4343958560921368 15 15 17
1.1284564370873102 2.608070730415513 1.4388594756333246 21 19 22
1.1067710343989665 2.611224161847069 1.444758308162017 26 24 27
1.0614247200098865 2.6428617921004514 1.457602872224307 36 34 37
1.055168741662001 2.6271793016100604 1.4589670366859586 51 49 52
1.0421164321174057 2.619687782608308 1.4623264718222138 46 46 48
1.0289820901150382 2.6122788747891548 1.465709659381183 28 28 28
1.0158388165040255 2.6048645897915694 1.4690951406769859 48 48 48
0.9260783689831842 2.6884158903364104 1.4949459834509153 75 75 75
0.9196360654920747 2.181128435872345 1.4863583037399044 143 143 143
0.8982332923200633 2.1831927697940405 1.4921589336785686 146 146 146
0.8816724369114709 2.1798887133736877 1.4965475743851715 153 153 153
0.872983882129574 2.1679679619170384 1.4986427825114224 162 162 162
0.8218662357099725 2.1806853731469897 1.5126552387121188 169 169 169
0.799869663998952 2.183044558460478 1.5186216349949806 169 169 169
1.8153238138890566 3.9117293431079476 1.2970024336950319 170 168 169
1.7436751190687756 3.9698374385634922 1.3176202384160838 101 101 101
1.7289109635076654 3.8468405152801175 1.3189471924848437 56 55 58
1.8032355780942297 3.5860956934999226 1.2932200061652195 40 39 44
1.4992588630899866 3.4692911979987526 1.3728282706314787 36 37 40
1.6510057868238912 2.86554091320317 1.3187562430993511 27 27 29
1.6537540033717457 2.8371361499676917 1.3173987984914155 26 26 28
1.5796065056749562 2.8655264101500753 1.3380485170407421 20 21 23
1.269666971901742 3.085121903564211 1.4265497820090463 19 19 21
1.2606035643003797 3.0720226571607196 1.4287152286584293 15 15 17
1.2251468456268382 2.56368387000571 1.4272922448299208 25 25 27
1.1984960970625365 2.573300985925939 1.4347016391984633 17 17 19
1.158731550499701 2.5987941465996407 1.4459981311572287 17 17 19
1.136502577533741 2.6027219996196056 1.4520895793431947 19 17 20
1.1053756068902332 2.6173457853785185 1.460816856122727 22 20 23
1.0668817229236733 2.640707896503428 1.4717238768385106 34 32 35
1.0625714697112767 2.6226838028300694 1.4724983831726983 40 39 42
1.050691356015967 2.613799928701721 1.4755161707027977 45 45 48
1.0365330350823156 2.607635113790958 1.4792084033396382 39 39 41
1.0268674729084764 2.5960897197615305 1.4815701914969226 29 29 30
0.9748570094068074 2.6348714968391667 1.496463265307979 62 62 62
0.9212593234167481 2.675209109146307 1.511818895826682 85 85 86
0.8056801914623613 2.764745269050845 1.5449873139639287 162 162 162
0.8874345791281646 2.2204573961917164 1.5111149013111662 169 169 169
0.8734585063475396 2.214248434090199 1.5147569335934041 169 169 169
0.8808901860194985 2.1846061289073697 1.5121071961461676 169 169 169
1.7491219706851604 3.849895450928159 1.3299871404518426 49 51 50
1.6535416387974347 2.8670844633304338 1.3333698778994547 32 32 34
1.653882613387698 2.8419922557252173 1.332701539188161 27 27 29
1.6569815105729915 2.8132008848499543 1.3311999366511411 28 28 30
1.6009214787164563 2.841332455358424 1.3470576609690337 23 24 26
1.5729731473020314 2.8550444582200516 1.354956239071163 18 19 21
1.2746898534488234 3.0834932274332787 1.4411392897354316 20 20 22
1.2642537028894685 3.07221963740829 1.4437124849417273 16 16 18
1.2407363079767233 2.548962237790913 1.4380863840784068 15 15 17
1.2101390530102323 2.563475074066723 1.4467221379856974 16 16 18
1.1618387843010116 2.599446135544467 1.460654112528334 16 16 18
1.1263334458071417 2.6195381551758565 1.470749729464135 19 17 20
1.1071884800294711 2.6195840385438913 1.4759458624536421 24 22 25
1.0594882039389553 2.654088739519926 1.489681376164794 30 28 31
1.0568380791318017 2.6340122667842225 1.4899397875041558 34 32 36
1.0477752060644003 2.6217057463181987 1.4921166335598008 38 37 42
1.0422313726773058 2.605203698046399 1.4932422924215059 46 45 49
1.0320507404104458 2.594277814162893 1.4957541306173234 39 38 41
1.0222463742991292 2.582912029064686 1.4981537723411325 37 36 39
0.9625009482205624 2.6307377485637957 1.5154634858533298 65 64 67
0.9068973561219655 2.6732875651053725 1.5315282215475294 84 84 87
0.7912929635413184 2.7625001020371664 1.5649452794540868 161 161 161
1.8190803736128534 3.918701513202472 1.329038435840182 169 167 168
1.7229335911754933 3.8692439932616187 1.3540394085405627 46 45 48
1.6591574543231602 2.8643487489331854 1.3470494583233221 32 32 34
1.6549989662670286 2.845487416055146 1.3477252650731963 26 27 29
1.6561631290964463 2.8193401007454897 1.3467739420671772 25 26 28
1.6554930209913257 2.795830627289298 1.3463864333048203 27 28 30
1.6461144716347866 2.784359477387085 1.3486639406948786 26 27 29
1.5920593293095497 2.8339607450257374 1.3645970130655132 21 22 24
1.5646096398162173 2.846920501682903 1.3723914312499714 17 18 20
1.2803942105140405 3.0809538019359133 1.4555165631529345 21 21 23
1.2693705214808113 3.0704672795115755 1.4582662546323615 20 20 22
1.248152391771681 2.5904979547665636 1.4524087923553082 14 14 16
1.2445208323372081 2.5718254266158507 1.4529455877822168 15 15 17
1.2543757632418528 2.536621337558611 1.4494063685891911 16 16 18
1.2215714366377195 2.553895410628793 1.4587645686142094 34 34 36
1.1702191421247834 2.5936557387234247 1.473722457999443 18 18 20
1.1116926361510788 2.6418229558733946 1.4908392164918431 19 18 20
1.108393015930532 2.6225643573682964 1.491271344824266 20 19 21
1.060435447930938 2.6573967266863336 1.505184653871633 30 29 31
1.0571983081175518 2.6380084806486575 1.5055966120580775 38 37 40
1.0516133665481253 2.621505503976536 1.506718323696514 46 46 50
1.0462011456868123 2.6048402742508205 1.5077890336156081 56 55 59
1.0347540961913797 2.5954246752888652 1.510680062717228 60 59 63
1.0271303205994537 2.581457787000786 1.5124188652002113 42 42 46
1.0129212014598228 2.5753273315596634 1.5161422343611177 37 36 41
0.9490614249099147 2.6278501765123328 1.534817954057658 66 65 69
0.8861678030357469 2.6788195848288017 1.5531927216091457 82 82 84
1.7213812240896058 3.8781664731374987 1.371205843539212 42 41 46
1.5391369762006981 3.5642590029838264 1.4130559627986032 16 16 18
1.48377101302146 3.4819507259751017 1.4261037260563982 32 33 35
1.658685017005441 2.8454252677679794 1.361972240146814 26 26 28
1.6600804368118833 2.818944967232572 1.360913703140524 23 24 26
1.6596678266242908 2.795070483288576 1.3604165279391838 26 27 29
1.6495190027200763 2.7846556983170965 1.3629276456637784 28 29 31
1.6067409594746453 2.8188722364268806 1.375508354953606 25 26 28
1.5860701612598849 2.8226579937956497 1.3812617228532416 18 19 21
1.2756912233862936 3.0671112904251867 1.4724446101417041 20 20 22
1.2093381031946613 2.9305409344048865 1.487112432217319 13 13 15
1.1850316574583493 2.9373223511868543 1.4939372570445135 16 16 18
1.2449814261837369 2.5989194215386195 1.4688842906573032 16 16 18
1.2390256043791268 2.5830817783859787 1.4701094051747405 17 17 19
1.2312627583615674 2.5695101774879667 1.4718869236875585 17 17 19
1.211533965116427 2.570646413324439 1.4773148033332673 17 17 19
1.1366061558697256 2.639209338442053 1.4995710796374602 15 15 17
1.1025425740175323 2.6574454366710145 1.5093586867624682 16 16 18
1.1078233576934908 2.627704279814948 1.5071535803626763 18 18 20
1.0567459097221472 2.666322920072604 1.5221179380978804 26 26 28
1.0555599750577362 2.6444218852267425 1.5218828149026458 36 36 38
1.0606789899388747 2.6150197389581304 1.5197306400837864 40 40 42
1.0527618445590916 2.601371964498929 1.5215484365519127 45 45 47
1.0407451228698328 2.5926466935126276 1.524613883938883 54 54 56
1.0275104134130417 2.5853642313244665 1.5280495068425701 53 53 57
1.021248925619376 2.569791111366734 1.5293650273995674 43 43 46
0.9582411918272145 2.6213621246578267 1.5479251283933038 44 44 46
0.9291507159382872 2.632548555353119 1.5561716831179875 61 61 62
0.8916124159939796 2.630332995128398 1.5663875368849878 136 136 136
1.817475429875243 3.9345381112238145 1.3628516464057734 168 166 167
1.7916168482213501 3.9474002154992323 1.3703031260693346 146 145 146
1.7283570119637883 3.8733945147655193 1.3856994696114302 37 36 41
1.727127691949638 3.8461898531382817 1.3853066185079326 37 36 41
1.7977916781730972 3.591085529905592 1.3590362371784919 32 32 34
1.5433094482368286 3.56389627941199 1.42823854691096 17 17 19
1.66053445125889 2.872589039163964 1.3774573512549932 34 34 36
1.6614795488319736 2.846600864675989 1.3764996357626995 31 32 34
1.6648351883390156 2.8173920841051037 1.3747929951131141 22 23 25
1.6629509798975297 2.7955388010575364 1.374723838745688 23 24 26
1.659661098148691 2.775700383598482 1.3750950820734689 26 27 29
1.6432931804215394 2.7738312824212867 1.3795428396488343 28 29 31
1.6037121851165537 2.8035705452733684 1.3912185771450531 22 23 25
1.5848459761166918 2.804884584596634 1.3964383674257985 19 20 22
1.2897129069409603 3.0534964996204277 1.4842192283445736 20 20 22
1.2699870204809662 3.0546150037571342 1.4896700091147501 17 17 19
1.2446635130297339 2.627127439895141 1.4851473825615487 20 20 22
1.2584237785991317 2.58674894701569 1.4802815158048328 19 19 21
1.2496643813464905 2.5744115178939424 1.4823572644707064 19 19 21
1.2360879459439416 2.5680261452974973 1.4859166137603372 23 23 25
1.209631531718029 2.5774321489239775 1.4934395546497752 18 18 20
1.139897750673799 2.6396653459174413 1.514274112039864 16 16 18
1.0681097595823694 2.703921532957524 1.535727507400535 16 16 18
1.074547898013637 2.649227341056524 1.5324892896060287 18 18 20
1.0652853464749885 2.6371247876798414 1.5347096151282762 22 22 24
1.0635038839368816 2.6160357084088557 1.534632749096276 29 29 31
1.0655419981790606 2.5904413566365587 1.533385246395373 35 35 37
1.068082523458119 2.564352014275398 1.5319863848296178 43 43 45
1.0368054241575895 2.5786565467335345 1.5409656325131333 48 47 52
1.005821410906078 2.5924523877234993 1.5498506765557412 50 49 53
0.9704889001390116 2.611236340635715 1.5600646747255755 46 46 48
0.94093642337444 2.6230126808548784 1.5685020872913447 50 50 51
1.8182474924835852 3.939879364852569 1.3793024926996327 169 167 168
1.795383195785828 3.9478165205109503 1.3858355369608086 148 147 148
1.76929912452308 3.960896074486496 1.3934019212640023 90 91 93
1.7458856740202762 3.9694487720431724 1.4001038428960422 70 71 73
1.6922479498328682 3.9971836635553393 1.4156865289909835 44 46 49
1.7855689482352952 3.6730471135844747 1.3808053036438326 31 32 36
1.8124087348408118 3.574191095743549 1.3706145951022133 27 27 29
1.6667843900549477 2.8442933072178853 1.3902436723564378 34 34 36
1.6675931313203052 2.8186009107154355 1.3892969040603618 23 24 26
1.667966604111371 2.7936194989124736 1.3884902739907397 23 24 26
1.6600661615911996 2.7801146314151577 1.3902900895444497 28 29 31
1.6493692503016764 2.770467002960932 1.3929702371970483 28 29 31
1.619266212399314 2.7873070833057323 1.401751583557304 24 25 27
1.601995794258554 2.7865118257096992 1.4064950351381658 21 22 24
1.2989889249759878 3.046187755128839 1.497424563847205 21 21 23
1.281550396400471 3.0442990536158163 1.5021836108439495 18 18 20
1.2502391263719603 2.601402443422085 1.498350495409161 22 22 24
1.2420795931892372 2.588270128825391 1.500232300649673 21 21 23
1.234366279040867 2.574611060538806 1.501976134431733 21 21 23
1.2102762355731378 2.581098182510204 1.5088065906941888 18 18 20
1.1512190121428154 2.630291099567872 1.5264891488418237 15 15 17
1.0885566102814865 2.683488490271494 1.5452793527976 15 15 17
1.0801865040508145 2.6702328281699472 1.5472157926903483 14 14 16
1.0752956254315849 2.62947491696544 1.5474175595447437 15 15 17
1.0687912753390785 2.6140887959024672 1.5487791341314163 20 20 22
1.096086917422078 2.5581797512683777 1.5396721752153666 30 30 32
1.0935129664076413 2.5383028406235324 1.5398226614565607 37 37 39
1.053272885761996 2.5633915682207493 1.5516336822978651 42 41 46
1.0206243393169425 2.5792288432930794 1.561089230410437 46 46 49
0.989425515085891 2.5931785394186972 1.570091560031047 46 46 48
0.9585718862029917 2.6065622716935146 1.5789826918277066 46 46 47
0.8966922539317581 2.6562826186720883 1.5974589606610896 55 55 55
0.8444371185457595 2.694323342365367 1.6129503654059067 84 84 84
1.8201223481590856 3.9434093931552106 1.3954182730370723 169 167 168
1.7978779924921449 3.9503263766452625 1.4017861694235945 154 153 154
1.7749223491337833 3.9582851904196685 1.4083818708598925 99 99 99
1.7962247103171451 3.8938235253220985 1.400579168650705 74 75 76
1.79719914270922 3.8628331101812 1.3993958614144688 57 58 60
1.8048104732606007 3.6204427446503846 1.3901434826228998 29 28 33
1.829484108745017 3.553397095613633 1.3813304288747696 29 28 32
1.6720867164967474 2.8419867905712852 1.4039810317260621 30 31 33
1.6726386993875566 2.8166445065644576 1.403081238055342 27 28 30
1.6673555263561586 2.7994630028140333 1.404038901157423 24 25 27
1.6610413170003444 2.7837518706293283 1.4053256027886019 30 31 33
1.6516262894186724 2.772332868255802 1.4075980498124168 29 30 32
1.6398284739408724 2.7641813300977267 1.4106270745932836 28 29 31
1.6107786736236487 2.7795028643890483 1.4191284848712074 28 29 31
1.3149305373931042 3.0299813508858353 1.508491483105511 20 21 23
1.29327114505679 3.0337606508221677 1.5146048150532272 19 19 21
1.2751620542918474 3.032744216792813 1.5195930057114748 15 15 17
1.2866379830591974 2.6071821420693517 1.5038716620915982 29 27 30
1.250501301473507 2.6289273831779716 1.5145261987879668 29 28 31
1.1533169742960958 2.679053743055382 1.542933818625826 23 23 25
1.1622258347016197 2.644632011552126 1.539450709923468 17 17 19
1.117428706105068 2.67617623564358 1.55279388737127 15 15 17
1.1220124840513022 2.6471446704709853 1.550668134587685 14 14 16
1.1514329251412057 2.5880158494740177 1.5407730191122648 13 13 15
1.1431487447872821 2.5749502331765277 1.542683575514729 13 13 15
1.1047728579717135 2.5982833565334156 1.554005405106871 15 14 17
1.0728416661583713 2.613630490149318 1.5633060218139767 17 16 21
1.1083612956914235 2.547816504229452 1.5515237707655782 27 26 31
1.0647368370351749 2.5540759211367066 1.563796852028851 41 40 45
1.030250452110295 2.572143336618856 1.5738856956482714 45 44 49
1.0045049169056524 2.5796686980224375 1.581241720147804 42 41 46
0.9713777988430201 2.5957948198562995 1.590896692408887 37 37 41
0.9202228379486266 2.632964695792957 1.6061674535059562 55 56 59
0.8599995944003216 2.6804576815007293 1.6242553152073391 77 78 80
1.8229520579913252 3.9453682849097556 1.4112366509074603 171 169 170
1.799841882961427 3.9537153757861274 1.4179241681044041 159 158 158
1.817419253287358 3.8951781783893145 1.4112314969559896 109 109 109
1.7993003988881802 3.895337824962273 1.4162781474639767 77 78 79
1.7559825048346676 3.819111197581168 1.425985710982391 37 38 43
1.8073021823899085 3.6226732455181887 1.4056597444527703 36 35 40
1.8094179870455984 3.591151797445625 1.404100862703384 38 37 42
1.6785978639467436 2.8379969631974156 1.4173228139831426 30 31 33
1.6743333721064444 2.8193295148870536 1.4179349173573756 29 30 32
1.670653287361757 2.7999176503233842 1.4183614931126005 26 27 29
1.6781297306756031 2.740948664688214 1.4144662081368944 25 26 28
1.6114545459672165 2.7835274323115238 1.4343296407510766 26 27 29
1.3100983410558746 3.0164178176199274 1.5253524604524216 21 21 23
1.3633555208865655 2.8473488526660895 1.505329705090536 12 12 14
1.1508650395630247 2.68662226171648 1.5595104226738337 28 28 30
1.1172000982281065 2.6809750711622646 1.568704196347937 15 15 17
1.184629705585307 2.5751230868909953 1.5466834706396848 14 14 16
1.1379024629157644 2.562634566670938 1.5593013926944062 15 14 18
1.1245227380685627 2.5557500686100516 1.5628125384728244 27 26 31
1.096385997279183 2.566577659014211 1.5709750862504046 32 31 36
1.0669947722872413 2.5787699363254246 1.5795287068852317 40 39 44
1.0429815262049267 2.5843967101297793 1.5863837883112808 44 43 48
1.0249901435808224 2.582757292300193 1.591339598590246 46 45 50
0.9998975749438759 2.5894820478731315 1.5985288041230497 42 41 46
0.9893206704561102 2.5789447880505936 1.6011476179596302 31 31 35
0.9284262647628179 2.6276680806107438 1.6195916067621805 49 50 54
0.8676817935103951 2.675824546898469 1.637976429647954 72 73 75
0.7981520393473434 2.7338705660234552 1.6591102099637003 114 115 117
1.8252814679402458 3.948158697967626 1.427231852314543 170 168 169
1.8025181400445027 3.9559369876527217 1.4338417841081508 157 156 156
1.8244540900862385 3.8901948312246475 1.425603247194736 104 104 104
1.8104834738428486 3.883592183008479 1.4292949675247757 84 85 86
1.75411702198191 3.8285113531843464 1.4432771892861673 43 43 48
1.778561777463692 3.70289688255007 1.432416642183246 40 39 44
1.8046268896605806 3.63309307882541 1.422894045866994 39 38 43
1.6364405300335663 3.5578765086682287 1.4674741123809998 29 29 31
1.5367764914086028 3.379109551474569 1.489585730752289 32 32 34
1.6832197065664292 2.8366312187745297 1.431262081519566 30 31 33
1.6800554576958908 2.8164343593465757 1.4314981916776954 32 33 35
1.6811989301051797 2.790357746108209 1.4303420163439058 28 29 31
1.6712979686660143 2.7796048503018183 1.432763461619735 24 25 27
1.6775945576095102 2.7466301884030226 1.4299461143611403 23 24 26
1.672596609721053 2.729264414786827 1.430785419445299 24 25 27
1.6669557719982153 2.712828951986829 1.4318342053819086 23 24 26
1.6515067709433087 2.70976434537275 1.436052524179489 23 24 26
1.2813370483231212 2.5762830559399266 1.5351998742971 52 50 53
1.2491967317870274 2.5929407749590343 1.5447147547139146 42 41 43
1.1988020849341854 2.6319670958806154 1.56004782941146 27 27 29
1.1273604691685337 2.696573157008007 1.582082427313256 18 18 20
1.1428534715403673 2.6540291855081417 1.576388451464016 16 16 18
1.1096942521740392 2.624428737084697 1.5847038215372442 21 21 23
1.1226599083831106 2.585490540368757 1.5798317105394317 34 33 36
1.1107110826465738 2.5768031401194023 1.5828916270923732 45 44 49
1.0927445167160341 2.575343731743293 1.5878648887313809 42 41 46
1.095305198059298 2.5492314040172834 1.5863115812814328 44 43 48
1.073609838922767 2.5521966763496557 1.5924686821617229 46 45 50
1.0389207860783563 2.57054296597291 1.6027498901378823 46 45 50
1.0137251207959317 2.577439350138987 1.6100111517881335 44 43 48
0.9982922828054748 2.5726812374159027 1.6141706178569477 33 32 37
0.9419306028198386 2.616119052997762 1.6313125014318965 51 52 56
0.8718777796579307 2.6752807247895416 1.652784368429787 79 80 82
1.826769874724232 3.892958717038595 1.4415401602279054 89 90 90
1.813303560394158 3.885521196842344 1.445069994464519 78 79 80
1.7989882218330202 3.8794480424095976 1.4488835990124167 73 74 77
1.7444251626362608 3.879795163650155 1.464203791032797 47 48 50
1.7494563804765557 3.8424223009397473 1.4615441563878648 44 45 50
1.7403262198161578 3.8279344229904364 1.4636219667755894 43 43 48
1.796451647210197 3.652249241559161 1.4420081348790625 45 45 49
1.8265461793399596 3.5763877992104454 1.4310312594845762 50 50 55
1.6470799154152769 3.5476597958419265 1.4804242401575403 28 28 30
1.5279380326344172 3.451591360168206 1.5106433969999553 31 31 33
1.504366090912469 3.459004040534405 1.51750444993194 32 32 34
1.5335881195678511 3.389389809238906 1.5069809915236372 31 31 33
1.7157552882153317 2.8209577553693723 1.436888487266433 38 39 41
1.6930791147667725 2.827971221108264 1.443484885586823 30 31 33
1.6909218374948107 2.806397328734785 1.4433697017437903 30 31 33
1.6863187053069666 2.7882885649785685 1.4440564598842374 33 34 37
1.6813433232628219 2.7707518008668313 1.4448667606175618 28 29 32
1.6729603610933297 2.7579501256833914 1.4467912412306763 25 26 29
1.676873614852095 2.7283413145446396 1.4447045455648078 21 22 25
1.6683883988169224 2.715781931237154 1.4466658064162492 21 22 25
1.6440637208200648 2.7247746343724195 1.4537908161388207 23 24 26
1.4443117820080065 2.5613800829757203 1.5043781958071016 79 78 80
1.3371971249313326 2.5807229365194244 1.5350769871486452 79 77 77
1.3425608194400231 2.550765746643065 1.5325717116428388 76 70 74
1.257488908176302 2.5639560559319 1.5568805734940003 29 29 31
1.1872181217944473 2.6273951065881125 1.5787147476694887 25 25 27
1.1924607672423795 2.5976437108944905 1.5762503069009859 26 26 28
1.1927216144348942 2.574121778432853 1.5753916234276615 31 31 34
1.1189320649561558 2.617662684660914 1.597548562330918 41 40 43
1.1368017912154897 2.572786803774753 1.5910363064117539 42 41 45
1.126757852361668 2.5618413004141036 1.593488788010335 45 44 50
1.124957215800571 2.5409866004558808 1.5932975594346364 45 44 49
1.1257379201632016 2.517111245322022 1.5922812188337967 52 51 56
1.0438190950429407 2.5460731745023075 1.616232110511639 47 46 51
1.0158741141466974 2.556223973450498 1.6244115319693435 38 38 43
0.9466369762772378 2.6149301172742554 1.6457976462804993 59 59 63
0.878506652437298 2.671877880356493 1.6668145050880903 91 91 93
1.8315621570226168 3.8916554477421834 1.4566518611710513 85 86 88
1.8164705921797422 3.8868857919529796 1.4607379645407914 72 73 75
1.8042803012260968 3.8773393611555207 1.4638409397770862 64 65 69
1.740229312383553 3.8930519986387058 1.4824308291731187 45 45 48
1.7505263028272753 3.847133397431272 1.4779363654478754 44 43 48
1.7870532281302862 3.6733769042679265 1.461615822495285 58 59 62
1.8280227778078593 3.580194579244747 1.4468399608472748 59 60 64
1.5161811808708192 3.4474342804403157 1.5300853524388258 32 32 34
1.5301112909837125 3.400106546319057 1.5245184548473123 30 30 32
1.723322170749801 2.8154520466851047 1.449796627407236 30 31 33
1.705404821801002 2.8158630631655157 1.4548586087129767 28 29 31
1.695586388635287 2.804959083221762 1.4572462658949326 25 26 28
1.6880960021929066 2.790842835340686 1.458866580913601 49 50 53
1.6817591827273888 2.7751672459966166 1.4601077945475187 45 46 50
1.6737772055508309 2.7617950143687233 1.4618924221947176 41 42 46
1.6728795947909687 2.7387461554119317 1.4613454053342558 31 32 36
1.6578579784005099 2.7350688334594695 1.465449711312881 26 27 31
1.6546451979483998 2.7152884089843887 1.4656683580875112 23 24 27
1.6352221847506274 2.7175532136119758 1.4712188529992052 21 22 24
1.3925199409297515 2.63221989723481 1.536632063859134 92 90 91
1.4140212550022544 2.558006813492977 1.527999152586293 86 84 85
1.4315764747496242 2.5125627030508713 1.5214763504522713 81 79 80
1.3118544116293536 2.5242063192831417 1.5556088121434533 37 35 38
1.2510072180678453 2.5532822630566807 1.5737598846777265 34 34 36
1.2279545221271104 2.5585226318166603 1.5804362070508173 36 36 38
1.1394594838410428 2.59716008079418 1.6067081198678956 37 36 41
1.14800127890428 2.563633552127395 1.603138191720811 39 38 44
1.1429255301110053 2.5467149889597884 1.6039809970869123 45 44 50
1.1520111030804272 2.5127966730809588 1.6002442778718504 45 44 50
1.1493972403702297 2.4930776291576175 1.6002963263125713 59 58 64
1.089469141852442 2.5190319327898214 1.6180801350040361 55 55 57
1.0563201633065735 2.535564814485328 1.6279927040611246 57 56 60
1.0222804803727532 2.5529764465468503 1.638186700824091 42 41 46
0.9525513157983789 2.612315193250395 1.6598902714428827 60 59 64
0.8838092094344718 2.6700311594320043 1.6812594483081065 85 85 87
0.7572325948310163 2.771369637529407 1.720435785028969 167 167 167
1.8322437256194535 3.897116546763818 1.4731672596365404 82 83 85
1.814200674861127 3.897169553215727 1.4782731573580503 70 71 74
1.8022237158850343 3.857799480918363 1.4802432596637425 53 53 58
1.8050511370013127 3.823913179243812 1.478223022133713 47 46 49
1.7668062959555166 3.8565876593411357 1.4902184375065501 44 44 46
1.747442023942853 3.8585439878814136 1.495766628623766 42 42 47
1.826246930847276 3.5891540335199137 1.463772297645926 42 43 47
1.5282307216553306 3.435505161358063 1.5425409435649204 31 31 33
1.7433094742362847 2.8171535279697717 1.459429772191667 21 20 25
1.728033891525421 2.8139344522488576 1.4636349684488947 24 25 27
1.711691900492183 2.812159040713791 1.4681938223741413 26 27 29
1.703697198189729 2.798730555680743 1.4699717213724746 43 44 46
1.6975527758270261 2.78276658346583 1.471134900179663 71 72 75
1.6929853004123456 2.764670632224507 1.4717752112043336 67 68 72
1.683859149938478 2.7529034464411706 1.4739330044028898 63 64 68
1.6816125272874425 2.731722651442454 1.4738056951895333 59 60 64
1.6656314667155483 2.72938207407974 1.478242095147 60 61 65
1.6659342831088106 2.704826516202896 1.477272062093006 56 57 60
1.1604112598050182 2.576115438660693 1.6156380353317707 36 35 40
1.1954765225598059 2.5104763652715554 1.6033548280890098 39 38 43
1.1851465719189882 2.50008021145697 1.6059025282734336 53 53 57
1.157648390895495 2.51037009409628 1.6140517607212557 64 63 68
1.1426961549392067 2.505463944025569 1.618104728890323 67 66 70
1.1234820820973206 2.505625301622875 1.6235457857093827 63 63 65
1.097104139522935 2.5142639084812064 1.6313186559419266 58 58 60
1.0612517164170754 2.5340406228981385 1.6421727926829255 54 53 57
1.0272830200379586 2.5513884922142065 1.6524065885941766 41 40 45
0.9730192024969893 2.5925156381431345 1.6692378501201273 52 51 56
0.8973902005437668 2.6584419273608093 1.6930060056850618 78 78 80
0.8315982353147353 2.7123254378578108 1.713557753543647 109 109 111
1.839745116350711 3.9508378056130304 1.4895714977347714 168 167 165
1.8353231121134934 3.8986378874460055 1.4888790351712762 81 82 84
1.757246691766089 3.8785262764622814 1.5103047820022557 41 41 43
1.7375329148624783 3.880974887119672 1.515995588346542 38 38 42
1.7310910605488037 3.8620146365919417 1.5171175721689991 36 38 38
1.8250248512957998 3.59725159877524 1.4805542511975134 30 31 35
1.8561061810604198 3.520067175527529 1.4688449940964172 31 32 36
1.5409699171707831 3.4225490057885075 1.5547147298563093 30 30 32
1.748536169665481 2.814903193633573 1.4730769943615871 20 20 25
1.7323962564519149 2.812904700084366 1.4775867003806054 23 24 27
1.7218152179246102 2.8030973332343674 1.4802260082048357 50 51 53
1.7137550996263846 2.7897863258712814 1.4820185054239785 76 77 79
1.707173792842838 2.774452093171486 1.4833154471086374 75 76 79
1.704384249723157 2.7539213107242766 1.4833414226300436 74 75 79
1.6898934859503583 2.749570919391306 1.4872949227801078 68 69 73
1.685487251486387 2.731353489686313 1.4878664461561966 63 64 68
1.6760619210994339 2.720056426458334 1.4901218862320333 62 63 67
1.154076207507095 2.588269036511696 1.633464983405515 50 49 54
1.1457400124061765 2.5752195760396304 1.6353456589272788 59 59 62
1.1431379700239686 2.5552571532739794 1.6353395928097 65 65 67
1.1374949501692124 2.53902885325612 1.636336655087365 65 65 67
1.132795362863848 2.521710762111164 1.6370250706335274 60 60 62
1.0905707328371852 2.526397723381139 1.6491933031056165 44 44 46
1.0683129271769956 2.529982431679091 1.6556491103647129 41 40 44
1.0338018818017638 2.548001942278429 1.6661240774764159 39 38 43
0.9962279501419635 2.5694538988799787 1.6775971351629857 42 41 46
0.9197923954254374 2.6364527146938643 1.7018083912192383 74 74 76
0.8509973318061148 2.693971904010576 1.723495632459192 94 94 96
1.8581138542912645 3.8972730298901226 1.4988663813943377 136 136 136
1.8434343418314738 3.8918678767409505 1.5028440201437558 83 84 86
1.8231014337948666 3.8957131240288323 1.5087914007989436 68 69 71
1.802173071943589 3.9004308674456176 1.514942313730816 54 55 59
1.7776702311597485 3.8813445043536507 1.5211928568112278 44 43 47
1.7564240955272619 3.8863552321558226 1.5274457174279308 39 39 41
1.8294140903669829 3.596471047421702 1.4954284224383771 32 33 37
1.707871061380203 2.9271519269996165 1.5042292758883793 18 17 23
1.7471177668098012 2.8219943135914725 1.4889731250427103 25 25 29
1.7393602571166595 2.808228701923486 1.490653611295042 54 54 56
1.731018559056822 2.7953082183718823 1.4925333595037573 79 80 82
1.72378926678249 2.7808632314571327 1.494036950974295 77 77 79
1.717012904651419 2.765824173611307 1.4953884152012906 73 73 77
1.7097887480057579 2.751442156223516 1.496892975156803 72 71 76
1.6976099794918844 2.7439176959841918 1.5000755298812436 65 64 69
1.6881851929916545 2.7325997930623185 1.5023260906192057 67 66 71
1.6825653158828917 2.7160900244725763 1.5032909055584665 67 67 69
1.4090773925892097 2.601426669759378 1.5768571515102048 27 27 29
1.1547175518546877 2.5919390869618093 1.6490321746832428 60 58 62
1.1674984093897591 2.5532308057930955 1.6438914846364967 63 61 66
1.1746784097905612 2.5214953087082517 1.640617546267895 62 60 66
1.1493879742483755 2.5290720765814516 1.6481229637885844 53 52 56
1.0601464524134019 2.5440416723660855 1.674152434657564 41 41 45
1.0200618303428324 2.568640403684072 1.6865347744215402 41 41 46
0.9942869532478071 2.5760933570640976 1.6941735670681064 39 38 42
0.9425470333686785 2.6140213058079182 1.7103949533266372 63 63 65
0.8827735153972518 2.6610627687214516 1.7292596090989758 81 81 82
1.8402566575945338 3.99339235734897 1.5243435435504142 173 171 172
1.8457894387912075 3.9541632652109096 1.5211918839676484 169 167 168
1.8512843016391693 3.9152052634082666 1.5180619133676574 140 140 141
1.8571287573922097 3.8758768882944135 1.5148170386332442 87 88 90
1.8353681699420306 3.8821358243095974 1.521298279967646 71 72 74
1.8267788708479769 3.866701954365613 1.5231412006016665 58 59 63
1.8181997482876957 3.8512882454509274 1.5249820126747706 51 51 57
1.783579966825661 3.8782573192980676 1.5359729450143256 46 45 51
1.7717189598389234 3.8680822424630943 1.5389628310518226 41 40 45
1.7049473398062236 3.0379231519169876 1.5249152097157033 24 24 26
1.7200504954373534 2.965445622233051 1.5176946681754775 20 20 22
1.73158745333797 2.923816099177788 1.5127277984950367 20 19 24
1.7453890650191466 2.8791993476539464 1.506993091753697 18 17 23
1.7456619241373463 2.8539279051921818 1.5059052753532995 28 28 32
1.7621931219301483 2.8058874631804533 1.499252159333692 60 60 64
1.751872412072351 2.7957668279928356 1.5018031542528885 77 77 79
1.744276461852273 2.781842867554274 1.5034219542204434 75 75 77
1.7344003288044147 2.771124877533735 1.5058217775219256 78 78 80
1.7248581664341585 2.7599518880387004 1.5081077890236463 74 73 76
1.7162261179962486 2.7475318233023116 1.5100833630864292 66 66 70
1.7066053851770482 2.736494636769147 1.51239729915179 60 60 64
1.6645147770083446 2.721491731829687 1.5238505854070368 69 69 71
1.2177495938196352 2.565730903375036 1.645559233422988 56 55 58
1.188113143885622 2.5788489330877553 1.6545697839395053 55 54 57
1.1872968231051333 2.5566765460460745 1.6539176738768147 53 52 55
1.1854487213096654 2.535841574266315 1.6536144501944408 50 48 52
1.144698189802641 2.539117549439362 1.6654143090131344 31 29 34
1.0366918258169568 2.5532618412958206 1.696907197615751 42 42 47
1.0102952412154482 2.5615106369550222 1.7047954651420505 41 40 45
0.9704991423507718 2.585435095030467 1.7171470001792297 48 48 50
0.8963437860757635 2.6495039584219233 1.7409412668529776 78 78 80
0.848048522921971 2.6827955657272944 1.7561008000420926 93 93 95
1.8396645847932935 4.001125154299002 1.541515149805966 173 171 172
1.8456002597257586 3.9611723912588577 1.538159802664661 170 168 169
1.8514942875838651 3.9215022323080313 1.5348280920541066 145 145 146
1.8573462671610335 3.8821130811069002 1.5315200674475111 91 92 94
1.8282781489910827 3.8707968456460686 1.5394104634456982 67 68 72
1.8196934991059603 3.8553711166157503 1.541242051098346 59 59 65
1.7750276218102818 3.898702541490383 1.5558721785251195 53 52 58
1.7675562587416644 3.8813336510962158 1.5573034935754324 51 50 55
1.7910836665404855 2.8443830630953633 1.50774607274735 29 29 33
1.8003661279118235 2.806422453670866 1.5035107010660638 43 42 47
1.786871378462955 2.8008440132563575 1.507160374518456 67 65 69
1.7663312607857293 2.805159511846325 1.5132439716200017 71 70 73
1.7507643651534144 2.802400805622365 1.517605774584857 71 71 73
1.7445139709113433 2.786567130288205 1.5187494034785594 71 71 73
1.7323542173037925 2.7790124182835685 1.5219336942048476 75 75 77
1.7221196930226212 2.768770586729708 1.5244535683546452 75 75 77
1.6857941816453956 2.7946436502087537 1.5359652766264449 74 74 76
1.6751953698656052 2.784790055093666 1.538605909146385 69 69 71
1.6610835704771438 2.7797671058920885 1.5424559151814474 74 74 76
1.2634582255805857 2.537119139732898 1.646763838276219 55 54 59
1.22577714729368 2.560336810555781 1.658555703435577 52 52 54
1.203853440682272 2.564044749411593 1.6650120243457178 44 45 47
1.1601093864320509 2.594282666154215 1.6788367728132352 36 36 38
1.16544696743137 2.5645752270125497 1.6760761897239027 27 27 30
1.1636526565779146 2.543644183059132 1.6757282877827109 19 18 23
1.035578942547692 2.6518436380626214 1.7170160480449264 28 28 30
1.0314931675561947 2.610094816264163 1.7164678553547026 39 40 44
1.052759795562062 2.5615558721531144 1.708350358692074 40 41 45
1.0513122878228702 2.540250993807267 1.7078873196749167 42 42 47
0.9992724841470533 2.5558447843777676 1.723492849118681 43 42 47
0.925163446163056 2.6200028288861725 1.7474476776468737 62 62 65
0.8767577319716195 2.6535477453202034 1.7627491771922368 80 80 82
1.8624236475781775 3.910032903491814 1.5477712312467313 149 148 150
1.8645630096168602 3.8767944527142317 1.5457382421653818 96 97 99
1.807753091213211 3.8814214427927984 1.5623346468212087 68 67 72
1.7661309207468736 3.8901646922760538 1.5747220763705219 57 57 59
1.8274458936521558 2.797776750013467 1.5105042647970839 49 48 52
1.7150651997127047 2.783600894639937 1.5423416396175544 75 75 77
1.6157661430840131 2.676842984717978 1.5664602363850122 69 70 70
1.1388199165219097 2.671675035873596 1.7039206609467359 38 39 41
1.1236264457685745 2.6432857752307264 1.7070976529072852 28 28 30
1.1293685211117883 2.6129064292142274 1.704146416715622 23 24 27
1.1199411786507163 2.601059110351063 1.7063633129845717 20 22 26
1.0625448598578735 2.6471950941797924 1.7248966025347323 25 27 30
1.0450251607147631 2.575149384721098 1.726886054097202 42 43 47
1.0315731666117554 2.522054222800974 1.7285082627718116 47 46 51
0.9831395944835357 2.556164737992043 1.7439421787794784 50 49 54
1.8644474201496524 3.913327390192025 1.5638998765183236 140 139 140
1.8475964027075884 3.911462275766347 1.5687019595991494 89 89 91
1.8665126118599398 2.8213478544111883 1.5153631318604746 38 39 43
1.8571517416199126 2.8099738823116733 1.517576890154603 44 45 49
1.7675682106046344 2.7889713234448594 1.542619035690576 70 68 71
1.725820005333963 2.7982316491540553 1.5551255272855182 75 73 76
1.650629663888899 2.658728124169987 1.570793844306396 54 54 57
1.3874727365981534 2.5073583595803446 1.6404199395486818 45 44 49
1.0951390172045237 2.6825862114521533 1.7328401198364156 31 31 33
1.1097653842894906 2.6412432154515972 1.7267859640438057 30 30 33
1.10052858208616 2.629066042825719 1.7289285027529533 32 33 37
1.0173648463110525 2.612534088757185 1.7523062476716413 44 43 48
1.8680675139530307 3.9139765210043618 1.5794601809028435 132 131 132
1.8716892355102257 3.8782288026291987 1.576789852416514 84 84 86
1.7833552362991565 3.904799289613023 1.6036959459925426 55 54 59
1.8724887279263238 2.7931315678749917 1.5274915812397825 58 58 63
1.8608408104986687 2.7850988978925892 1.5305178327266864 55 55 59
1.8316088963477344 2.8021309109606 1.5397942842133372 53 52 57
1.786739008246873 2.841201078180779 1.5546178026058053 50 48 53
1.431119665109816 2.457046645825222 1.6407302009117104 37 36 41
1.3878878022480143 2.4882659348423166 1.6547220654699508 42 41 46
1.1081915331294638 2.6711624028403875 1.744382077385132 38 37 42
0.8063978061491694 2.702134263591332 1.833602625694772 89 89 89
1.8556988589051309 3.97122061947693 1.6023305350342607 166 164 165
1.8684792088739317 3.9199616121937697 1.59621127946266 120 119 120
1.7859012979722286 3.8776301527031842 1.6183669973224932 45 44 49
1.859916497284185 2.8163707689799624 1.5473560928333843 57 56 61
1.8415928302990592 2.8178158405155247 1.552776716243348 51 50 55
1.816728005260599 2.8285194144175323 1.56053923520219 48 46 51
1.7902620995148149 2.8413596433343855 1.5688689516685685 48 46 51
1.7792894841266644 2.832089089253153 1.5716432551364283 49 47 52
1.6400673984946548 2.611009452755821 1.6020296806703722 14 13 19
1.6290077155699962 2.602041790765327 1.6048435168935737 14 13 19
1.6190025258810463 2.591671408507093 1.6072839990778123 17 17 21
1.607404580330586 2.583414003535001 1.610288144743497 23 23 25
1.5993465278461179 2.5704825705746237 1.6120405770932884 31 31 33
1.5783122034987134 2.5746206315311646 1.61837845750472 41 41 43
1.560361590799867 2.5746290790939943 1.623623235834641 43 43 45
1.4832643089396924 2.4646206069275447 1.6410283275476276 35 34 39
1.4641664707932875 2.465815995835916 1.6466635107055998 36 35 40
1.447293217317845 2.4641341786331514 1.6515148733478429 40 39 44
1.4268272181498456 2.4669147595519125 1.6576235421025443 52 51 56
