ply
format ascii 1.0
element vertex 733
property float x
property float y
property float z
property uchar diffuse_red
property uchar diffuse_green
property uchar diffuse_blue
end_header
0.6974156566310321 3.0807048092581173 1.4979371569127151 41 41 45
0.6879437387710492 3.090214804686723 1.4982122161776035 43 42 47
0.6689970358523747 3.088557452110191 1.4986097258524045 42 41 46
0.6619255863216955 3.10086140288775 1.4988535010440196 40 39 44
0.6665353583250295 3.12703398834468 1.4989470537219631 38 39 43
0.8858834450069228 3.6743707838027673 1.498244623654036 43 42 47
0.7927695065958449 3.648593727149847 1.5000680072917183 42 41 46
0.8033326492465145 3.7071172820568172 1.500271673613905 43 43 45
0.7604967706723971 3.76675086915695 1.5016383580577666 71 71 71
0.7994763413263626 3.8399015244331087 1.501335481716041 71 71 70
0.8331242142106285 3.9065777700324356 1.5011001064573646 88 88 86
1.076189652355955 2.5630256405303613 1.499302267817986 56 56 58
1.050465490107787 2.556098132281034 1.4997684294034725 29 29 31
1.0422555209610715 2.566757857853723 1.500026323739636 33 34 36
1.0297291633763632 2.5730462347037695 1.500335232384527 17 18 20
1.0215852881569476 2.5837681862389807 1.5005923056459523 10 10 12
1.0297583306438203 2.611146146690567 1.5006576467650907 8 8 10
0.9957490317672627 2.595451530644452 1.5012185365378252 8 8 10
0.9954662240265136 2.614231455793151 1.5013835225865892 8 8 10
0.9668066884552685 2.60382623096522 1.5018800955177674 8 8 10
0.9446336280818116 2.5999941020723547 1.5023000405876188 8 8 10
0.9120282518296966 2.5852505799172016 1.5028403471358178 9 9 11
0.9141493330227017 2.6064852187173084 1.502977093618017 11 11 13
0.8916877104110293 2.6021276915713307 1.5033984723961817 12 13 15
0.8741751127208784 2.6028612153471973 1.5037620297412118 12 13 15
0.8657096260269935 2.6130431211263727 1.5040210868883575 14 15 17
0.849926838438035 2.6155121032573 1.5043640611969966 17 18 20
0.859492999178005 2.6447479422399405 1.5044167272349778 21 22 24
0.8478850656957964 2.651638882869757 1.5047120042621156 23 24 26
0.8121782592471083 2.6328507074624556 1.5052813040232311 25 26 28
0.7962563307703185 2.635010453615626 1.5056244957638063 25 26 29
0.7985641461422051 2.656657961887321 1.5057609322898728 22 23 27
0.7869359359594321 2.6633983160430836 1.5060553463900446 21 22 24
0.7764966936102105 2.6714012688133986 1.5063362042691688 20 21 23
0.7706046914487863 3.103772423547446 1.510122053897793 34 35 38
0.7162939606510483 3.0613202596428843 1.5108703380183501 37 38 42
0.6984196152306272 3.0816046734371607 1.5114070283649061 41 42 46
0.6804113173323785 3.0810948763730366 1.5117701594786515 43 42 47
0.6598369463340525 3.0774925388261463 1.5121594320010026 43 42 47
0.6588833481111476 3.0969939825016226 1.512344222305074 53 52 57
0.662331578011025 3.1217777962225464 1.5124839785352084 38 38 43
0.8007054264439488 3.7035399552634884 1.5145926638312126 43 43 45
0.7577877814725091 3.7630204951996085 1.5159726573190584 74 74 74
0.7976191996918098 3.8372552600215473 1.5157892702324767 72 72 70
0.8322220878926758 3.9051562756188702 1.5156588722383688 91 91 89
0.9032082960982646 4.068318020115943 1.5155937017029455 173 173 173
1.1199229265536512 2.568527323881469 1.5118970098339848 46 46 48
1.090362024291025 2.557957792702576 1.512362893856977 47 47 49
1.0661543858923208 2.55262703674491 1.5127762358345127 44 44 46
1.0428111449285455 2.548066375621113 1.5131803680329339 36 36 38
1.034275991490124 2.5583732204875007 1.513442759912593 30 31 33
1.0230037311484734 2.565907735674763 1.5137311188418223 16 17 19
1.0161843308203062 2.577955414971478 1.5139772620353003 9 9 11
1.0290267077227815 2.610080094006415 1.514038425814999 8 8 10
1.0295110309459892 2.6296985512959044 1.5142169349624122 8 8 10
0.9652834827453015 2.6019422254177305 1.5151833011830027 8 8 10
0.9413287615230301 2.5962647551137197 1.5155884725298647 8 8 10
0.9291373912894062 2.602686576423392 1.5158838112113988 9 9 11
0.9155296047677466 2.6076117555954625 1.5161919940066992 11 11 13
0.8851640827161957 2.595008719027681 1.5166538469672595 11 12 14
0.8644742293864458 2.5923934133632702 1.517025701787617 13 14 16
0.8670969926302883 2.6141956070201235 1.5171840936415157 14 15 17
0.8568240032340111 2.6224799364141895 1.517460461396284 18 19 21
0.8880421298032299 2.6746426555499205 1.5173609424762662 23 24 26
0.8460097583148496 2.6493459235093013 1.5179250869320742 26 27 29
0.821089268315673 2.642038123436962 1.5183331779545715 27 28 30
0.811016440043268 2.650478371439898 1.518607198598807 24 25 28
0.7977499916399926 2.6554870622850535 1.518909632984681 23 24 27
0.7798116903773009 2.6554411593726837 1.5192533011158733 23 24 26
0.7661288121291217 2.6599212348160455 1.5195586635792264 22 23 25
0.6922701375597444 3.0741314005910088 1.5249405550317574 42 43 47
0.6728991055137481 3.0719994167609017 1.5252917377674493 43 42 47
0.6618208199078954 3.079557905430777 1.5255766051993873 42 41 46
0.661472349219073 3.120488255969981 1.5259751001420494 36 36 40
0.7850475968012065 3.6383865104075994 1.5285622141291564 42 41 46
0.7529826639673316 3.6430540338692343 1.529221990949642 44 44 46
0.7109539347193912 3.6123924733858983 1.529734710126182 49 49 51
0.7893257773001208 3.8263253857366495 1.5302792120520852 76 76 74
0.9076847103504633 4.073898657289854 1.5303786741076717 173 173 173
0.9096099514426477 4.100438784294885 1.5305958008050446 174 174 174
1.1240269475660662 2.5722917827256 1.5253060715966849 43 43 44
1.0940221362368698 2.561293720427778 1.525727661614586 43 43 44
1.0662375374741722 2.5523863245128258 1.5261316768341358 42 42 43
1.0453388221931967 2.550289609038262 1.5264846684067692 37 37 38
1.0304831281442712 2.5542196005546827 1.5267934118468016 32 33 35
1.02963214962847 2.5723067619236226 1.5270016397524364 18 18 20
1.0280824387217329 2.5897367734642893 1.527215407364159 8 9 11
1.0306899415174182 2.6305864222498148 1.5276043354651028 8 8 10
0.997773386609148 2.615967982028428 1.5280396026488265 8 8 10
0.9584240756906898 2.5945598224438173 1.5285179785375769 8 8 10
0.9488692022961337 2.603747580099946 1.5287876017520092 9 9 11
0.9014353616682356 2.573643279847528 1.529318416936123 10 10 12
0.8954585046340922 2.586416248478037 1.5295620210353054 11 11 13
0.8938114526278426 2.6037287592707856 1.5297762835417303 11 12 14
0.8764416916044541 2.6046221924336894 1.5300977894057228 13 14 17
0.8909080702678601 2.658109449790255 1.5304085331989459 27 27 33
0.8953943247999808 2.6821136554724196 1.5305840196898808 33 31 37
0.8728774461282588 2.677554862072079 1.5309398107527548 36 33 39
0.8485525155938158 2.67097638335476 1.5313065310540124 35 33 39
0.823879173451529 2.6639179745173625 1.5316743894912124 28 27 33
0.8100119634664646 2.668329129951619 1.5319705117279372 25 24 30
0.7228988144718651 3.0684449208684494 1.5378033451337139 38 39 43
0.6861332280616619 3.066673434833377 1.5384447881525778 42 43 47
0.6654064750347615 3.062927685118737 1.53877710017475 42 42 46
0.6540820614927607 3.070168709509122 1.5390577391367328 40 41 45
0.6581884756490362 3.09563030348066 1.5392555944696698 39 39 43
0.7861607271910636 3.6395192683128688 1.542759007902141 41 41 45
0.7528944391149126 3.642683289838473 1.543390249848339 42 43 47
0.793244949179742 3.831113784012076 1.5446755916056552 74 74 73
0.8248524119989533 3.895127230413066 1.5447907548450395 87 87 85
1.1568509009392547 2.58562381959279 1.5383673709787429 43 43 43
1.113916231779033 2.5618810587340506 1.5388067650894977 42 42 42
1.0823102780705638 2.549250245897704 1.539187235796615 42 42 42
1.0302376121873869 2.5159276652007865 1.5396669052777492 40 40 40
1.0388914435833079 2.543474382560119 1.5398460686600608 38 39 40
1.044889556677584 2.568453691153448 1.5400394861013733 29 30 32
1.0464082137526338 2.58899111567976 1.5402556360452992 11 12 14
1.0471051396803333 2.6278865317132025 1.540701475344016 8 8 10
1.0283117507574866 2.6278329164258025 1.5410154199718813 8 8 10
1.0170438740359926 2.635442064731452 1.541293530731709 9 9 11
0.985152518192111 2.6217858982608684 1.5416667180175656 9 9 11
0.9531701181550665 2.6078807049475037 1.5420385000944894 11 11 13
0.9571435749258269 2.650292200285389 1.5424708524702353 13 13 15
0.9366867605497743 2.648179448625343 1.5427884200724917 18 19 21
0.8830428769626527 2.6112292466398532 1.5432517198934574 16 17 21
0.9134384981800178 2.6815551089824075 1.543570142847036 31 31 36
0.8974430840249453 2.683974524363489 1.5438663421234837 46 44 50
0.8722787583301718 2.6766153379892454 1.5442009960817462 48 46 51
0.8479006745584883 2.669980100311486 1.5445310048410898 47 44 50
0.8170393678233367 2.656312037594815 1.544886810604145 57 56 60
0.7787349032711477 3.0916804628720254 1.550648967815535 31 32 36
0.7296076246990235 3.0759675045783776 1.5512864676671445 38 39 43
0.7145592159389882 3.0790344763701443 1.5515744322276124 40 41 45
0.680010136526092 3.059232237074754 1.5519198133280838 42 43 47
0.785535542605104 3.6384726993176635 1.5569667436599661 40 41 45
0.752000913945404 3.6412963421828737 1.55756127977004 40 41 45
0.7472092731994702 3.748686044747455 1.5589046497809478 71 71 71
0.7856251129062859 3.8210516948437494 1.5591128182712386 65 65 65
0.8135075124446562 3.880222666873742 1.5593421003790504 79 79 78
1.071741011896291 2.557261580874678 1.5528340749828657 42 42 42
1.0367303187334205 2.5409759872104782 1.553167914274736 40 41 42
1.0368081039408565 2.5599671756272357 1.5534108887039142 26 27 29
1.035496598149721 2.5776096419908243 1.5536580783128715 12 13 15
0.9895122623450521 2.6259622839501167 1.5549932803659632 10 10 12
0.9779757113157623 2.6524016158885098 1.5555122305905433 12 13 16
0.9432953672748425 2.6355712700328433 1.5558339399039383 12 13 16
0.925110503110533 2.635784648619121 1.5561188435591813 22 22 26
0.9282623495322324 2.6775466851164964 1.5566068989820339 43 43 45
0.8939447561983479 2.6606978440710147 1.5569227419763825 59 58 60
0.9031243265208029 2.689676909198423 1.5571529114824656 55 53 56
0.8734613778611876 2.6775659532873357 1.5574574499426004 64 62 64
0.8475192468100476 2.6692717241385466 1.5577533294242167 73 71 73
0.8115742452590853 2.6501750246498696 1.5580655215262011 65 64 65
0.7871632930845196 2.643247887146246 1.558355220455472 72 72 71
0.7716304208018878 2.6457554722890353 1.5586284732770235 68 67 65
0.7535021925700034 2.6454161987693956 1.5589053923702405 62 61 57
0.7454935056128438 2.655960973808696 1.5591652374564113 52 51 48
0.7779269103164239 3.090464614160947 1.5642486739084083 32 33 37
0.7395296465605792 3.0872253991762895 1.564802805225099 39 40 44
0.7169199659970913 3.0815112865463927 1.5650801518562594 41 42 46
0.7411028902249264 3.7405988966528922 1.5731792183520477 67 67 67
0.7746164075405741 3.806629149116114 1.573508207146966 58 59 62
0.8062557773669679 3.870603942959603 1.5738398473096984 67 67 69
1.3292002058982948 2.6204839013999544 1.5634140304296757 65 66 70
1.2941830613447927 2.605577970352016 1.563706569692732 58 57 62
1.248653062784173 2.580228773946971 1.5640036610068406 45 45 48
1.2384306534222635 2.589277622757262 1.564276034360009 47 47 49
1.231868449366305 2.6019211539078433 1.5645462466665696 41 41 42
1.0892112287530198 2.5744705093451348 1.5662023146298032 43 43 44
1.0485409755665014 2.5525462170873308 1.5664777302368436 40 41 42
1.0343514514549346 2.55716381471661 1.5667449788623287 33 34 36
1.0375635410268436 2.579383546312031 1.5670090976805904 16 17 20
1.05970271661531 2.6209299335605727 1.5672723443858294 12 13 16
1.0673946395622975 2.6479444988432586 1.5675393323888873 11 12 14
1.0017523604431773 2.6382569164906666 1.5683424266495785 11 12 15
0.9610089595555388 2.6153567707156924 1.5686052717501364 11 12 16
0.9500135987264994 2.6230904056153603 1.5688703422310004 13 14 18
0.9618103905861999 2.69310352746151 1.5696786142524475 44 43 47
0.9182710940337956 2.666740115967065 1.5699330999511878 50 51 53
0.8842181633344677 2.650138338387431 1.5701881950341934 63 62 63
0.8887396884822392 2.674157731617127 1.570458707915705 71 69 70
0.855352568476623 2.658047735495105 1.5707111479739584 84 82 83
0.8308788130645879 2.651255685018954 1.5709661969025148 91 89 91
0.8005964615965082 2.638151151149806 1.5712161937398215 92 92 93
0.7793504019030539 2.634578662114195 1.5714700296935922 89 89 89
0.7692190848493372 2.642866866888373 1.5717304877691023 81 81 79
0.7579071288465762 2.6498720509767018 1.5719899194868376 80 80 77
0.743370073179944 3.091411423994261 1.5783584901938545 40 41 45
0.7295270981655737 3.0959398580920325 1.5786195412879487 41 42 46
0.6991681794305904 3.0811034337177103 1.578846467538432 41 42 46
0.7278924126961124 3.723400319647132 1.5873978412159127 68 68 68
0.7690208436810599 3.799173520216592 1.5878672285744306 57 57 61
0.8078865096149832 3.8724538883103747 1.588334176594965 63 64 67
0.8657624697072623 3.994447789618469 1.5892090972567212 131 131 130
1.3305427817305242 2.6214435578743145 1.5771749877113075 69 69 73
1.2918715875293887 2.602983944645325 1.5774026619999217 51 51 53
1.2538420692825039 2.58496282358216 1.5776285477134868 60 60 62
1.2426450805933829 2.593073546385566 1.577896955538756 44 44 46
1.2304523139683559 2.6001909172349897 1.5781634305331658 40 40 41
1.114791193767813 2.5617694191840523 1.579097028882381 39 40 44
1.108185763843328 2.5741559957249818 1.5793697664939024 46 47 50
1.1046625735363738 2.5896513597972954 1.5796489993203384 39 40 42
1.053596425499204 2.557313534646761 1.579829839455365 37 38 40
1.0364507548137016 2.5589629536104086 1.5800787684560378 33 34 36
1.021616415308695 2.5629003529395376 1.580331917154424 24 25 29
1.0382861611704 2.5988317101368077 1.5806547429527387 16 17 21
1.039497777864336 2.6191641974978594 1.5809448794569456 13 14 18
1.0195228402144219 2.6370339956672737 1.5814748815326563 12 13 17
0.9924555750946066 2.647545501940689 1.5819868548322802 12 13 17
0.9784750630887136 2.690864725397807 1.5828214804546703 21 22 25
0.9520529638524275 2.682574188904861 1.5830420784918866 33 34 39
0.9642607390315173 2.7147489741407416 1.5833666950919152 43 44 49
0.9260783463589815 2.693955184218166 1.5835528545071722 60 61 63
0.8870092370178846 2.6720219862891827 1.5837334576493347 71 71 71
0.8488667668509203 2.6508631206790714 1.5839136014060493 85 85 86
0.7956162701908742 2.6325334351306884 1.5843337941397793 98 98 100
0.7741069294607876 2.628663189336434 1.5845566971825629 102 102 104
0.7673310652863841 2.640541019130189 1.5848240066347592 97 97 99
0.756011035462524 2.647532056299217 1.585077173124432 89 89 91
0.6805890693493215 3.038580048523472 1.5919476822839767 42 43 47
0.6823125177714064 3.0611028256142947 1.5922640892966096 41 42 46
0.7299576494399682 3.5903231867837393 1.5996052983781666 41 42 46
0.7275131088725035 3.722660078263597 1.601628721387502 69 69 69
0.7686980978346551 3.7985034812745604 1.6022317293824295 61 60 64
0.8060058208051089 3.869770268790628 1.6028165451976302 66 67 70
0.8636592054654373 3.9914582030970585 1.6038941891389622 128 126 125
1.345363969887425 2.635492602090926 1.5909951650833012 69 68 72
1.3033675740262327 2.6138431662253643 1.5911432176695948 60 60 62
1.2519456806065525 2.601857192029609 1.5915589506023362 45 45 47
1.2212793849975667 2.590828375376728 1.5917442276781857 41 41 43
1.1110577055991122 2.557719179403922 1.5925155918894789 38 39 43
1.0808530785552977 2.546489827340772 1.5926921617202088 38 39 41
1.066379296482128 2.550907140512105 1.5929349583291632 35 36 38
1.0503645449670804 2.553736531866706 1.593170376329147 34 35 37
1.0324318639401755 2.554581791781021 1.593396485385348 32 33 36
1.0177265649400427 2.5586380000969515 1.5936361952149511 27 28 32
1.0112069906855368 2.5709784213234057 1.593912664095559 17 18 23
0.9952967889683602 2.573755501089894 1.5941459988806996 16 17 22
0.9960418677475719 2.593531057348207 1.5944564318147585 17 18 22
1.0183742074699174 2.6355365475910713 1.5948699874093302 18 19 22
0.9292548029133215 2.639179971319296 1.5959846774116246 21 22 23
0.9315300281807305 2.6607730047455203 1.5963063231698962 25 26 30
0.9399935404189755 2.688943724535271 1.5966608427424838 33 34 38
0.9124988034639495 2.679333903754112 1.5968314523408902 37 38 40
0.8990893800879013 2.68449043824662 1.5970735727643326 43 44 45
0.8262137498179629 2.645687285888437 1.5973105436922321 54 54 59
0.8018295439911365 2.638869428630826 1.5974893743167529 69 69 72
0.7777786755270131 2.6322997423942778 1.59766826214523 78 78 80
0.7778603603884522 2.651562417848875 1.5979782747959532 80 80 82
0.6566227175426524 2.9900041544670266 1.6048785457072452 41 42 46
0.6663942219967864 3.0217483318807554 1.605275259041191 43 44 48
0.6608592763044454 3.035723913991483 1.6055664605891282 42 43 47
0.717423569908052 3.5966330757614684 1.6139517258410807 42 43 47
0.7284728817684576 3.7236372646721425 1.6158711963969516 73 73 73
0.7683753509027529 3.7978334401020453 1.616596277201623 66 65 69
0.8636474985854627 3.9911867632142743 1.6185890450563811 139 137 136
1.3599381798130847 2.6493000786637007 1.6048830607820221 81 81 83
1.319171801620417 2.6288984396151154 1.6049644622273935 84 84 86
1.2633306947663119 2.5935596849881284 1.60494850991247 74 74 76
1.053946136354825 2.5570193049520578 1.6065431822944778 32 33 35
1.0392423160075603 2.5611392327140248 1.6067704326685786 30 31 34
1.0172881835427843 2.557873643897708 1.6069473879787435 26 27 31
1.0063691564543884 2.5657406265966114 1.6071990258786266 20 21 26
0.9895415276712409 2.5675671980501638 1.6074093032708006 20 20 27
0.9899582617164772 2.586987978205922 1.607739691374921 21 22 26
0.9972751345578804 2.613555646323439 1.6081199810256983 21 22 24
0.9850565318733485 2.6201091792613296 1.6083627824473337 22 24 24
0.938004564755299 2.62882104468744 1.609012884944291 27 27 29
0.9263639134732635 2.6358525380960574 1.6092577859272623 26 27 28
0.9358830930597908 2.6843158742564657 1.6099921599086109 26 27 29
0.9402060090029493 2.7082280636275 1.6103584785554241 26 27 28
0.8998510831488407 2.684989445185948 1.6103865987329564 29 30 32
0.8543263860287603 2.656048865140886 1.6103713435081803 30 31 35
0.6504091728442987 2.9622494991284976 1.6178168088922096 44 45 49
0.6473120398490748 2.9789055405889253 1.6181368661900815 43 44 48
0.6562650974079012 3.0096599330543894 1.6185719514502084 43 44 48
0.6461045787909883 3.0181853247968835 1.618826881508486 43 44 48
0.7639678402210546 3.632572141217389 1.6281667051675124 39 40 44
0.7074221581042783 3.6061258334609656 1.6283115451655623 45 46 50
0.7294456198518766 3.7246309581588615 1.6301205917281831 74 74 74
0.7680198567175411 3.7971212617604286 1.6309604935380124 65 64 68
0.800420984653613 3.862049474258784 1.6317356112510717 78 78 82
0.863234802397697 3.9903942250290068 1.633280911696465 151 149 148
1.035281061022809 2.5190543835825405 1.6193869128901504 37 39 42
1.046414574547196 2.549114124758079 1.6198334235273324 41 43 46
1.0307366059039733 2.5522266334572676 1.6200378871302652 38 39 41
1.011142433942231 2.5513259804250548 1.6202055820078431 38 39 42
0.997291481437795 2.5561929821824814 1.620425040023568 36 37 40
0.9799971412860882 2.5575147253176107 1.6206118637970541 27 29 33
0.9702612615528023 2.5665148121873935 1.6208684198510985 21 23 25
0.9816705389465852 2.5972180540034135 1.621324137280799 21 22 24
0.955763409984023 2.5896206746870276 1.6214283896776964 23 24 25
0.9361034543582095 2.5883642893420054 1.621590180248085 26 26 28
0.9300062049821077 2.6201898003551687 1.6222310586865472 29 30 32
0.9084180746625234 2.6168140361985004 1.622372115265839 31 32 34
0.9235758216216562 2.651824949182858 1.6228715784889212 34 35 37
0.9228100749937178 2.6702737128431546 1.623217056421059 32 33 36
0.8900892991220104 2.674361406174584 1.6235996245353954 20 21 23
0.8512218169044425 2.652452099973284 1.6235632948456724 16 16 19
0.6447230287083434 2.9756214720876963 1.6314303143493951 45 46 50
0.6461684443789981 2.9976104118727136 1.631819917767697 45 46 50
0.6366362898931242 3.0068337223086123 1.6320786516101027 45 46 50
0.6190293276889254 3.006573193555382 1.6322394016696968 47 48 52
0.7623621609911613 3.630292026377462 1.642328487337117 39 39 44
0.719729074168209 3.599025815659444 1.6421559895341948 42 41 47
0.749716208995618 3.659401885015178 1.6429811370919152 46 45 50
0.7254836228974701 3.7192959838118727 1.6443071793884416 73 71 73
0.753807029409983 3.778579313901461 1.645127931431569 68 67 72
0.7902058891093569 3.8486074880014707 1.6460697831404485 80 80 84
0.864022520730721 3.991161524410506 1.6479897054685364 158 157 156
1.3999274904863905 2.6874360475002375 1.6329790890035862 83 81 83
1.0128104897411845 2.496185996878552 1.632428355602954 44 47 51
1.0082898621819647 2.5104136186131267 1.632741800024162 46 49 53
1.0115244266035317 2.5325020815430364 1.633144579927178 46 50 52
0.9994978050134739 2.5392072219907558 1.6333732261458092 46 49 51
0.9781134938871777 2.53637858666976 1.6334931324732107 42 45 47
0.9611463868075635 2.5379716266237815 1.6336628400554445 38 42 43
0.9389528479782279 2.5341623757081964 1.6337703082847002 38 40 42
0.9563427467407304 2.5709002348106775 1.63434200321654 32 33 35
0.9394042433297655 2.5724570568860443 1.6345107730890271 28 29 31
0.9268864676945926 2.5785274588021796 1.634731101323437 28 28 30
0.9253018026024551 2.5959077442228753 1.635081800179392 25 26 28
0.9113179513410434 2.600440454073127 1.635284236475228 24 25 27
0.8948613344787872 2.6023577066638963 1.6354560696652447 25 26 28
0.8911628291525385 2.617580159723712 1.635782122982898 29 30 32
0.8703664877292039 2.6532027341503266 1.636644418977515 20 21 23
0.8388763830114011 2.6390533899074766 1.636626978812051 17 18 20
0.6500284456542729 2.981514131459436 1.6448261325587898 46 47 51
0.6363944287047314 2.985938157044215 1.645023596040183 46 47 51
0.6291774700421005 2.997834189185495 1.645313781815464 47 48 52
0.7605312475729205 3.627728824167226 1.656479958079713 39 38 44
0.7745915660543563 3.667978521578069 1.6571471244692286 43 42 48
0.750660463846176 3.660338406664478 1.6571943591414358 46 45 50
0.7502656753875863 3.7737687953366574 1.6594018081052144 62 61 66
0.781888892513281 3.8376165879287925 1.6603839180279847 76 75 80
0.855463854101008 3.979784363856645 1.6625449036676416 144 143 143
0.8558652037599157 4.004029604185079 1.6630127638893089 170 168 169
1.0024928112994411 2.4855129328299337 1.6455326336267877 35 38 42
1.0025834344309965 2.504348927942045 1.6459186832615318 36 39 44
0.9934536928945723 2.5327641559581755 1.6465654999807824 41 44 47
0.9762907043655301 2.5342082078751904 1.6467144937739504 43 46 49
0.9661617492540288 2.54277056159289 1.646960703798672 41 45 46
0.9414695835507022 2.5553174495867492 1.6473899820786435 41 42 44
0.9438512213918185 2.576723894639436 1.6478128684722677 39 39 41
0.9209775828433918 2.5721098687897888 1.6478772084939948 38 38 40
0.919500994671973 2.589582814155246 1.6482461745765846 30 31 33
0.9059366808730621 2.59453349054803 1.6484421303433998 26 27 29
0.9030148640024889 2.610557292919812 1.6487913972342338 26 26 28
0.8321882651222691 2.593473110634682 1.6489331989096028 24 24 28
0.8432192575349967 2.6241968537096576 1.6494872114904364 21 22 24
0.8315343497008733 2.6309630835311832 1.649707369192586 18 19 21
0.6209876212179795 2.9676981583592372 1.6580842406621847 42 43 47
0.6205739366303955 2.9874961012458985 1.6584935447918763 43 44 48
0.621933838629231 3.029862620269588 1.6593538207463268 50 51 53
0.7891489232786919 3.6634504038576816 1.6711978069083178 40 39 45
0.7498324578978368 3.6590317822490332 1.6713804996114574 47 46 51
0.7388670642190824 3.7588496376750737 1.673505889349916 57 55 61
0.7790171979699121 3.8336552626534357 1.6747623580467983 63 62 67
0.8626705087644349 4.036484126083996 1.6783444709754627 176 174 175
1.245314135394779 2.574594385562677 1.65929714003078 62 63 67
1.0117914394342975 2.494520651687282 1.6589035774225935 43 46 50
1.0041413731496611 2.5055965936933298 1.6591869326442654 35 36 41
0.9692838230812834 2.489205609183842 1.6590322018635366 32 30 36
0.9787681270995396 2.555310205792941 1.6604073930570695 31 34 36
0.9255384397061815 2.5575507330795237 1.6607608456872682 44 45 47
0.9151877455432991 2.5658159061422197 1.6609988913479417 42 42 44
0.9046438929366107 2.5738704828008583 1.66123348956431 41 42 44
0.8990509612571767 2.5870624223991694 1.661550816819054 39 40 42
0.8972239605453632 2.604205837103401 1.6619320177351948 37 37 39
0.863709858702623 2.626384778002963 1.6626036773962838 27 26 30
0.8330422570877138 2.6131344685027447 1.662492856863538 23 24 26
0.8333636039868455 2.632600990908518 1.662911986001197 16 16 18
0.8138793666419022 2.631055373304006 1.6629902040783866 16 16 18
0.6397853357270324 2.9690592126594195 1.6712971967072983 46 47 51
0.639275504631307 2.988751253425183 1.6717259653204661 46 47 51
0.6366575557312073 3.006040958669268 1.6721148618700228 45 46 50
0.6319450546881529 3.0209203376843616 1.6724636358243077 44 45 49
0.6251381964343992 3.053869397962369 1.673215173460401 44 45 47
0.7898822793024385 3.664110101773928 1.685467878132602 41 40 46
0.7505621435236747 3.6596965913538906 1.68559773459918 47 46 51
0.7358388748776361 3.7547002858493794 1.6877365858012405 53 52 58
0.7701902138348986 3.8220073232776626 1.6889952947418105 58 58 62
0.8458831478740729 3.990507477007603 1.6922054576219299 148 146 147
0.8492348492993471 4.01865805638853 1.6927950189497265 173 171 172
1.358958794980158 2.6466183681771662 1.6740481336346538 75 73 76
1.2261722307347909 2.57455767183632 1.6730090616268267 55 54 59
1.0112725002988556 2.4936785697143042 1.672139595827304 50 51 54
1.0056418453367404 2.506786211480944 1.6724627992909349 38 39 41
0.9288600825722932 2.5606588992930925 1.6740328577305112 29 30 32
0.9204678777825961 2.5709598857808555 1.6743047308315373 36 37 39
0.9083655199950655 2.5774179716901497 1.6745060020294071 39 40 42
0.8948063693250676 2.5823387786653527 1.6746789069054138 42 43 45
0.8917601240472405 2.598196242534432 1.6750529475059035 43 44 46
0.8030890935140856 2.524461208246837 1.673777058720102 43 44 46
0.8029830455294465 2.543191918687517 1.67420313784238 42 43 45
0.8693925999306689 2.632067304228598 1.675923351383417 40 41 43
0.7549720258362151 2.741075153247868 1.6789157871087532 13 13 15
0.7417715789397761 2.7656465763280167 1.6795335792648052 14 14 16
0.6414539904572933 2.9707243966459007 1.684645383516142 58 59 61
0.6447345104218309 2.9948432813161183 1.6851786344064057 46 47 50
0.6466756845948727 3.017488285116751 1.6856844303289087 48 49 53
0.6264482146805357 3.0757258293075997 1.6870988496626766 45 46 50
0.7313039571642048 3.7486128099838947 1.7019158122577207 53 52 55
0.7621598404639816 3.811388370676206 1.7032031775766145 56 56 58
0.7980607276187628 3.881040214485619 1.7046240551908638 67 67 67
0.8483813039176189 4.017288047219375 1.7074931632260744 170 170 168
0.8525650927955348 4.046640976937285 1.7081412727962448 175 175 173
1.338530790029833 2.626441922250387 1.6874814244561285 72 70 73
1.2903017511277417 2.598720741771393 1.6869793888134532 64 63 68
1.01722895238871 2.4805954857656776 1.6850618057820217 64 65 69
1.0133108208696782 2.495401741290194 1.6854273334437577 57 58 60
0.9172945351315391 2.586362562328026 1.6879089967253043 32 33 35
0.8959952784721201 2.583265953122957 1.6879051288037412 33 34 36
0.8084903476051056 2.52981191527227 1.6869190390531004 35 36 38
0.7938831615025386 2.5333329884281284 1.6870508389783703 39 40 42
0.7926284988108384 2.550881877689087 1.687472953782696 43 44 46
0.8210909847107476 2.599895204183797 1.688547009065384 43 44 46
0.8095335939345155 2.60672366675185 1.6887475804018877 43 44 46
0.7857307239344813 2.61958782295898 1.6891320979350712 38 39 41
0.8059949425902686 2.699053855715581 1.6909584090535366 17 18 20
0.8023686157748582 2.7145339444685925 1.6913390292665293 15 16 18
0.7599886947255816 2.7267905258705203 1.6917700327902168 13 12 14
0.7517349330789069 2.737235771301748 1.692045912076987 12 12 14
0.747381037788956 3.587768743827808 1.7123190834089679 39 38 44
0.6831742011716111 3.573900556945084 1.7121994416470911 49 48 53
0.6741875548420782 3.5848420887965293 1.7124895468559302 56 54 59
0.8019296537405278 3.885795750665044 1.7192388094206303 71 71 71
0.8920915971117576 4.098249255044339 1.7240033963108674 176 176 174
1.3197678056286768 2.607883979317312 1.7008595373627267 68 66 68
1.216076047630171 2.5639860945173223 1.6999790425546197 50 51 55
1.1110443091931756 2.574067533829541 1.7004462611506699 57 58 62
0.9006232193289336 2.56877235999003 1.7007471170272144 29 30 32
0.8884711589952725 2.5751326312107885 1.7009305847417484 31 32 34
0.7887524648894945 2.5464968687026404 1.700422191634739 28 29 31
0.8268308480325864 2.6056599437464985 1.7018179890352598 29 30 32
0.7630511926263586 2.671715230498382 1.70359501411083 35 36 38
0.7654736185039117 2.6936568060948503 1.7041367314549873 35 35 37
0.7521046016147921 2.737348733340683 1.7052528636169335 15 15 17
0.7552782921723189 2.760362747612954 1.7058197568211548 13 13 15
0.7222522675148335 2.8617670093342706 1.7084142888770917 19 20 22
0.6735666567134968 3.4950146777621915 1.7242925235355377 41 40 46
0.6813885173064025 3.571385292732458 1.726179297921922 50 49 54
0.8781591231935224 4.0318124875159125 1.7372466593709501 127 127 125
0.9037459213873913 2.5716986214593356 1.7140251577026824 27 28 30
0.8849081252712796 2.5711188646317247 1.714025749739061 29 30 32
0.9290853129713996 2.636208879616176 1.715682208736216 31 31 33
0.7312114350826984 2.6561883503329944 1.7163665795123881 33 34 36
0.7204863326625721 2.8001086813111495 1.7201193666225365 12 13 15
0.7227520507476468 2.822371168723219 1.7206966054732462 13 13 15
0.7113323015336197 2.82937295100346 1.720888247460449 13 13 15
0.7060587039617165 2.843268513713299 1.7212541066742366 13 13 15
0.6967572704730016 2.8526454256367773 1.721505771474264 14 14 16
0.6811852820872362 2.8748317609552716 1.722095870756099 14 14 16
0.6680371876462594 2.879826644179313 1.7222367444114444 15 15 17
0.6611414857593425 2.932073651246503 1.7236016064302968 19 18 22
0.6699482965113146 3.5122895454143475 1.7386876929872395 41 41 46
0.675054095043288 3.540872522316363 1.7394269865247574 44 44 49
0.6650768261773461 3.5504890826114686 1.7396854477160462 50 48 53
0.7504804546379493 3.7955540732128146 1.7459893743670598 74 74 75
0.7988430951625412 3.8812899582523 1.7481794211624107 90 90 90
0.8774429830968613 4.030622919540079 1.7519986888480699 140 140 138
0.9396755174770642 2.608623959306132 1.7282540279463023 28 29 31
0.9025920954610862 2.589197017609642 1.7277127745831264 30 31 33
0.9219424707537298 2.6284471276089083 1.728784484115184 31 31 34
0.824742568829528 2.6028473605159563 1.728052258040109 26 27 29
0.8091091078018919 2.6436439612557985 1.7291521479993313 17 18 20
0.6638044101554956 2.678502377145908 1.7300400961323752 31 32 34
0.6742897455047117 2.7483731703116376 1.7319384768043675 29 30 32
0.6745349827210547 2.827287665208639 1.7340780167562844 13 14 16
0.6512907001856141 2.860464699003412 1.7349683427881566 14 14 16
0.6424027146884834 2.870236548306078 1.7352297741008027 14 15 17
0.6662812328608609 3.551758280476867 1.7537158295819157 50 48 53
0.7526255368053574 3.7980691137226006 1.7604274674727542 72 72 73
0.7960853474077025 3.877464764846902 1.7625970324842433 83 83 82
0.8868134549394948 4.066527351239323 1.7677583409825408 173 173 173
0.8946913518527311 4.100895600513665 1.7686931909114922 177 177 179
0.9227168596989472 2.6098108566783447 1.7415604120122017 30 31 33
0.7636809115549925 2.6330621067861477 1.7419589616310718 17 18 20
0.6373726716607069 2.824511546051064 1.747155094128057 18 19 21
0.6364441968671808 2.84326933271705 1.7476827216797457 13 14 16
0.635305013260792 2.861844894343342 1.7482048679821662 13 13 15
0.6339010830968153 2.8801741803410366 1.7487196388233759 13 14 16
0.6347630049561999 2.901166309143217 1.7493131909418578 14 14 16
0.6368613555078573 2.9236588019432985 1.7499510668007037 15 15 17
0.6362539886024725 2.9431002784613076 1.7504984998309479 17 17 19
0.6358845611352544 2.962880849764113 1.7510558832396208 16 17 19
0.6190905882255859 3.1069768055899196 1.7550934466346386 57 57 61
0.6260939158571539 3.1361209010287197 1.7559268912299748 55 56 60
0.6172186997145475 3.1463259413592333 1.7562003996976956 55 54 59
0.5933374820653923 3.1802747927083734 1.7571194055243586 43 43 48
0.5955478807307546 3.2039802276627016 1.7577916780228233 45 46 50
0.6103861032079412 3.2431870900309394 1.758921656211395 50 51 55
0.6109072125745103 3.2650542297422085 1.7595393396511911 56 57 61
0.633785558624709 3.3790953507854646 1.7627932931806167 50 50 54
0.6472734400192923 3.417576556269532 1.763900616670437 47 46 50
0.6390831014659193 3.4949953551479425 1.7660712357983375 44 44 49
0.6632926563166865 3.547721967027061 1.7675977501288667 50 49 54
0.7519875391066924 3.796992412340426 1.774772823440306 76 76 77
0.7914275571806855 3.871179753868571 1.7769293580210612 85 85 84
0.8729414508051621 4.024243810809575 1.7813789694227466 158 158 156
0.8857482827387144 4.064878942782895 1.7825459500503438 174 174 174
0.8911083229408296 4.095940141850472 1.7834308143677258 177 177 179
1.0366746445372073 2.5739839341312734 1.7541174894358778 17 17 19
0.7925401304058162 2.6637668891725013 1.756054519127816 21 22 24
0.6132133054838187 2.8165226708877213 1.760021330157865 32 33 35
0.6097399747826366 2.832344123869963 1.7604751231824096 25 26 28
0.6168466115516931 2.860338644041431 1.7613157480418435 18 19 21
0.6082678666559354 3.032054315999625 1.7663237166119035 29 28 30
0.6076760616854615 3.051865708083791 1.7669026336870128 36 36 39
0.6080775292783835 3.0729226253587902 1.7675208768869677 39 40 44
0.6030755966562458 3.1290799759613255 1.7691524218586399 48 47 52
0.6070839196646214 3.1547501925996393 1.7699161199632405 55 54 59
0.5939206573274454 3.1597714833560477 1.7700258467679608 59 58 63
0.5853004081276418 3.1702679527153133 1.7703089489321657 48 48 52
0.5699940139491677 3.1726342078417837 1.7703347724309528 44 45 49
0.6176961053019752 3.2518467967816256 1.7727918433671592 46 47 51
0.6144237997881528 3.3548168773349847 1.775800217264617 62 62 65
0.6202510215596735 3.4053978457175527 1.7772991308212571 49 49 51
0.6151088774690581 3.4207442317556254 1.777734256189001 48 48 50
0.6158011414530546 3.4434576908781676 1.778401873467247 48 49 53
0.6342547396745486 3.488651794382503 1.7797788199679911 49 49 53
0.6258612970869322 3.5001072227206347 1.7800906706429016 53 51 56
0.7874604220766785 3.865789323937843 1.7912669804635117 82 82 81
0.8191402920792772 3.9302970441280953 1.7932475469417124 97 97 95
0.8777931228998415 4.054221784837779 1.7970461061888077 174 174 173
1.0541930291742871 2.5723652982775342 1.7675250156957345 31 32 36
1.048399097525575 2.585535582715238 1.7679018742400414 20 21 23
0.9883974398793757 2.5625884322951515 1.7669600348151553 17 18 20
0.5988805501862637 2.8593296148980807 1.774397318579458 32 33 34
0.5956294419915018 2.8755130813131373 1.7748761376987368 22 23 27
0.5815050575867009 2.9798356224147544 1.7779905252154977 16 16 18
0.5805015377149731 2.9989916245194914 1.778568867776872 18 18 20
0.5878611089206125 3.028118058954827 1.7794843842271895 21 21 23
0.5902927964971922 3.0515122666611276 1.7802055645171422 26 26 28
0.5848635603004282 3.065618997411927 1.7806123790489523 32 32 34
0.5831001504864934 3.0841395905791336 1.781168310427462 41 41 43
0.5887882459328326 3.1742346648555877 1.7839307377822657 51 52 55
0.575598304388903 3.179190749741733 1.7840277546046464 47 48 52
0.5745178372393926 3.198891432515534 1.7846223447323317 49 50 54
0.5631271246913223 3.248331841742626 1.7860791997539405 50 49 54
0.5609581292004373 3.2669092321354394 1.7866352076914198 52 51 56
0.5942674160896015 3.329554493300255 1.7886754315521753 52 52 56
0.6053189663554877 3.430028113681371 1.7917752357422305 56 54 56
0.618518766237675 3.4685535720762157 1.7930002872775044 54 52 58
0.8059292726150424 3.912882646361666 1.8072723972901046 86 86 87
0.8456143609619562 3.988119551560003 1.8097214050276569 122 122 120
1.0755248125119925 2.555532773429656 1.7805149973505716 72 73 75
1.0712317423877535 2.5702043007495416 1.7809544567968745 51 52 56
1.0651437207188441 2.5830949133474768 1.7813283091442602 33 34 38
1.0678419768835805 2.6049018237578023 1.782029568377069 26 27 29
0.8848935486884728 2.62675999737302 1.7817494924843513 30 31 35
0.8239681115990918 2.6390778928008958 1.7818149531992828 27 31 32
0.8303884968068638 2.6651508194372795 1.7826703103911297 22 24 26
0.8325428823580305 2.686763029960624 1.783362556435498 22 23 25
0.8066563712616761 2.678333153183786 1.78295993183155 17 18 20
0.73256950113935 2.7141965013903038 1.7836974473933338 25 26 28
0.7108254064606092 2.7097586065234367 1.7834425132866616 24 25 27
0.563595264005045 2.978757469487123 1.7911371113299004 17 17 19
0.5655963767437786 3.0014697069206155 1.791863199457534 20 20 22
0.5654329638447759 3.0216930840856824 1.7924994216189283 21 21 23
0.5646880473426166 3.0412907174094754 1.7931128523633972 23 23 25
0.5631901678652664 3.0600509647052228 1.7936959165962583 27 27 29
0.5690065063322107 3.0876498857654138 1.7945961481938402 27 27 29
0.5689678721796496 3.108312794302074 1.7952468773724828 36 37 39
0.5685802496070445 3.1494733844569573 1.7965414874214076 41 42 45
0.5736992390573805 3.176620168860367 1.7974237832954647 43 44 48
0.7620623921640657 3.832401049181321 1.819079868107904 63 63 65
0.7938643178771168 3.8969580115614444 1.8212819580301391 76 76 77
0.8660847167108656 4.038403275744114 1.8261202285067195 157 157 156
1.0810811662709285 2.5607785316363794 1.794139363853246 61 62 64
1.0747309429090133 2.573399706183613 1.7945094173229146 53 54 58
1.0704407590435727 2.5881172350265356 1.7949612466126503 34 35 38
1.0695200632112973 2.6062776028187717 1.795547286780721 31 32 34
1.0875585837709703 2.643752221062755 1.79688661518822 27 28 30
0.898151989592264 2.602084751770657 1.7942931602583327 31 32 35
0.8830582477530006 2.6054047233082636 1.7943029727846735 30 31 35
0.8684217644105283 2.6091617661321207 1.7943300158489321 30 31 35
0.8483684523892581 2.607173950779897 1.7941344501649077 28 29 32
0.829686622139222 2.6065576966377937 1.793992541555343 27 28 30
0.803841050935391 2.5982787546841015 1.7935541102377004 24 25 27
0.7972546641164504 2.6103646973885635 1.7939051747396926 18 22 23
0.7936441338797726 2.625641186406197 1.7943796584176814 15 17 18
0.8062433296212805 2.6583070664755617 1.795526749710162 15 16 18
0.7782032468133651 2.7638902234526403 1.7987860117936068 26 27 29
0.6427479769029278 2.711829229189936 1.7962055181292231 29 30 32
0.5399256067679503 2.950537776775315 1.8033171521399025 31 32 35
0.5418372363718813 3.0960477751243705 1.808073369312281 30 31 33
0.5408877969729418 3.115640680941077 1.8087059240339274 34 35 38
0.538144246141764 3.133114785661693 1.8092577051815093 37 38 42
0.559222093485884 3.179706770392242 1.8109140861078477 40 41 45
0.5359190252053705 3.1722047019751907 1.8105175603824206 44 45 49
0.7229639092477493 3.7815333445260437 1.8316018615730707 67 67 69
0.782225073290624 3.88158737754092 1.8352501327009407 75 75 76
0.8227062585142502 3.9577585370716792 1.8379973432695462 97 97 95
0.8709365275041308 4.092516520747787 1.8427050643557539 178 178 178
1.0822465009201019 2.561621153612408 1.807608636490038 62 62 65
1.0851875642374242 2.583593171971534 1.8083718639272917 53 52 57
1.0727823773348966 2.5901562941895704 1.8084969364171897 39 39 43
0.915347472998231 2.6005961246557847 1.807629132971156 31 32 35
0.8979060860340148 2.601519188882248 1.807525124443281 31 32 35
0.8584833597212508 2.5793855787420217 1.8064738347078504 28 29 33
0.8482927779103947 2.5877264304317076 1.8066759717315215 28 29 33
0.8172257426556887 2.5740722115046997 1.8059751622922073 30 31 35
0.8152660482695919 2.5910181820915623 1.8065310497270615 22 23 25
0.7977828315825916 2.591555686853715 1.8064137240342346 23 24 26
0.795849835541034 2.6085704530354046 1.8069721366656712 18 21 23
0.7873783825172558 2.6186562137304517 1.8072463938294225 15 17 19
0.7900930668343287 2.6407187276406963 1.8080109171947056 15 16 18
0.755741557102122 2.7389941950750543 1.8110566253978642 24 25 28
0.5275499086896909 2.9558605570983074 1.816597130088905 42 41 45
0.5279427018818053 2.9765987444057904 1.8172990371941213 41 41 44
0.5389211997025147 3.0716010979045962 1.820585606719753 26 25 29
0.5319739145365594 3.0838694315816064 1.820945222704918 25 26 29
0.5289666325121918 3.100929432800702 1.821496837432872 29 29 33
0.5249394430993537 3.1167958275997716 1.8220003273201208 32 33 37
0.5241321393026064 3.136630124354664 1.8226624769360944 35 36 40
0.7792627370587379 3.877487039895949 1.8496053511140595 82 82 82
0.819543495040703 3.953383476316157 1.8524750621748876 99 98 96
0.8818949167829959 4.106684499653011 1.8581242377833749 178 177 178
1.496056062413941 2.6391779248374916 1.8274570012097158 95 95 97
1.0249559065872966 2.6754209045344584 1.824490933849217 30 31 35
0.9053479410124604 2.589892329414984 1.8204414427165498 32 33 37
0.8217029082910324 2.5405997530164006 1.817975595821291 36 37 41
0.8207151542731166 2.5584750165744383 1.8185887574873836 38 39 43
0.7936640582000314 2.5489571844904813 1.8180148215454937 42 43 47
0.786948221975514 2.560797505107619 1.818366579800201 33 34 36
0.7823158927381854 2.574860162679116 1.8188143667506234 30 31 33
0.7881399467523709 2.600071156747583 1.8197439211813218 21 22 26
0.789524335202741 2.6206467217819487 1.8204723337632516 16 17 19
0.7774757092254052 2.626913890422351 1.8205823050671657 15 15 17
0.5282199632819387 3.0790735909680267 1.8340799867147934 35 34 39
0.5263988673604947 3.0975575267318476 1.8347068513036526 30 31 35
0.5245444742225198 3.1160571958497876 1.8353339646020914 30 31 35
0.809860060925941 3.940512256751447 1.8665836018954967 106 105 103
1.0846409287093866 2.601474089721248 1.8359385386940275 42 41 46
0.8340453099629983 2.534312207109201 1.8309716348416725 34 35 39
0.7632596313831169 2.479155680181836 1.828269691620845 39 40 44
0.7802866972370978 2.515738783138671 1.829756584461718 37 38 42
0.7734464938671441 2.5273661119708697 1.830104202275 44 45 48
0.7695760076284225 2.542143553110688 1.830595189719771 35 36 38
0.7889946418210662 2.5816391509018586 1.8322110255116242 33 34 36
0.785626292101578 2.5970983683295445 1.832731608286039 25 26 30
0.7885303247587618 2.619286964427043 1.8335577316147489 13 14 16
0.7670667849540143 3.8845013745072774 1.8787561591410633 113 112 110
1.4883398189629575 2.611886874048904 1.85442401719712 103 103 105
1.3906446706909188 2.5766209891187573 1.8520030148379247 75 74 79
0.8130369268963582 2.5121019112432053 1.843016080258403 34 35 39
0.7485698937189614 2.463487796858375 1.8404809249476333 39 40 44
0.7730492201443376 2.5078413441715934 1.842401540120212 38 39 43
0.7429405728799953 2.494944047782154 1.8415803577122585 46 47 51
0.737406897307103 2.5078598986271805 1.8419949625614682 40 41 43
0.7354609699960306 2.5245998040309052 1.8425920372687439 39 40 42
0.7400505266784181 2.5483357492970096 1.8435226146832182 17 18 22
0.7589957273460386 2.587479150573075 1.8451872400271785 13 13 16
0.5518805364214638 3.3830162931198062 1.872252354593042 42 43 47
0.5963545127388825 3.5717908620823273 1.8797444382857322 69 69 70
0.7604195325855914 3.8755892604919495 1.89285844152971 122 121 119
1.3722894265035186 2.558756130844206 1.86492790109676 74 73 78
0.8174015114729932 2.497568283412553 1.855575748614399 32 33 37
0.7877039557868528 2.48538506905675 1.8547358528437017 35 36 41
0.755668730700676 2.4706129237686048 1.8537677518078288 40 41 45
0.7693176482874696 2.5036239706021206 1.855198019834593 47 48 51
0.7435904313323154 2.49532925018299 1.854556495212195 43 43 47
0.737204586023503 2.507348012591854 1.8549335505025342 31 30 35
0.5096033037729946 3.0558029021698463 1.8729471514451383 37 37 41
0.8084776654388877 2.487989789255609 1.8681260350180107 34 35 39
0.7801584731012872 2.4959276152594176 1.8680440716214657 45 46 47
0.784375936708902 2.51912510822873 1.8690118293375464 47 49 49
0.5387071466393987 3.3659077791103975 1.8987911724629043 48 47 52
0.7729732520856102 2.450792802205941 1.879121009411678 34 35 39
0.779597446691697 2.476327676891779 1.8802499941619812 32 33 36
0.7884335423344102 2.5042803860671023 1.8815098205964311 36 38 39
0.5173181349823623 3.3171703617713 1.9101686326496419 64 62 67
0.5269480803420767 3.3508340046922314 1.9116705700097525 63 61 66
0.5273752558903984 3.3730132598109828 1.9125707194390036 60 59 64
1.50974680286587 2.6114051048528513 1.9107526080951467 112 112 112
1.2369360078118867 2.579363107524188 1.9049698143475828 60 60 63
1.115803481179558 2.631285820227756 1.9051403648080476 37 38 42
0.7986934554226586 2.4772138605180976 1.8935826242966731 34 35 38
0.8056829181929329 2.503217394138619 1.8947731889411514 42 43 46
0.8095853069235225 2.5260994352835104 1.895784114301369 31 32 36
0.5168653704393631 3.359472519598035 1.925499068980054 66 64 69
0.7312717850231083 3.8366132999694584 1.9487522171935927 80 80 78
0.7538891332884086 3.9129404693744547 1.9522811634743737 129 129 127
1.2430033930601365 2.565896737164577 1.9181650459360002 48 49 51
1.219280582936272 2.5617333999655982 1.9175714852083772 65 66 68
1.165341960673611 2.62305635595695 1.9192300120310508 37 38 40
1.112241013509053 2.627365203036041 1.9184804986331543 37 38 42
0.8131952734992471 2.4732681965025973 1.906680167354908 35 35 40
0.8264672013143977 2.5057656083362505 1.9082942045721927 42 43 45
0.9956536292375711 3.1227829909514098 1.937485109883048 34 35 39
0.7293491166969592 3.833858811860406 1.9630243885015957 80 80 78
0.7511330105670138 3.9090774793751653 1.9666033147037383 117 117 115
1.2432616957650269 2.527841511269445 1.9301666592726994 40 41 45
1.2285121949290185 2.5514125340567086 1.9309170579525423 49 50 52
1.1661158428760023 2.60432279809617 1.9320511431281624 46 47 49
0.8162482465754411 2.438862122990808 1.9182637077427347 39 39 44
0.8296233366431676 2.471268430414205 1.919927759374986 59 58 64
0.8438544231198796 2.5047104884681 1.9216530485133196 40 40 44
0.9994943338585645 3.1060102371611027 1.9507907405799036 34 35 38
0.9938060608130992 3.1204183366891263 1.9513119595643216 35 36 40
0.9828971970048763 3.129004803117271 1.9514812903796426 33 34 38
0.7529701248329568 3.911237541271378 1.981261414041764 119 119 117
1.225386100616233 2.4538184479927367 1.9401167776161181 62 62 67
1.1890010232121893 2.437495148000141 1.938658824499469 45 46 51
1.2188531990115234 2.5038335728879293 1.9422213864313989 39 40 44
1.2134642801415303 2.5363865708209836 1.9435684390514487 55 56 58
0.8619794923775145 2.4669009130558246 1.9334264354995199 37 38 42
0.8480565753616365 2.471276104421289 1.9333432581155627 51 52 56
0.8569216786554403 2.4991350263617056 1.9347658642019627 31 30 35
0.8412884366256186 2.520550783498847 1.9354100639961078 24 25 27
0.8252902087889057 2.52274060963484 1.9351876674868045 18 19 21
0.8007233521552906 2.5159205971015046 1.934391046715834 16 17 19
0.8023986096704566 2.5365231666168833 1.9353454013120621 17 17 19
1.0005443879056992 3.10687606250233 1.9648036174988237 33 34 38
0.9923660248186561 3.118508845231915 1.9651598136137363 35 36 40
0.9886722952662486 3.135173251662038 1.9658306727434836 35 36 39
0.971690071007467 3.136945092121885 1.965569895984453 33 34 36
0.9486558406995274 3.1318367775203075 1.9648804600817003 31 32 34
0.7569550741161171 3.9162136307944477 1.9960999722961044 133 133 131
1.1619465062462737 2.411097279405462 1.9503276003001717 49 52 55
1.1391426322885119 2.4076416764475885 1.949684829766744 43 44 48
1.1034534185217948 2.3916041430511035 1.948192093248082 38 39 43
1.0843756145107142 2.391554767397554 1.9477844792374592 44 45 49
1.0681826576165523 2.601039448315438 1.9570337243991767 37 38 42
0.856195753464241 2.4606608260318046 1.9461009568710308 32 33 36
0.8454474827865855 2.4682834071354054 1.9462216588981236 29 30 32
0.8740039771899513 2.516455412906671 1.949034434752622 25 25 28
0.832042202547729 2.5294721924851644 1.9487389584726285 17 18 20
0.9824145103703497 3.1278631958727154 1.979337150210388 35 36 40
0.9637489708584215 3.1277219978028294 1.9789340907433235 34 35 38
0.9400229943637624 3.121806421838695 1.9781590740738912 32 33 37
0.7379042305448988 3.8675777949182777 2.008017013116778 110 110 108
