ply
format ascii 1.0
element vertex 877
property float x
property float y
property float z
property float nx
property float ny
property float nz
property uchar diffuse_red
property uchar diffuse_green
property uchar diffuse_blue
property uchar class
property uchar detection
end_header
0.5121 3.1979 0.3518 -0.957 0.254 0.141 43 43 45 0 0
0.8732 2.1603 0.4156 -0.101 -0.591 -0.800 48 48 50 0 0
0.5884 2.3196 0.4344 -0.078 -0.168 0.983 37 37 39 0 0
0.5184 3.2028 0.3633 -0.948 0.258 0.186 41 41 43 0 0
0.6462 3.5140 0.3205 -0.982 0.110 -0.152 41 41 43 0 0
0.6215 2.3241 0.4424 -0.569 0.148 0.809 34 34 35 0 0
0.5199 2.3941 0.4478 -0.490 -0.306 -0.816 30 30 32 0 0
0.3739 2.6622 0.4407 -0.944 -0.237 0.227 38 37 41 0 0
0.3537 2.7070 0.4390 -0.931 -0.140 0.338 17 17 19 0 0
0.6031 3.3878 0.3498 -0.881 -0.099 -0.463 14 14 16 0 0
0.6450 3.5137 0.3338 -0.987 -0.077 -0.144 38 37 42 0 0
0.3774 2.6649 0.4522 -0.833 -0.292 0.469 37 37 39 0 0
0.3612 2.7122 0.4498 -0.896 0.039 0.443 16 16 18 0 0
0.5961 3.3834 0.3639 -0.881 -0.099 -0.463 14 14 16 0 0
0.6429 3.5129 0.3472 -0.962 -0.173 -0.213 39 39 43 0 0
0.3766 2.4244 0.4855 -0.946 -0.076 0.315 19 19 21 0 0
0.3946 2.5051 0.4764 -0.919 0.366 0.145 30 27 30 0 0
0.3863 2.5143 0.4765 -0.970 0.244 -0.005 36 34 37 0 0
0.3968 2.5347 0.4736 -0.990 -0.106 0.092 48 48 50 0 0
0.3952 2.5479 0.4726 -0.922 -0.236 0.307 45 45 47 0 0
0.3919 2.5601 0.4719 -0.922 -0.236 0.307 33 33 35 0 0
0.3911 2.5738 0.4708 -0.921 -0.041 0.388 18 18 20 0 0
0.3711 2.7769 0.4552 -0.847 0.530 -0.034 15 15 17 0 0
0.4080 2.9182 0.4387 -0.735 0.340 0.587 15 15 17 0 0
0.5892 3.3791 0.3781 -0.881 -0.099 -0.463 14 14 16 0 0
0.6121 3.4272 0.3713 -0.448 -0.671 0.591 14 14 16 0 0
0.6415 3.5125 0.3605 -0.994 -0.081 -0.076 36 37 39 0 0
0.3975 2.5073 0.4879 -0.913 0.353 0.205 19 15 19 0 0
0.3863 2.5148 0.4885 -0.970 0.244 -0.005 16 13 16 0 0
0.3975 2.5498 0.4842 -0.954 -0.158 0.253 37 37 39 0 0
0.3952 2.5626 0.4834 -0.954 -0.158 0.253 33 33 35 0 0
0.3810 2.7983 0.4645 -0.243 -0.104 -0.965 16 16 18 0 0
0.6208 3.4340 0.3827 -0.427 -0.634 0.645 14 14 16 0 0
0.6000 3.4510 0.3836 -0.685 -0.439 0.581 24 24 26 0 0
0.6434 3.5145 0.3732 -0.991 0.094 0.097 34 36 35 0 0
0.3921 2.7477 0.4798 -0.735 0.676 -0.057 22 22 24 0 0
0.3721 2.8369 0.4743 -0.048 -0.848 -0.527 20 20 22 0 0
0.3561 2.8411 0.4757 0.059 -0.887 -0.458 20 20 22 0 0
0.5729 3.3687 0.4066 -0.762 -0.278 -0.584 14 14 16 0 0
0.5975 3.4021 0.4011 -0.751 -0.591 -0.294 13 13 15 0 0
0.5895 3.4123 0.4011 -0.751 -0.591 -0.294 13 13 15 0 0
0.6412 3.5135 0.3867 -0.992 0.125 0.012 33 34 34 0 0
0.4194 2.5072 0.5097 -0.930 -0.351 -0.112 14 14 16 0 0
0.4139 2.5180 0.5093 -0.819 -0.549 -0.165 15 15 17 0 0
0.4079 2.5286 0.5091 -0.708 -0.700 -0.088 15 15 17 0 0
0.3664 2.7609 0.4937 -0.834 0.500 -0.234 23 23 25 0 0
0.5529 3.2300 0.4336 -0.999 0.011 -0.036 35 35 37 0 0
0.3989 2.5095 0.5237 -0.747 -0.654 0.124 15 15 17 0 0
0.3922 2.5197 0.5236 -0.883 -0.463 0.082 15 15 17 0 0
0.3674 2.7330 0.5081 -0.770 0.515 0.377 30 30 32 0 0
0.5327 3.2632 0.4457 -0.666 -0.709 -0.234 31 31 33 0 0
0.5366 3.2815 0.4437 -0.949 -0.249 -0.192 21 21 23 0 0
0.5360 3.2967 0.4425 -1.000 -0.027 -0.009 14 14 16 0 0
0.6496 3.4725 0.4155 -0.955 0.198 0.222 14 14 16 0 0
0.6242 3.4703 0.4184 -0.838 -0.227 0.496 16 16 18 0 0
0.8541 2.1963 0.5144 0.160 -0.986 0.043 50 50 50 0 0
0.4002 2.7980 0.5114 -0.636 0.399 0.660 32 32 34 0 0
0.6262 3.2348 0.4511 -0.656 -0.135 -0.743 30 30 32 0 0
0.5796 3.2340 0.4560 -0.494 -0.799 -0.344 32 32 34 0 0
0.5775 3.2482 0.4550 -0.465 -0.789 -0.402 35 35 37 0 0
0.5354 3.2501 0.4593 -0.569 -0.743 0.353 38 38 40 0 0
0.5325 3.2636 0.4584 -0.631 -0.612 0.478 30 30 32 0 0
0.6501 3.4574 0.4299 -0.916 0.370 0.155 13 13 15 0 0
0.6334 3.5582 0.4231 -0.956 0.276 0.096 45 43 47 0 0
0.4481 2.2875 0.5612 -0.844 -0.437 0.311 19 19 21 0 0
0.4363 2.2948 0.5618 -0.594 -0.793 0.133 19 19 21 0 0
0.4119 2.5041 0.5469 -0.879 -0.474 0.053 35 33 36 0 0
0.5725 3.1677 0.4751 -0.612 0.150 -0.776 33 33 35 0 0
0.5768 3.2483 0.4679 -0.333 -0.833 -0.441 34 34 36 0 0
0.8843 2.1841 0.5373 -0.286 -0.797 -0.532 47 47 47 0 0
0.4586 2.2938 0.5716 -0.592 -0.624 0.510 19 19 21 0 0
0.4080 2.5447 0.5561 -0.808 -0.587 0.045 41 41 43 0 0
0.3880 2.6037 0.5532 -0.770 -0.187 -0.610 13 13 15 0 0
0.4141 2.7496 0.5385 -0.718 0.678 -0.156 38 38 40 0 0
0.5711 3.2293 0.4829 -0.579 -0.626 -0.522 30 30 32 0 0
0.5687 3.2432 0.4820 -0.330 -0.861 -0.387 33 33 35 0 0
0.6265 3.5059 0.4545 -0.517 -0.674 0.528 23 23 25 0 0
0.6104 3.5264 0.4544 -0.969 0.234 0.083 36 34 39 0 0
0.6308 3.5575 0.4498 -0.978 -0.167 0.124 42 39 42 0 0
0.8781 2.1814 0.5507 -0.318 -0.854 -0.412 49 49 49 0 0
0.8312 2.1717 0.5562 -0.111 -0.962 -0.248 51 51 51 0 0
0.4337 2.4474 0.5735 -0.796 -0.444 0.411 29 29 31 0 0
0.4064 2.5442 0.5684 -0.983 -0.152 -0.098 40 40 42 0 0
0.3797 2.5991 0.5666 -0.603 -0.795 -0.073 14 14 16 0 0
0.4073 2.7458 0.5518 -0.724 0.680 -0.113 40 40 42 0 0
0.6448 3.5846 0.4593 -0.952 0.299 -0.068 45 45 50 0 0
0.8696 2.1775 0.5644 -0.115 -0.926 -0.359 50 50 50 0 0
0.3765 2.5977 0.5791 -0.615 -0.772 -0.162 29 29 31 0 0
0.3738 2.6103 0.5783 -0.814 -0.411 0.410 44 44 46 0 0
0.3591 2.6155 0.5794 -0.843 -0.534 -0.067 55 55 57 0 0
0.4210 2.7113 0.5655 -0.946 0.223 0.234 45 45 47 0 0
0.6489 3.5072 0.4784 -0.890 0.165 0.425 16 16 18 0 0
0.6696 3.6035 0.4685 -0.856 -0.130 0.501 43 44 49 0 0
0.4134 2.5351 0.5926 -0.965 -0.234 -0.119 26 24 27 0 0
0.4074 2.5458 0.5923 -0.957 -0.279 -0.073 24 22 25 0 0
0.4096 2.5613 0.5909 -0.877 -0.476 -0.059 21 19 22 0 0
0.4038 2.5720 0.5906 -0.877 -0.476 -0.059 17 15 18 0 0
0.4330 2.7339 0.5747 -0.845 -0.030 0.534 44 44 46 0 0
0.5439 3.2278 0.5242 -0.914 -0.343 0.216 31 31 33 0 0
0.6759 3.6088 0.4807 -0.856 -0.130 0.501 41 41 46 0 0
0.7372 3.7201 0.4658 -0.711 0.665 -0.229 72 72 73 0 0
0.4440 2.4407 0.6093 -0.658 -0.551 -0.514 35 35 37 0 0
0.4360 2.4501 0.6093 -0.681 -0.646 -0.346 30 30 32 0 0
0.4388 2.7526 0.5850 -0.854 -0.023 0.520 44 44 46 0 0
0.4344 2.7644 0.5844 -0.869 -0.022 0.494 43 42 47 0 0
0.4984 2.8492 0.5715 -0.829 0.548 -0.113 42 41 46 0 0
0.4908 2.9786 0.5620 -0.696 -0.276 0.663 42 42 44 0 0
0.5342 3.2372 0.5372 -0.977 -0.212 0.031 36 36 38 0 0
0.6819 3.6138 0.4930 -0.860 -0.280 0.428 39 39 44 0 0
0.4601 2.4646 0.6180 -0.646 -0.468 0.603 36 36 38 0 0
0.3823 2.5034 0.6223 -0.999 -0.035 0.018 23 21 24 0 0
0.4105 2.5344 0.6172 -0.965 -0.234 -0.119 21 19 22 0 0
0.4399 2.7101 0.6005 -0.965 0.184 0.184 49 49 51 0 0
0.4356 2.7803 0.5954 -0.827 0.215 0.520 44 43 48 0 0
0.5361 3.2391 0.5497 -0.955 -0.215 0.207 35 35 37 0 0
0.6788 3.6122 0.5067 -0.533 -0.635 0.559 39 37 43 0 0
0.6618 3.6160 0.5080 -0.967 0.231 -0.107 46 45 50 0 0
0.7678 3.7608 0.4866 -0.710 0.654 -0.261 92 91 88 0 0
1.0477 2.0828 0.6053 0.190 -0.872 -0.452 142 141 139 0 0
0.3827 2.5041 0.6342 -0.829 -0.431 -0.356 35 34 36 0 0
0.4584 2.7221 0.6101 -0.782 0.158 0.603 51 50 53 0 0
0.4539 2.7924 0.6050 -0.833 0.412 0.369 44 43 48 0 0
0.5373 3.2405 0.5622 -0.966 -0.228 0.121 34 34 36 0 0
0.7476 3.7464 0.5031 -0.705 0.675 -0.217 90 89 85 0 0
1.0161 2.0680 0.6220 0.156 -0.861 -0.485 102 100 100 0 0
0.9577 2.1671 0.6197 -0.078 -0.719 -0.691 46 46 46 0 0
0.9374 2.1712 0.6212 -0.228 -0.669 -0.708 49 49 49 0 0
0.8196 2.1402 0.6344 -0.755 -0.643 -0.128 56 56 56 0 0
0.3996 2.3744 0.6548 -0.429 -0.772 0.469 37 37 39 0 0
0.5994 3.0366 0.5851 -0.201 -0.979 0.045 40 40 42 0 0
0.6264 3.2558 0.5657 -0.983 -0.182 0.015 29 29 31 0 0
0.5783 3.2383 0.5714 -0.593 -0.799 -0.097 30 30 32 0 0
0.5413 3.2283 0.5756 -0.970 -0.117 -0.213 32 32 34 0 0
0.5375 3.2412 0.5750 -0.955 -0.229 -0.191 33 33 35 0 0
0.6832 3.6331 0.5312 -0.434 -0.711 0.554 45 45 47 0 0
0.8045 3.8064 0.5067 -0.705 0.688 -0.172 84 83 79 0 0
0.9310 3.9529 0.4837 -0.797 0.586 -0.148 163 163 161 0 0
0.8765 2.1411 0.6417 -0.328 -0.912 -0.247 50 50 51 0 0
0.8219 2.1277 0.6476 -0.839 -0.482 -0.251 55 55 55 0 0
0.7875 2.1383 0.6499 -0.376 -0.913 0.160 59 59 59 0 0
0.4032 2.3769 0.6663 -0.597 -0.802 -0.039 38 38 40 0 0
0.3932 2.3851 0.6665 -0.768 -0.597 -0.232 39 38 43 0 0
0.4819 2.7232 0.6326 -0.645 0.074 0.761 49 48 53 0 0
0.5712 3.0034 0.6030 -0.213 -0.623 -0.753 40 40 42 0 0
0.5389 3.2272 0.5887 -0.993 -0.115 -0.007 32 32 34 0 0
0.5302 3.2367 0.5888 -0.882 -0.345 -0.322 34 34 36 0 0
0.7930 3.7985 0.5219 -0.705 0.688 -0.172 78 77 73 0 0
0.4427 2.3443 0.6772 -0.918 -0.396 0.032 34 34 36 0 0
0.4497 2.3622 0.6752 -0.837 -0.393 0.381 35 35 37 0 0
0.4499 2.3763 0.6741 -0.712 -0.535 0.454 36 36 38 0 0
0.7143 3.7235 0.5482 -0.707 0.667 -0.234 78 74 71 0 0
0.8895 2.1343 0.6661 -0.068 -0.991 -0.118 52 52 52 0 0
0.4422 2.3862 0.6861 -0.720 -0.491 0.491 40 39 44 0 0
0.4877 2.6986 0.6586 -0.961 -0.088 0.261 47 46 51 0 0
0.7842 2.1658 0.6853 0.058 -0.987 -0.153 48 47 52 0 0
0.4394 2.4694 0.6922 -0.859 -0.251 -0.446 42 41 46 0 0
0.4539 2.4920 0.6893 -0.713 -0.664 0.226 42 41 46 0 0
0.4813 2.6952 0.6718 -0.751 -0.380 -0.540 45 44 49 0 0
0.5464 3.1259 0.6340 -0.767 0.641 -0.036 30 30 32 0 0
0.5833 3.1818 0.6267 -0.715 0.384 -0.584 28 28 30 0 0
0.9097 3.9567 0.5409 -0.791 0.544 -0.280 168 168 166 0 0
0.5194 2.6029 0.6877 -0.944 -0.114 0.310 48 47 52 0 0
0.4593 2.6966 0.6859 -0.542 -0.727 0.421 43 42 47 0 0
0.5496 3.1440 0.6452 -0.802 0.433 -0.411 27 27 29 0 0
0.5959 3.2377 0.6344 -0.855 -0.169 0.490 28 28 30 0 0
0.8993 3.9495 0.5561 -0.791 0.544 -0.280 170 168 166 0 0
0.5202 2.6327 0.6978 -0.948 -0.143 0.285 48 47 52 0 0
0.5901 3.0337 0.6627 -0.933 -0.356 -0.045 33 33 35 0 0
0.5307 3.0553 0.6660 -0.438 -0.768 0.468 28 28 30 0 0
0.5288 3.1305 0.6607 -0.716 0.282 -0.638 27 27 29 0 0
1.0966 2.0239 0.7073 0.022 -0.690 -0.723 167 167 167 0 0
1.0003 2.0068 0.7164 0.069 -0.753 -0.654 115 115 115 0 0
0.9577 2.0006 0.7203 0.050 -0.760 -0.648 78 78 78 0 0
0.7074 2.2115 0.7254 -0.518 0.481 0.707 20 20 22 0 0
0.4481 2.4758 0.7274 -0.982 0.004 0.188 46 45 50 0 0
0.5474 2.5916 0.7109 -0.970 0.002 -0.245 47 46 51 0 0
0.5431 2.6180 0.7094 -0.895 -0.069 -0.441 48 47 52 0 0
0.4944 2.6901 0.7081 -0.837 0.504 0.212 40 40 44 0 0
0.6070 3.1997 0.6620 -0.811 0.530 0.248 26 26 28 0 0
0.5915 3.3142 0.6550 -0.996 -0.078 0.034 22 22 24 0 0
0.6007 3.3839 0.6492 -0.766 0.062 0.639 14 14 16 0 0
1.0534 2.0040 0.7249 0.022 -0.690 -0.723 166 166 166 0 0
1.0092 1.9973 0.7289 0.002 -0.712 -0.702 129 129 129 0 0
0.9669 1.9913 0.7328 0.009 -0.707 -0.707 87 87 87 0 0
0.5270 2.6233 0.7227 -0.928 -0.373 -0.001 45 44 49 0 0
0.5263 2.6519 0.7207 -0.647 -0.117 0.753 42 41 46 0 0
0.5603 2.7018 0.7144 -0.705 0.373 0.603 39 39 41 0 0
0.5387 2.9106 0.7011 -0.499 -0.809 -0.311 33 33 35 0 0
0.6079 3.2320 0.6725 -0.886 -0.438 -0.153 29 29 31 0 0
1.0551 1.9911 0.7384 0.024 -0.644 -0.765 166 166 166 0 0
1.0107 1.9844 0.7424 0.022 -0.690 -0.723 139 139 139 0 0
0.7304 2.1963 0.7494 -0.521 0.465 0.716 23 23 23 0 0
0.4987 2.3092 0.7596 -0.585 0.811 -0.010 27 27 29 0 0
0.5086 2.6999 0.7310 -0.815 0.447 0.368 37 37 39 0 0
0.5324 2.9070 0.7144 -0.878 0.106 0.466 32 32 34 0 0
0.5311 2.9212 0.7135 -0.917 0.171 0.360 31 31 33 0 0
0.4890 3.0747 0.7060 -0.831 0.530 -0.167 21 21 23 0 0
1.0034 1.9673 0.7567 0.024 -0.644 -0.765 136 136 136 0 0
0.9607 1.9613 0.7604 0.024 -0.644 -0.765 96 95 96 0 0
0.6045 1.9812 0.7865 -0.484 0.580 -0.656 56 56 56 0 0
0.7696 2.1889 0.7592 -0.020 -0.661 0.751 31 31 33 0 0
0.5489 2.9032 0.7260 -0.466 -0.441 0.767 30 30 32 0 0
0.5401 2.9125 0.7261 -0.851 -0.417 0.319 30 30 32 0 0
0.5231 2.9165 0.7271 -0.434 -0.897 -0.085 29 29 31 0 0
0.5562 2.9530 0.7220 -0.974 -0.129 0.188 26 26 28 0 0
1.0278 1.9511 0.7686 -0.232 -0.503 -0.832 162 162 162 0 0
0.4643 2.2219 0.7924 -0.682 0.723 0.112 13 13 15 0 0
0.5046 2.5537 0.7663 -0.957 -0.263 -0.122 38 37 42 0 0
0.5723 2.8140 0.7431 -0.940 0.297 -0.169 31 31 33 0 0
0.5494 2.9040 0.7385 -0.721 -0.115 0.684 28 28 30 0 0
0.5563 2.9536 0.7346 -0.921 -0.309 0.237 23 23 25 0 0
0.5600 3.0318 0.7288 -0.707 0.460 0.536 18 18 20 0 0
1.0160 1.9320 0.7834 -0.232 -0.503 -0.832 157 157 157 0 0
0.9995 1.9384 0.7842 -0.232 -0.503 -0.832 120 120 120 0 0
0.5584 2.9555 0.7469 -0.957 -0.254 0.142 16 16 18 0 0
0.9249 1.8766 0.8064 -0.932 0.205 0.300 145 144 145 0 0
0.9352 1.8951 0.8044 -0.902 0.419 -0.100 106 106 106 0 0
0.9300 1.9065 0.8040 -0.662 0.080 -0.745 82 82 82 0 0
0.5887 2.5466 0.7852 -0.191 -0.979 -0.066 35 34 39 0 0
0.5625 2.5457 0.7872 -0.268 -0.931 0.249 35 34 38 0 0
0.5274 2.8760 0.7673 -0.940 0.309 0.143 24 24 26 0 0
0.5621 3.0801 0.7508 -0.215 -0.450 0.867 16 16 18 0 0
0.6335 3.3472 0.7274 -0.852 0.431 0.297 15 15 17 0 0
0.7109 3.6783 0.6993 -0.863 -0.038 0.504 40 40 43 0 0
0.9274 1.8644 0.8195 -0.819 0.265 0.508 127 127 129 0 0
0.9252 1.8771 0.8188 -0.900 0.282 0.333 96 94 95 0 0
0.9104 1.8840 0.8193 -0.457 -0.144 -0.878 76 74 75 0 0
0.9101 1.8977 0.8184 -0.467 -0.125 -0.876 71 69 70 0 0
0.6242 3.3571 0.7405 -0.915 -0.110 -0.388 15 15 17 0 0
0.6158 3.3670 0.7404 -0.903 0.326 -0.278 14 14 16 0 0
0.7111 3.6791 0.7126 -0.989 0.029 -0.146 39 38 43 0 0
0.7256 3.7564 0.7063 -0.859 0.510 -0.052 55 53 56 0 0
0.7825 1.9477 0.8364 -0.085 -0.679 -0.729 62 60 65 0 0
0.6002 3.1996 0.7657 -0.967 -0.233 -0.102 35 35 39 0 0
0.5950 3.2272 0.7642 -0.983 -0.036 -0.181 37 37 42 0 0
0.6333 3.3482 0.7535 -0.802 -0.058 -0.594 16 16 18 0 0
0.6287 3.3768 0.7519 -0.861 0.442 -0.251 15 15 17 0 0
0.7216 3.6710 0.7258 -0.420 -0.901 0.112 37 37 39 0 0
0.7193 3.6859 0.7250 -0.899 -0.098 -0.427 38 38 42 0 0
0.7140 3.6985 0.7245 -0.914 0.164 -0.370 39 38 43 0 0
0.7322 3.7620 0.7190 -0.875 0.463 -0.140 54 52 55 0 0
0.9316 1.8533 0.8447 -0.071 -0.597 -0.799 79 79 81 0 0
0.4279 2.2866 0.8506 -0.568 0.662 0.488 26 26 28 0 0
0.5191 2.4079 0.8364 -0.679 0.313 -0.664 30 30 32 0 0
0.5785 2.7759 0.8080 -0.991 0.115 -0.069 24 24 26 0 0
0.6039 3.2026 0.7782 -0.772 -0.604 -0.196 40 41 44 0 0
0.5956 3.2126 0.7781 -0.965 -0.130 -0.228 38 39 43 0 0
0.6312 3.3473 0.7668 -0.782 -0.096 -0.616 16 16 18 0 0
0.7262 3.6750 0.7386 -0.644 -0.716 0.269 36 36 38 0 0
0.7086 3.6786 0.7396 -0.923 0.037 -0.382 37 36 40 0 0
0.7291 3.7604 0.7328 -0.875 0.463 -0.140 63 61 64 0 0
1.0610 1.8430 0.8491 0.057 -0.704 -0.708 166 166 168 0 0
1.0248 1.8407 0.8517 0.031 -0.677 -0.735 149 149 151 0 0
0.5035 2.4844 0.8447 -0.841 0.184 -0.508 24 24 26 0 0
0.5826 2.5449 0.8354 -0.965 -0.186 0.187 24 24 26 0 0
0.5710 2.7275 0.8243 -0.890 0.118 -0.441 25 25 27 0 0
0.5687 3.0867 0.8010 -0.908 -0.417 -0.035 17 17 19 0 0
0.5633 3.0985 0.8006 -0.908 -0.417 -0.035 20 20 22 0 0
0.6032 3.1872 0.7921 -0.922 -0.380 -0.078 40 40 42 0 0
0.6014 3.2015 0.7913 -0.749 -0.635 -0.192 40 41 43 0 0
1.1118 1.8382 0.8587 0.062 -0.721 -0.690 165 165 167 0 0
1.0611 1.8296 0.8626 0.042 -0.742 -0.669 162 162 164 0 0
0.4993 2.3834 0.8637 -0.843 0.501 -0.194 26 26 28 0 0
0.5838 2.6040 0.8439 -0.964 0.209 -0.163 22 22 24 0 0
0.5691 2.7268 0.8370 -0.832 0.238 -0.501 24 24 26 0 0
0.5725 3.1052 0.8123 -0.982 -0.149 -0.114 20 20 22 0 0
0.5929 3.1653 0.8071 -0.955 0.217 0.203 39 39 41 0 0
0.5987 3.1847 0.8055 -0.950 -0.242 0.198 42 42 44 0 0
0.5964 3.1987 0.8048 -0.868 -0.256 0.427 38 39 41 0 0
0.7334 3.6651 0.7657 -0.976 -0.103 0.193 34 34 36 0 0
0.6861 3.6631 0.7689 -0.961 0.019 -0.275 36 36 38 0 0
1.1135 1.8254 0.8721 0.070 -0.773 -0.631 166 166 166 0 0
0.9420 1.8043 0.8844 0.032 -0.716 -0.698 82 82 84 0 0
0.8297 1.8079 0.8914 -0.140 -0.680 -0.719 42 40 45 0 0
0.8132 1.8139 0.8921 -0.174 -0.579 -0.796 43 40 46 0 0
0.5731 2.7741 0.8462 -0.796 0.120 -0.594 20 20 22 0 0
0.5752 2.7902 0.8451 -0.827 0.109 -0.551 20 20 22 0 0
0.5102 2.7645 0.8509 -0.581 0.268 0.769 21 21 23 0 0
0.5409 2.9629 0.8363 -0.503 0.196 0.842 15 15 17 0 0
0.5736 3.0757 0.8270 -0.850 -0.505 0.151 21 21 23 0 0
0.5742 3.0915 0.8259 -0.992 -0.092 -0.091 17 17 19 0 0
0.5727 3.1058 0.8251 -0.987 -0.066 -0.144 23 23 25 0 0
0.8272 1.8071 0.9038 -0.191 -0.822 -0.537 40 38 43 0 0
0.5502 2.3145 0.8892 -0.596 0.534 0.599 18 18 20 0 0
0.4932 2.3528 0.8904 -0.892 -0.039 -0.449 20 20 22 0 0
0.5186 2.3953 0.8861 -0.753 0.644 -0.137 21 21 23 0 0
0.5372 2.4911 0.8789 -0.852 -0.126 0.508 20 20 22 0 0
0.5948 2.5969 0.8686 -0.952 0.200 -0.232 17 17 19 0 0
0.5788 2.6020 0.8693 -0.908 0.417 -0.032 17 17 19 0 0
0.5897 2.6230 0.8673 -0.924 0.182 0.335 17 17 19 0 0
0.6241 2.7467 0.8573 -0.834 -0.158 0.529 20 20 22 0 0
0.5528 2.7620 0.8608 -0.811 -0.141 -0.568 18 18 20 0 0
0.5584 2.7803 0.8593 -0.905 0.116 -0.408 19 19 21 0 0
0.5497 2.7896 0.8593 -0.968 -0.247 0.055 20 20 22 0 0
0.5749 3.0772 0.8396 -0.850 -0.505 0.151 15 15 17 0 0
0.5730 3.0913 0.8388 -0.992 -0.092 -0.091 18 18 21 0 0
0.5829 3.1132 0.8368 -0.987 0.149 0.062 25 25 28 0 0
0.6389 3.4510 0.8120 -0.724 0.325 -0.608 11 11 13 0 0
0.7435 3.6738 0.7914 -0.850 -0.443 -0.284 35 35 37 0 0
1.0008 1.7901 0.9065 0.045 -0.849 -0.527 78 78 80 0 0
0.5283 2.3168 0.9026 -0.597 0.661 0.455 19 19 21 0 0
0.4860 2.3492 0.9032 -0.889 0.053 -0.456 20 20 22 0 0
0.5503 2.5279 0.8881 -0.824 -0.326 0.463 19 19 21 0 0
0.5785 2.6023 0.8817 -0.908 0.417 -0.032 16 16 18 0 0
0.5824 3.0827 0.8516 -0.836 -0.414 0.360 17 17 18 0 0
0.6091 3.1624 0.8450 -0.973 0.120 0.197 39 38 43 0 0
0.5888 3.3048 0.8373 -0.501 -0.819 -0.279 17 17 19 0 0
0.5876 3.3197 0.8365 -0.843 0.459 0.279 15 15 17 0 0
0.7297 3.6975 0.8042 -0.665 -0.705 0.246 43 43 47 0 0
1.1101 1.7972 0.9120 0.102 -0.872 -0.480 164 164 166 0 0
0.9086 1.8177 0.9228 -0.418 -0.719 0.555 40 40 43 0 0
0.5547 2.2899 0.9149 -0.618 0.497 0.609 14 14 16 0 0
0.5753 2.3575 0.9095 -0.660 0.747 -0.082 17 17 19 0 0
0.4863 2.3498 0.9153 -0.846 0.317 -0.429 18 18 20 0 0
0.5667 2.4948 0.9015 -0.519 -0.053 0.853 18 18 20 0 0
0.5313 2.5172 0.9023 -0.938 -0.346 0.011 17 17 19 0 0
0.5304 2.5310 0.9015 -0.991 -0.058 -0.121 16 16 18 0 0
0.5753 2.6009 0.8945 -0.865 0.320 0.387 14 14 16 0 0
0.6484 2.8673 0.8737 -0.249 -0.902 0.352 15 15 17 0 0
0.6441 3.2492 0.8504 -0.998 0.062 -0.027 22 22 26 0 0
0.7476 3.6947 0.8168 -0.994 -0.032 -0.102 38 38 40 0 0
0.7186 3.7065 0.8178 -0.817 0.348 -0.459 42 41 46 0 0
0.7358 3.7526 0.8139 -0.878 0.319 -0.356 43 42 47 0 0
1.0944 1.7768 0.9268 -0.272 -0.923 -0.273 167 167 169 0 0
0.5673 2.3393 0.9233 -0.673 0.729 0.123 16 16 18 0 0
0.6757 2.7499 0.8920 -0.563 -0.637 -0.527 14 14 16 0 0
0.6560 2.7676 0.8921 -0.324 -0.672 0.665 14 14 16 0 0
0.5913 2.7873 0.8946 -0.143 -0.531 -0.835 14 14 16 0 0
0.6406 2.8630 0.8872 -0.405 -0.245 -0.881 14 14 16 0 0
0.6247 3.0811 0.8748 -0.725 -0.601 -0.336 18 18 20 0 0
0.6160 3.0907 0.8747 -0.703 -0.689 -0.176 23 23 25 0 0
0.6068 3.1001 0.8747 -0.703 -0.689 -0.176 33 32 37 0 0
0.6000 3.1109 0.8744 -0.795 -0.536 -0.285 44 44 45 0 0
0.6404 3.5346 0.8463 -0.855 0.359 -0.375 17 15 18 0 0
0.7273 3.7136 0.8303 -0.790 0.294 -0.537 40 39 44 0 0
1.1578 1.7908 0.9350 0.078 -0.949 -0.305 166 166 168 0 0
0.6073 1.9609 0.9561 -0.967 0.239 -0.086 55 55 57 0 0
0.5388 2.5513 0.9244 -0.909 0.109 0.403 14 14 16 0 0
0.5906 2.9980 0.8946 -0.995 0.078 0.066 13 14 16 0 0
0.5929 3.0148 0.8935 -0.998 -0.059 0.034 15 15 17 0 0
0.6205 3.0789 0.8881 -0.725 -0.601 -0.336 26 25 28 0 0
0.6123 3.0888 0.8879 -0.725 -0.601 -0.336 35 34 37 0 0
0.6039 3.0987 0.8878 -0.787 -0.559 -0.261 45 45 48 0 0
0.5983 3.1104 0.8874 -0.860 -0.423 -0.284 48 48 50 0 0
0.6636 3.2479 0.8755 -0.982 0.082 0.168 21 21 24 0 0
0.6647 3.2645 0.8744 -0.982 0.082 0.168 19 19 21 0 0
0.6739 3.2866 0.8725 -0.954 0.144 0.262 19 19 21 0 0
0.6564 3.6286 0.8530 -0.979 0.190 -0.069 38 38 40 0 0
0.7243 3.7286 0.8431 -0.790 0.294 -0.537 39 39 42 0 0
1.1582 1.7913 0.9477 0.154 -0.973 -0.169 166 166 168 0 0
0.7297 1.8854 0.9658 -0.212 -0.949 -0.232 95 92 87 0 0
0.6022 1.9588 0.9685 -0.831 0.510 0.222 41 40 43 0 0
0.6073 2.9790 0.9076 -0.950 -0.202 -0.239 14 14 16 0 0
0.6046 2.9924 0.9070 -0.950 -0.202 -0.239 13 14 16 0 0
0.6021 3.0060 0.9063 -0.852 -0.358 -0.382 15 15 17 0 0
0.5933 3.0156 0.9062 -0.998 -0.059 0.034 17 15 18 0 0
0.6190 3.0631 0.9020 -0.734 -0.581 -0.353 27 25 28 0 0
0.6162 3.0766 0.9013 -0.725 -0.601 -0.336 36 34 37 0 0
0.6080 3.0866 0.9012 -0.725 -0.601 -0.336 45 43 46 0 0
0.6007 3.0971 0.9009 -0.815 -0.517 -0.261 46 46 48 0 0
0.5948 3.1086 0.9006 -0.860 -0.423 -0.284 39 39 41 0 0
0.6478 3.2064 0.8918 -0.995 0.031 -0.096 23 23 25 0 0
0.6540 3.2420 0.8894 -0.984 0.002 -0.176 20 20 22 0 0
0.6584 3.2607 0.8880 -0.936 0.193 -0.295 18 18 20 0 0
0.6687 3.2836 0.8861 -0.928 0.310 -0.208 20 20 22 0 0
0.6147 3.5010 0.8762 -0.891 0.416 -0.180 17 17 19 0 0
0.6740 3.6917 0.8616 -0.809 0.576 -0.118 38 38 40 0 0
0.9287 4.0204 0.8279 -0.798 0.547 -0.252 169 169 167 0 0
0.7481 1.8674 0.9780 -0.111 -0.993 -0.034 72 71 72 0 0
0.7386 1.8764 0.9780 -0.149 -0.907 -0.395 90 89 87 0 0
0.6223 1.9691 0.9789 -0.808 0.531 0.255 35 35 38 0 0
0.5254 2.5157 0.9520 -0.097 -0.991 0.093 15 15 17 0 0
0.5970 2.9728 0.9213 -0.747 -0.228 -0.624 14 14 16 0 0
0.5974 2.9883 0.9204 -0.881 -0.140 -0.451 15 14 16 0 0
0.5946 3.0017 0.9197 -0.998 -0.059 0.034 18 16 19 0 0
0.5937 3.0163 0.9189 -0.998 -0.059 0.034 22 19 22 0 0
0.6252 3.0523 0.9151 -0.806 -0.517 -0.288 31 28 31 0 0
0.6159 3.0616 0.9151 -0.838 -0.472 -0.274 39 37 40 0 0
0.6120 3.0743 0.9145 -0.801 -0.530 -0.277 46 44 47 0 0
0.6049 3.0851 0.9143 -0.801 -0.530 -0.277 49 47 50 0 0
0.5979 3.0958 0.9140 -0.801 -0.530 -0.277 39 39 42 0 0
0.5914 3.1068 0.9137 -0.860 -0.423 -0.284 40 40 43 0 0
0.6510 3.2405 0.9027 -0.992 -0.128 -0.015 18 18 20 0 0
0.6511 3.2563 0.9017 -0.982 0.174 -0.066 17 17 19 0 0
0.9337 4.0249 0.8414 -0.793 0.591 -0.150 169 168 166 0 0
0.7464 1.8534 0.9911 -0.326 -0.824 -0.463 62 62 64 0 0
0.7420 1.8649 0.9907 -0.148 -0.974 -0.172 68 67 70 0 0
0.6061 1.9615 0.9922 -0.849 0.250 -0.466 31 32 36 0 0
0.5921 2.5551 0.9585 -0.951 0.299 0.082 14 14 16 0 0
0.6166 2.9253 0.9358 -0.830 -0.555 0.048 14 14 16 0 0
0.5825 2.9639 0.9353 -0.962 -0.113 -0.247 15 15 17 0 0
0.5855 2.9811 0.9342 -0.986 0.142 0.084 16 13 16 0 0
0.6266 3.0384 0.9287 -0.855 -0.375 -0.357 33 29 32 0 0
0.6215 3.0504 0.9283 -0.904 -0.361 -0.230 43 39 43 0 0
0.6146 3.0613 0.9280 -0.889 -0.395 -0.234 48 46 49 0 0
0.6098 3.0735 0.9276 -0.829 -0.476 -0.294 49 47 50 0 0
0.5955 3.0947 0.9271 -0.829 -0.520 -0.206 40 39 43 0 0
0.5888 3.1056 0.9268 -0.829 -0.520 -0.206 35 34 39 0 0
0.6520 3.1947 0.9183 -0.867 -0.093 0.489 19 19 21 0 0
0.6588 3.2464 0.9150 -0.988 -0.094 0.120 18 18 20 0 0
0.6600 3.2630 0.9139 -0.993 0.099 0.066 18 18 20 0 0
0.6585 3.3252 0.9104 -0.782 -0.273 -0.560 17 17 19 0 0
0.5885 3.2923 0.9160 -0.258 -0.891 0.373 17 17 19 0 0
0.8956 3.9791 0.8601 -0.790 0.613 0.023 164 163 161 0 0
1.0800 1.7723 0.9909 0.231 -0.972 -0.046 140 138 140 0 0
0.7375 1.8496 1.0040 -0.193 -0.820 -0.539 54 53 57 0 0
0.7176 1.8537 1.0048 -0.193 -0.820 -0.539 57 56 60 0 0
0.6527 1.9036 1.0052 -0.239 -0.272 -0.932 45 44 49 0 0
0.5818 2.5351 0.9727 -0.945 0.285 0.161 14 14 16 0 0
0.6092 2.9211 0.9492 -0.843 -0.359 -0.401 14 14 16 0 0
0.6165 3.0323 0.9424 -0.960 -0.125 -0.252 43 43 45 0 0
0.6187 3.0491 0.9414 -0.904 -0.361 -0.230 50 50 52 0 0
0.6118 3.0599 0.9411 -0.889 -0.395 -0.234 51 51 53 0 0
0.6062 3.0716 0.9407 -0.829 -0.476 -0.294 42 42 44 0 0
0.5999 3.0828 0.9404 -0.829 -0.476 -0.294 42 42 44 0 0
0.5930 3.0936 0.9401 -0.829 -0.520 -0.206 35 35 37 0 0
0.5863 3.1045 0.9398 -0.852 -0.515 0.093 24 24 26 0 0
0.6567 3.1984 0.9309 -0.849 -0.070 0.524 20 20 22 0 0
0.6735 3.2570 0.9267 -0.989 -0.033 0.144 18 18 20 0 0
0.6595 3.3107 0.9243 -0.900 -0.429 0.080 20 20 22 0 0
0.6544 3.3230 0.9239 -0.930 -0.354 -0.097 16 16 18 0 0
0.6189 3.5221 0.9143 -0.819 0.525 -0.230 21 21 23 0 0
0.7861 1.8456 1.0140 -0.807 -0.588 0.048 37 36 41 0 0
0.7009 1.8597 1.0174 -0.525 -0.625 -0.577 44 43 50 0 0
0.6498 1.9161 1.0167 -0.937 0.316 -0.146 35 35 35 0 0
0.6694 1.9392 1.0144 -0.508 -0.238 0.828 30 30 30 0 0
0.5957 2.8679 0.9656 -0.748 0.119 0.653 14 14 16 0 0
0.5886 2.8784 0.9654 -0.676 -0.207 0.708 14 14 16 0 0
0.6031 2.9026 0.9633 -0.834 -0.220 -0.506 14 14 16 0 0
0.5864 2.9372 0.9621 -0.859 -0.194 -0.474 16 14 17 0 0
0.6201 3.0046 0.9567 -0.983 -0.143 -0.117 40 38 41 0 0
0.6181 3.0187 0.9560 -0.983 -0.143 -0.117 48 47 50 0 0
0.6162 3.0327 0.9553 -0.983 -0.143 -0.117 53 53 55 0 0
0.6131 3.0460 0.9547 -0.970 -0.207 -0.131 50 51 54 0 0
0.6111 3.0600 0.9540 -0.904 -0.361 -0.230 39 38 42 0 0
0.6037 3.0705 0.9537 -0.941 -0.324 -0.092 41 40 44 0 0
0.5978 3.0820 0.9534 -0.820 -0.559 -0.122 34 33 37 0 0
0.5906 3.0926 0.9531 -0.820 -0.559 -0.122 23 23 25 0 0
0.6625 3.2029 0.9433 -0.877 -0.173 0.449 18 18 20 0 0
0.6568 3.3252 0.9367 -0.957 -0.207 0.201 17 17 19 0 0
0.6474 3.6251 0.9202 -0.940 -0.252 -0.229 40 40 42 0 0
0.7491 1.7885 1.0311 -0.565 -0.313 0.763 36 37 41 0 0
0.6843 1.9468 1.0254 -0.569 0.217 0.793 24 24 25 0 0
0.7090 1.9861 1.0220 -0.510 0.049 0.859 28 28 30 0 0
0.6012 2.8869 0.9770 -0.784 -0.407 -0.469 15 15 17 0 0
0.5956 2.8984 0.9766 -0.722 -0.389 -0.572 15 15 17 0 0
0.5870 2.9230 0.9756 -0.980 -0.107 -0.169 19 18 21 0 0
0.6171 3.0185 0.9689 -0.970 -0.207 -0.131 51 51 53 0 0
0.6142 3.0319 0.9682 -0.968 -0.198 -0.156 50 50 52 0 0
0.6115 3.0455 0.9676 -0.970 -0.207 -0.131 38 38 41 0 0
0.6088 3.0590 0.9670 -0.980 -0.195 0.041 42 41 47 0 0
0.6016 3.0696 0.9667 -0.925 -0.356 0.130 31 30 36 0 0
0.5968 3.0819 0.9663 -0.925 -0.356 0.130 19 18 24 0 0
0.5920 3.0941 0.9658 -0.925 -0.356 0.130 15 14 17 0 0
0.5834 3.1038 0.9657 -0.715 -0.699 0.003 14 14 16 0 0
0.6618 3.3134 0.9503 -0.794 -0.344 0.502 18 18 20 0 0
0.6559 3.6156 0.9337 -0.749 -0.624 0.224 38 38 40 0 0
0.8999 1.8033 1.0354 -0.314 -0.454 -0.834 35 36 38 0 0
0.7952 1.8235 1.0392 -0.263 -0.834 -0.485 29 30 34 0 0
0.7313 1.9837 1.0334 -0.812 0.524 0.255 29 28 31 0 0
0.5951 2.8835 0.9902 -0.819 -0.371 -0.437 18 18 20 0 0
0.6505 2.9339 0.9848 -0.943 -0.329 -0.056 21 21 23 0 0
0.5962 2.9144 0.9884 -0.857 -0.481 -0.187 26 27 30 0 0
0.6123 3.0312 0.9812 -0.968 -0.198 -0.156 40 41 42 0 0
0.6098 3.0449 0.9806 -0.970 -0.207 -0.131 43 42 46 0 0
0.6747 3.2912 0.9640 -0.957 0.012 0.289 25 25 27 0 0
0.6651 3.6230 0.9462 -1.000 -0.006 -0.000 38 38 40 0 0
0.6491 3.6276 0.9467 -0.827 -0.242 0.508 40 40 42 0 0
0.8666 1.7887 1.0501 -0.731 0.458 -0.506 33 34 36 0 0
0.6001 2.3899 1.0295 -0.817 0.437 0.377 13 13 15 0 0
0.6018 2.4051 1.0286 -0.732 0.502 0.461 13 13 15 0 0
0.5146 2.5264 1.0259 -0.746 0.401 0.532 13 13 15 0 0
0.6540 2.9214 0.9981 -0.963 -0.219 0.159 29 29 31 0 0
0.6509 2.9346 0.9976 -0.963 -0.219 0.159 35 35 37 0 0
0.6287 2.9357 0.9985 -0.945 -0.294 0.145 40 41 45 0 0
0.6132 3.0171 0.9948 -0.970 -0.242 -0.004 43 43 43 0 0
0.6099 3.0302 0.9942 -0.970 -0.242 -0.004 41 41 43 0 0
0.6105 3.0613 0.9925 -0.962 -0.263 0.077 17 16 21 0 0
0.6824 3.2971 0.9764 -0.970 0.132 0.204 24 24 26 0 0
0.6735 3.3227 0.9754 -0.975 -0.210 -0.068 17 17 19 0 0
0.6404 3.6382 0.9598 -0.859 0.038 0.510 40 40 44 0 0
0.9779 4.0631 0.9215 -0.743 0.663 -0.092 169 168 166 0 0
1.1483 1.7899 1.0500 0.221 -0.974 0.041 164 164 164 0 0
0.8322 1.7870 1.0640 0.054 -0.997 -0.047 29 30 32 0 0
0.7842 1.7922 1.0658 -0.152 -0.530 -0.834 27 27 29 0 0
0.5638 2.2298 1.0520 -0.139 -0.618 -0.774 14 14 16 0 0
0.5941 2.8689 1.0164 -0.902 0.431 -0.022 38 37 42 0 0
0.6428 2.9452 1.0102 -0.879 -0.476 -0.034 49 50 54 0 0
0.6465 2.9628 1.0091 -0.966 -0.147 0.212 53 54 57 0 0
0.6397 3.6219 0.9740 -0.822 0.561 -0.101 41 41 43 0 0
0.6475 3.6441 0.9725 -0.979 0.206 -0.002 41 40 44 0 0
0.8727 3.9484 0.9463 -0.725 0.674 -0.140 105 104 102 0 0
1.1503 1.7911 1.0626 0.220 -0.975 0.024 165 165 165 0 0
0.8121 1.7648 1.0783 -0.785 0.618 -0.035 33 34 36 0 0
0.8044 1.7882 1.0774 0.143 -0.944 -0.296 28 28 30 0 0
0.6868 1.8818 1.0774 -0.860 -0.059 0.506 14 14 16 0 0
0.6047 2.7270 1.0362 -0.580 0.208 -0.788 20 20 22 0 0
0.5745 2.7233 1.0376 -0.715 0.610 0.341 21 21 23 0 0
0.6241 2.7983 1.0316 -0.540 0.129 -0.832 31 31 33 0 0
0.6199 2.8107 1.0311 -0.545 0.053 -0.837 35 35 37 0 0
0.5969 2.8263 1.0312 -0.219 -0.757 0.615 40 39 43 0 0
0.5923 2.8683 1.0292 -0.915 0.398 0.071 50 49 52 0 0
0.6482 2.9492 1.0226 -0.832 -0.368 -0.416 53 54 58 0 0
0.6460 2.9630 1.0219 -0.949 -0.105 -0.297 51 52 54 0 0
0.6408 2.9749 1.0215 -0.832 -0.497 0.245 49 50 52 0 0
0.6946 3.3067 1.0017 -0.937 0.349 0.023 22 22 24 0 0
0.7159 3.3373 0.9992 -0.883 0.457 0.110 17 17 19 0 0
0.6473 3.6446 0.9858 -0.886 0.266 -0.379 40 39 43 0 0
0.7852 3.8314 0.9701 -0.821 0.495 -0.285 65 65 67 0 0
0.7854 1.7800 1.0908 0.166 -0.964 0.207 29 29 31 0 0
0.6057 2.7133 1.0494 -0.901 -0.359 0.242 35 36 38 0 0
0.5828 2.7289 1.0496 -0.779 0.610 0.146 35 36 40 0 0
0.5995 2.8284 1.0437 -0.838 -0.452 0.306 48 47 52 0 0
0.5998 2.8435 1.0429 -0.955 -0.108 -0.277 49 48 52 0 0
0.6059 2.8624 1.0417 -0.930 0.239 -0.279 51 51 54 0 0
0.6412 2.9452 1.0359 -0.812 -0.203 -0.548 49 49 50 0 0
0.6951 3.2917 1.0156 -0.837 0.539 0.096 28 28 30 0 0
0.7097 3.3176 1.0137 -0.867 0.439 0.237 18 18 20 0 0
0.7225 3.3424 1.0119 -0.845 0.390 0.367 17 17 19 0 0
0.6421 3.6414 0.9995 -0.852 0.217 -0.476 41 40 44 0 0
1.1478 1.7907 1.0882 0.212 -0.977 -0.007 164 164 163 0 0
0.6027 2.8309 1.0561 -0.838 -0.452 0.306 53 53 56 0 0
0.7025 3.2973 1.0282 -0.801 0.588 0.116 26 26 28 0 0
0.7155 3.3222 1.0264 -0.867 0.439 0.237 16 16 18 0 0
0.7309 3.3488 1.0244 -0.845 0.390 0.367 17 17 19 0 0
1.1457 1.7902 1.1010 0.212 -0.977 -0.007 165 165 165 0 0
0.6838 1.8680 1.1146 -0.474 -0.663 -0.579 43 43 45 0 0
0.6770 1.8783 1.1143 -0.684 -0.550 -0.480 37 37 39 0 0
0.6693 1.8880 1.1141 -0.684 -0.550 -0.480 27 27 29 0 0
0.7346 3.3359 1.0382 -0.751 0.557 0.354 17 17 19 0 0
0.7842 3.8157 1.0120 -0.949 0.147 0.280 45 43 46 0 0
0.7802 3.8296 1.0114 -0.908 0.419 0.016 48 47 50 0 0
0.8432 3.9115 1.0049 -0.814 0.580 0.035 69 71 68 0 0
1.1436 1.7896 1.1139 0.212 -0.977 -0.007 165 165 164 0 0
0.6638 2.6912 1.0990 -0.640 0.108 0.761 23 22 28 0 0
0.6656 2.7816 1.0944 -0.682 -0.488 -0.545 27 26 31 0 0
0.6577 2.8067 1.0935 -0.796 -0.470 -0.381 27 26 31 0 0
0.8010 3.8298 1.0381 -0.944 0.309 0.113 45 45 45 0 0
0.5523 2.2127 1.1386 -0.385 0.025 0.923 18 18 20 0 0
0.5671 2.3185 1.1330 -0.438 0.141 0.888 45 46 50 0 0
0.5780 2.3527 1.1310 -0.468 0.172 0.867 46 47 51 0 0
0.6427 2.7979 1.1072 -0.883 -0.444 0.152 26 26 28 0 0
0.6535 2.8196 1.1058 -0.644 -0.662 -0.385 28 28 30 0 0
0.6637 3.6772 1.0638 -0.912 0.408 -0.037 38 38 40 0 0
0.8029 3.8318 1.0516 -0.928 0.364 0.076 49 49 49 0 0
1.0710 1.7730 1.1552 0.204 -0.978 0.035 96 96 99 0 0
0.5732 1.8701 1.1665 -0.799 -0.431 -0.420 25 25 27 0 0
0.5851 2.2307 1.1489 -0.421 -0.061 0.905 20 20 22 0 0
0.6459 2.3482 1.1413 -0.355 -0.566 -0.744 45 46 50 0 0
0.6338 2.3558 1.1413 -0.355 -0.566 -0.744 46 47 51 0 0
0.7161 2.6789 1.1233 -0.695 0.224 0.684 14 15 17 0 0
0.7032 2.7009 1.1226 -0.637 -0.251 0.729 16 16 16 0 0
0.6588 2.7337 1.1225 -0.765 0.294 -0.573 19 19 23 0 0
0.6638 2.7665 1.1207 -0.847 0.085 -0.524 20 20 22 0 0
0.6623 2.7805 1.1201 -0.874 -0.111 -0.473 21 21 23 0 0
0.6553 2.8062 1.1191 -0.659 -0.581 -0.477 27 27 29 0 0
0.6319 3.2204 1.1001 -0.992 -0.092 0.081 29 29 31 0 0
0.6305 3.2351 1.0994 -0.992 -0.092 0.081 22 22 24 0 0
0.8049 3.8340 1.0652 -0.928 0.364 0.076 63 62 65 0 0
0.8518 3.9208 1.0595 -0.812 0.565 -0.146 82 82 82 0 0
0.9430 4.0601 1.0499 -0.871 0.274 -0.409 169 169 167 0 0
0.5929 1.9068 1.1761 -0.415 -0.628 -0.659 14 14 16 0 0
0.6345 2.2858 1.1570 -0.909 0.405 0.101 42 43 47 0 0
0.7206 2.6080 1.1392 -0.343 -0.011 0.939 16 16 18 0 0
0.7412 2.6348 1.1373 -0.488 -0.227 0.843 16 16 18 0 0
0.7313 2.6735 1.1358 -0.699 0.141 0.701 16 16 18 0 0
0.7123 2.7217 1.1341 -0.668 -0.113 0.735 15 15 17 0 0
0.6616 2.7508 1.1343 -0.900 -0.147 -0.411 23 22 27 0 0
0.6596 2.7645 1.1337 -0.900 -0.147 -0.411 22 21 23 0 0
0.6576 2.7782 1.1331 -0.900 -0.147 -0.411 28 25 27 0 0
0.7434 3.3931 1.1015 -0.598 0.395 0.698 16 16 18 0 0
0.7911 3.8242 1.0798 -0.909 0.376 -0.179 58 57 61 0 0
0.5716 1.9102 1.1886 -0.433 -0.626 -0.648 14 14 16 0 0
0.7311 2.7484 1.1451 -0.520 -0.531 0.669 29 29 32 0 0
0.7314 3.3053 1.1193 -0.909 0.387 -0.157 19 19 21 0 0
0.7203 3.3456 1.1177 -0.877 0.305 0.371 17 17 19 0 0
0.6825 3.7098 1.1020 -0.882 0.432 -0.189 43 42 47 0 0
0.5921 1.8803 1.2014 -0.520 -0.689 -0.504 14 14 16 0 0
0.5903 1.8929 1.2009 -0.547 -0.768 -0.332 14 14 16 0 0
0.5791 1.9008 1.2008 -0.547 -0.768 -0.332 15 15 17 0 0
0.5692 1.9094 1.2007 -0.524 -0.783 -0.334 17 17 19 0 0
0.7171 3.2643 1.1348 -0.924 0.321 -0.207 30 30 32 0 0
0.7451 3.3473 1.1302 -0.876 0.479 0.051 18 18 20 0 0
0.7035 3.7262 1.1141 -0.830 0.540 -0.140 43 42 47 0 0
0.7368 3.7679 1.1113 -0.795 0.564 -0.222 43 43 47 0 0
0.9318 4.0536 1.0928 -0.872 0.490 0.011 169 169 167 0 0
0.6002 1.8981 1.2124 -0.763 -0.498 -0.412 16 16 19 0 0
0.5786 1.9010 1.2128 -0.575 -0.792 0.206 19 19 21 0 0
0.5787 1.9144 1.2122 -0.657 -0.598 0.459 20 20 23 0 0
0.5897 2.1515 1.2013 -0.930 -0.174 -0.324 19 19 21 0 0
0.5908 2.1659 1.2006 -0.723 -0.546 -0.423 20 20 22 0 0
0.6568 2.2992 1.1929 -0.587 0.392 0.708 31 29 34 0 0
0.6621 2.3162 1.1920 -0.539 0.300 0.787 17 15 20 0 0
0.7866 2.6777 1.1725 -0.528 -0.084 0.845 27 27 29 0 0
0.7852 2.6918 1.1719 -0.545 -0.018 0.838 28 29 31 0 0
0.7838 2.7060 1.1713 -0.545 -0.018 0.838 34 35 37 0 0
0.7492 2.7603 1.1698 -0.346 -0.189 0.919 33 33 35 0 0
0.7837 3.8207 1.1213 -0.903 0.302 0.306 45 46 49 0 0
1.0436 1.7766 1.2188 0.179 -0.952 0.247 67 67 69 0 0
0.6125 1.8775 1.2250 -0.968 -0.068 -0.243 21 20 23 0 0
0.5966 1.8967 1.2246 -0.763 -0.582 -0.280 30 29 34 0 0
0.5777 1.9009 1.2249 -0.442 -0.787 0.432 30 29 34 0 0
0.6389 2.1499 1.2124 -0.365 -0.917 0.161 19 19 21 0 0
0.5857 2.1498 1.2137 -0.930 -0.174 -0.324 20 20 22 0 0
0.6866 2.3300 1.2032 -0.574 0.360 0.735 19 17 21 0 0
0.8193 2.7123 1.1830 -0.445 0.026 0.895 24 25 27 0 0
0.8189 2.7271 1.1824 -0.445 0.026 0.895 21 22 24 0 0
0.7234 3.2697 1.1608 -0.877 0.466 0.113 25 26 28 0 0
0.7900 3.8261 1.1346 -0.903 0.302 0.306 43 44 48 0 0
1.1780 1.8077 1.2269 0.196 -0.930 0.312 166 166 168 0 0
0.5956 1.8966 1.2367 -0.849 -0.528 -0.008 36 35 40 0 0
0.6080 2.1481 1.2254 -0.763 -0.641 -0.077 19 19 21 0 0
0.7130 3.2474 1.1752 -0.828 0.561 0.021 28 29 31 0 0
0.7221 3.2695 1.1741 -0.869 0.455 0.194 24 25 27 0 0
1.1850 1.8111 1.2395 0.151 -0.911 0.384 166 166 168 0 0
0.5953 2.1419 1.2382 -0.816 -0.017 0.578 20 20 22 0 0
0.5990 2.1715 1.2369 -0.801 0.350 0.486 33 33 37 0 0
0.9081 2.7961 1.2034 -0.666 0.509 0.546 13 14 16 0 0
0.8433 2.8950 1.2006 -0.624 0.555 0.550 30 30 32 0 0
0.7271 3.2734 1.1870 -0.869 0.455 0.194 23 24 26 0 0
0.5985 1.9526 1.2583 -0.872 0.453 -0.187 36 37 41 0 0
0.7586 3.3434 1.1966 -0.680 0.728 -0.085 18 19 21 0 0
0.6331 3.6272 1.1873 -0.296 -0.631 -0.717 47 46 51 0 0
0.6468 3.6539 1.1859 -0.828 0.414 -0.377 41 40 45 0 0
0.6938 2.1382 1.2609 -0.403 -0.015 -0.915 29 28 33 0 0
1.0053 2.9640 1.2210 -0.648 0.664 -0.373 31 31 33 0 0
0.6200 2.1145 1.2755 -0.858 -0.438 0.269 37 36 41 0 0
0.5881 2.1394 1.2751 -0.686 0.640 0.348 42 41 46 0 0
0.6002 2.1595 1.2740 -0.650 0.592 0.476 47 46 51 0 0
0.6409 3.6015 1.2149 -0.131 -0.939 -0.319 47 46 51 0 0
0.8402 3.8845 1.1999 -0.984 -0.129 -0.124 55 55 57 0 0
0.8784 2.7501 1.2583 0.059 -0.874 -0.483 11 11 13 0 0
0.9661 2.8945 1.2512 -0.491 -0.853 -0.176 26 26 28 0 0
0.7385 3.2517 1.2406 -0.745 0.656 0.124 26 27 29 0 0
0.6373 3.5995 1.2284 -0.199 -0.967 -0.160 48 47 52 0 0
0.6251 3.6069 1.2283 -0.438 -0.748 -0.499 50 49 54 0 0
0.8622 3.8846 1.2134 -0.880 0.463 -0.109 50 50 52 0 0
0.8466 3.8900 1.2135 -0.982 -0.135 0.133 53 53 56 0 0
0.6132 1.9750 1.3055 -0.902 0.426 0.069 38 39 43 0 0
0.6086 2.0956 1.3009 -0.892 -0.067 0.447 44 45 49 0 0
0.6126 2.1115 1.3002 -0.935 0.100 0.341 44 45 49 0 0
0.8846 2.7391 1.2717 0.018 -0.920 -0.392 10 10 12 0 0
0.9736 2.8995 1.2642 -0.352 -0.936 0.026 25 25 27 0 0
0.6307 3.5952 1.2420 0.024 -0.994 -0.109 48 47 52 0 0
0.6312 1.9843 1.3171 -0.930 0.188 0.317 42 43 47 0 0
0.6113 2.0425 1.3151 -0.957 -0.025 0.288 45 46 50 0 0
0.6201 2.0607 1.3143 -0.989 0.085 -0.123 46 46 50 0 0
0.5988 2.0636 1.3145 -0.807 -0.546 0.226 46 46 51 0 0
0.6409 2.1682 1.3099 -0.597 0.607 0.525 41 40 45 0 0
0.8714 2.7318 1.2853 0.007 -0.888 -0.460 10 10 12 0 0
0.6240 3.5909 1.2556 -0.028 -0.972 -0.234 49 48 53 0 0
0.6089 2.0554 1.3268 -0.900 0.429 -0.083 47 46 51 0 0
0.5949 2.0619 1.3267 -0.742 -0.181 0.646 47 46 51 0 0
0.9132 2.7721 1.2963 0.197 -0.917 -0.347 12 12 14 0 0
0.9332 2.9383 1.2899 -0.936 0.312 -0.164 33 33 35 0 0
0.6615 3.1857 1.2837 -0.474 0.006 -0.880 25 26 28 0 0
0.6369 3.2004 1.2834 -0.662 0.335 -0.670 21 22 24 0 0
0.7559 1.9641 1.3409 0.101 -0.923 0.371 46 45 50 0 0
0.6029 2.0665 1.3387 -0.779 0.178 0.602 47 47 51 0 0
0.8846 2.7254 1.3115 -0.122 -0.981 -0.148 10 10 12 0 0
0.8260 1.9845 1.3519 0.084 -0.691 0.718 47 46 51 0 0
0.9128 4.0656 1.2759 -0.944 0.319 -0.085 170 170 168 0 0
0.8071 1.9897 1.3643 -0.433 0.277 0.857 49 48 53 0 0
0.7941 1.9562 1.3780 -0.547 0.256 0.797 52 51 56 0 0
1.1589 1.9592 1.3887 0.194 -0.798 0.571 166 166 168 0 0
0.7017 2.1604 1.3838 -0.592 0.595 0.543 30 28 30 0 0
1.0562 2.9377 1.3694 -0.336 -0.043 -0.941 34 34 36 0 0
0.8493 2.0816 1.4110 -0.047 -0.232 0.971 67 67 69 0 0
0.7960 2.0692 1.4115 -0.211 -0.049 0.976 62 62 64 0 0
1.0106 2.0333 1.4251 -0.651 0.417 0.634 135 134 134 0 0
0.9498 2.0607 1.4242 -0.364 -0.448 0.817 86 88 88 0 0
1.0298 2.0428 1.4376 -0.652 0.404 0.642 167 167 167 0 0
1.0801 2.0811 1.4365 0.140 -0.708 0.692 156 156 156 0 0
0.9786 2.0750 1.4365 -0.193 -0.703 0.685 98 98 100 0 0
0.9561 2.0783 1.4364 -0.480 -0.335 0.811 92 93 94 0 0
0.9558 2.0924 1.4360 -0.675 -0.353 0.648 87 87 89 0 0
0.9504 2.1039 1.4356 -0.655 -0.256 0.711 85 85 86 0 0
0.9353 2.7590 1.4152 -0.904 -0.426 0.041 19 19 21 0 0
0.9364 2.7749 1.4147 -0.788 -0.590 0.177 24 24 26 0 0
1.0179 3.0106 1.4076 -0.838 0.530 0.128 14 14 16 0 0
0.5531 3.1023 1.4040 -0.581 -0.683 -0.442 19 20 22 0 0
0.8084 3.8521 1.3811 -0.744 0.664 0.074 49 46 53 0 0
0.9923 2.0820 1.4491 -0.162 -0.792 0.588 75 75 75 0 0
0.9637 2.0966 1.4486 -0.377 -0.466 0.801 122 122 122 0 0
0.9642 2.1111 1.4482 -0.550 -0.247 0.798 114 113 113 0 0
0.9575 2.1220 1.4478 -0.648 -0.128 0.750 103 102 101 0 0
0.9556 2.1354 1.4474 -0.451 -0.251 0.857 105 104 103 0 0
0.8809 2.6521 1.4315 -0.565 0.639 -0.521 11 11 13 0 0
0.8921 2.7190 1.4295 -0.776 -0.342 0.530 18 18 20 0 0
1.0248 3.0154 1.4209 -0.790 0.550 0.270 14 14 16 0 0
0.6272 3.5187 1.4045 -0.832 0.456 -0.316 37 38 42 0 0
0.6286 3.5360 1.4039 -0.482 -0.467 -0.741 44 42 47 0 0
0.6173 3.5440 1.4037 -0.466 -0.581 -0.668 45 43 48 0 0
0.6059 3.5519 1.4034 -0.631 -0.478 -0.611 46 45 50 0 0
0.9297 4.0843 1.3882 -0.967 0.220 0.130 171 171 169 0 0
1.0603 2.1010 1.4617 0.054 -0.690 0.722 167 167 166 0 0
1.0222 2.0970 1.4616 0.026 -0.710 0.704 138 137 136 0 0
0.9876 2.0944 1.4615 -0.071 -0.594 0.801 88 87 86 0 0
1.1238 2.6378 1.4461 0.096 -0.901 -0.424 56 54 59 0 0
1.0381 2.8981 1.4380 0.244 -0.923 0.299 37 36 41 0 0
0.6215 3.5315 1.4174 -0.522 -0.392 -0.757 42 40 45 0 0
0.6149 3.5429 1.4170 -0.504 -0.391 -0.770 45 43 48 0 0
0.6192 3.5624 1.4164 -0.971 -0.130 -0.202 49 48 53 0 0
1.0400 2.1203 1.4739 -0.048 -0.509 0.859 167 167 166 0 0
1.0246 2.1415 1.4732 -0.272 -0.153 0.950 152 152 152 0 0
1.0307 2.1589 1.4727 -0.273 0.025 0.962 149 149 149 0 0
1.0288 2.1724 1.4723 -0.277 -0.008 0.961 157 157 157 0 0
0.6093 3.5231 1.4308 -0.483 -0.351 -0.802 42 40 45 0 0
0.6012 3.5335 1.4305 -0.471 -0.353 -0.808 44 42 46 0 0
1.0781 2.1826 1.4853 -0.266 0.004 0.964 167 167 167 0 0
1.0802 2.1982 1.4849 -0.265 -0.017 0.964 167 167 167 0 0
1.3049 2.5987 1.4753 -0.511 0.673 0.535 167 167 167 0 0
1.0929 2.6217 1.4731 -0.174 -0.668 -0.724 44 41 47 0 0
0.6023 3.5187 1.4442 -0.784 -0.240 -0.573 43 41 46 0 0
0.5985 3.5322 1.4438 -0.784 -0.240 -0.573 44 42 46 0 0
0.8390 3.8780 1.4358 -0.751 0.621 -0.224 56 56 58 0 0
1.0904 2.2037 1.4979 -0.507 0.218 0.834 168 168 168 0 0
1.0946 2.2203 1.4974 -0.436 0.007 0.900 168 168 168 0 0
1.0751 2.6123 1.4865 -0.949 0.317 0.005 32 29 36 0 0
1.0959 2.6391 1.4860 -0.941 -0.313 -0.125 23 21 25 0 0
0.5958 3.5146 1.4575 -0.968 -0.190 -0.163 42 40 45 0 0
0.6020 3.5353 1.4570 -0.995 0.014 -0.096 45 43 47 0 0
1.0695 2.5945 1.5002 -0.911 0.394 -0.120 31 28 35 0 0
1.0747 2.6126 1.4998 -0.922 0.387 -0.010 18 17 21 0 0
0.9598 2.9312 1.4901 -0.961 0.182 -0.207 15 15 17 0 0
0.6610 3.1313 1.4817 -0.993 -0.075 -0.093 22 23 25 0 0
0.6103 3.5258 1.4706 -0.862 -0.183 0.474 42 40 45 0 0
0.6139 3.5446 1.4702 -0.927 0.019 0.375 44 42 46 0 0
0.8821 4.0159 1.4604 -0.718 -0.662 -0.216 141 140 138 0 0
1.0770 2.5839 1.5139 -0.888 0.329 -0.320 36 33 40 0 0
0.6580 3.1298 1.4948 -0.947 -0.168 -0.275 23 24 26 0 0
0.6172 3.5640 1.4830 -0.915 0.404 -0.006 58 58 60 0 0
0.8788 4.0141 1.4744 -0.990 0.142 -0.026 140 140 138 0 0
1.0556 2.5575 1.5276 -0.845 -0.089 -0.527 55 54 60 0 0
0.6811 3.0678 1.5097 -0.854 -0.499 -0.150 28 28 30 0 0
0.6750 3.0793 1.5093 -0.804 -0.464 -0.372 28 28 30 0 0
0.6544 3.1280 1.5078 -0.917 -0.175 -0.359 23 24 26 0 0
0.6775 3.0660 1.5228 -0.789 -0.467 -0.398 28 28 30 0 0
0.6789 3.0825 1.5224 -0.515 -0.737 -0.439 27 27 29 0 0
0.6928 3.0610 1.5362 -0.046 -0.907 -0.418 27 27 29 0 0
0.6764 3.0658 1.5358 -0.652 -0.550 -0.523 26 27 29 0 0
1.0634 2.5481 1.5677 -0.688 -0.725 -0.030 44 43 47 0 0
0.6220 3.1237 1.5466 -0.935 -0.345 -0.077 21 22 24 0 0
1.0130 2.6418 1.5779 -0.932 0.177 -0.316 14 15 17 0 0
0.9937 2.6461 1.5774 -0.334 -0.806 -0.489 15 16 18 0 0
0.7827 2.7055 1.5720 0.036 -0.873 -0.486 63 61 64 0 0
0.6379 3.1037 1.5604 -0.899 -0.061 -0.434 23 24 26 0 0
0.6051 3.0974 1.5599 -0.512 -0.615 -0.599 22 23 25 0 0
0.9899 2.5840 1.5919 -0.727 -0.644 -0.238 27 27 29 0 0
0.9751 2.5908 1.5915 -0.953 -0.186 -0.241 18 18 21 0 0
0.9764 2.6066 1.5911 -0.918 0.022 -0.396 14 15 17 0 0
0.9670 2.6315 1.5904 -0.699 -0.246 -0.672 16 17 19 0 0
0.9921 2.5556 1.6057 -0.577 -0.710 -0.403 42 41 46 0 0
0.9820 2.5650 1.6053 -0.721 -0.648 0.247 44 43 48 0 0
0.9749 2.5761 1.6049 -0.946 -0.246 0.209 44 43 48 0 0
0.9769 2.5923 1.6046 -0.971 0.144 -0.194 36 36 39 0 0
0.9863 2.5528 1.6188 -0.577 -0.710 -0.403 39 38 43 0 0
0.9728 2.5603 1.6183 -0.604 -0.772 -0.197 40 39 44 0 0
0.9735 2.5758 1.6181 -0.966 -0.239 -0.103 41 40 45 0 0
0.9695 2.5886 1.6177 -0.968 0.166 -0.190 43 43 47 0 0
0.7319 3.5214 1.5934 -0.036 -0.997 -0.072 19 19 21 0 0
0.9675 2.5579 1.6314 -0.383 -0.886 -0.262 40 39 44 0 0
0.9504 2.5634 1.6309 -0.676 -0.718 -0.166 38 37 42 0 0
0.9393 2.5722 1.6304 -0.776 -0.418 -0.471 36 36 41 0 0
0.9304 2.5822 1.6300 -0.733 -0.186 -0.654 36 37 42 0 0
0.9199 2.6521 1.6415 -0.582 0.293 -0.759 27 27 30 0 0
0.9365 2.6919 1.6412 -0.619 0.324 -0.715 34 35 38 0 0
0.9070 2.6900 1.6405 -0.466 -0.102 -0.879 39 40 42 0 0
0.9224 2.7141 1.6404 -0.182 -0.428 -0.885 39 40 44 0 0
0.9626 2.5262 1.6581 -0.281 -0.706 -0.650 50 49 54 0 0
0.8685 2.5932 1.6543 -0.393 -0.035 -0.919 26 27 29 0 0
0.8842 2.6171 1.6543 -0.362 -0.031 -0.932 23 25 26 0 0
0.8850 2.6325 1.6540 -0.425 0.048 -0.904 22 24 25 0 0
0.8899 2.6504 1.6539 -0.459 0.086 -0.884 23 25 27 0 0
0.5995 3.5580 1.6295 -0.862 -0.459 0.217 57 58 62 0 0
1.0592 2.5344 1.6739 0.023 -0.991 0.129 47 46 51 0 0
0.8562 2.5867 1.6671 -0.231 -0.113 -0.966 39 41 43 0 0
0.6017 3.5602 1.6428 -0.862 -0.459 0.217 57 58 62 0 0
0.6612 3.6867 1.6424 -0.766 0.574 0.290 44 43 47 0 0
1.0664 2.5388 1.6874 -0.158 -0.961 0.227 44 44 49 0 0
0.7080 2.7549 1.6727 -0.208 -0.978 0.009 19 19 22 0 0
0.6040 3.5626 1.6562 -0.821 -0.558 0.123 57 58 62 0 0
0.6999 3.7330 1.6564 -0.790 0.571 -0.222 49 49 51 0 0
0.9430 4.1082 1.6578 -0.856 0.516 0.040 175 175 173 0 0
0.7394 2.7142 1.6873 -0.177 -0.531 -0.829 26 27 31 0 0
0.7124 2.7732 1.6855 -0.374 -0.881 0.289 19 19 21 0 0
0.6090 3.5505 1.6699 -0.862 -0.481 -0.160 51 52 56 0 0
0.6032 3.5625 1.6695 -0.708 -0.706 -0.007 58 59 63 0 0
0.6927 3.7283 1.6698 -0.790 0.571 -0.222 49 49 50 0 0
0.9235 4.0761 1.6719 -0.755 0.633 -0.172 173 173 171 0 0
1.0676 2.5706 1.7135 -0.220 -0.690 0.690 45 44 49 0 0
0.9936 2.5751 1.7109 0.129 -0.832 0.539 42 41 46 0 0
0.9572 2.5700 1.7097 0.210 -0.894 0.396 44 43 48 0 0
0.6142 2.8639 1.6937 -0.891 -0.327 -0.316 30 30 33 0 0
0.5472 3.0490 1.6887 -0.803 -0.591 0.077 69 69 71 0 0
0.6077 3.5502 1.6832 -0.904 -0.405 -0.137 53 54 58 0 0
0.6023 3.5625 1.6829 -0.904 -0.405 -0.137 58 59 63 0 0
0.6943 3.7301 1.6835 -0.818 0.561 -0.127 49 49 48 0 0
1.0239 2.5773 1.7251 -0.439 0.318 0.840 41 40 45 0 0
0.5520 3.0681 1.7015 -0.918 -0.389 0.082 56 56 58 0 0
0.5453 3.0791 1.7011 -0.771 -0.567 0.292 56 56 59 0 0
0.6224 3.5453 1.6972 -0.536 -0.802 -0.264 44 45 48 0 0
0.6005 3.5455 1.6964 -0.897 -0.039 -0.440 54 55 59 0 0
0.6006 3.5619 1.6962 -0.953 -0.185 -0.241 58 59 63 0 0
0.6851 3.7239 1.6969 -0.884 0.455 0.105 44 44 47 0 0
0.6167 3.5417 1.7104 -0.629 -0.767 -0.127 44 45 49 0 0
0.5975 3.5439 1.7096 -0.956 -0.192 -0.221 54 55 57 0 0
1.1308 2.5913 1.7556 -0.854 -0.275 0.443 64 65 69 0 0
1.1226 2.6175 1.7549 -0.422 0.077 0.903 57 56 61 0 0
0.6329 2.8621 1.7330 -0.764 0.381 0.521 14 14 16 0 0
0.5591 3.1048 1.7271 -0.752 -0.503 0.425 49 48 53 0 0
0.5590 3.1203 1.7269 -0.852 -0.494 0.176 47 46 52 0 0
0.5610 3.1371 1.7268 -0.513 -0.857 0.059 50 49 55 0 0
0.6510 3.4858 1.7258 -0.738 0.389 0.552 24 23 27 0 0
0.5947 3.5425 1.7229 -0.956 -0.192 -0.221 53 54 56 0 0
0.5946 3.5588 1.7227 -0.990 0.019 -0.137 58 59 62 0 0
0.7869 2.6848 1.7542 -0.243 -0.059 0.968 34 35 40 0 0
0.6662 2.7327 1.7488 -0.828 -0.521 0.209 38 39 41 0 0
0.6588 2.8941 1.7466 -0.986 0.168 0.007 14 14 16 0 0
0.6522 2.9052 1.7462 -0.803 0.150 0.577 14 14 16 0 0
0.6754 2.9351 1.7467 -0.643 -0.017 0.766 14 14 16 0 0
0.6747 2.9961 1.7460 -0.757 0.171 0.631 39 38 43 0 0
0.5669 3.0643 1.7409 -0.905 -0.032 0.424 82 82 84 0 0
0.5594 3.2303 1.7386 -0.859 0.449 -0.247 32 30 33 0 0
0.5146 3.2306 1.7368 -0.474 -0.836 0.277 22 20 23 0 0
0.4951 3.2326 1.7360 -0.447 -0.894 0.038 18 18 20 0 0
0.5624 3.0773 1.7535 -0.948 0.155 -0.279 66 66 69 0 0
0.5422 3.1411 1.7519 -0.722 -0.538 -0.434 58 58 60 0 0
0.5376 3.1535 1.7516 -0.894 -0.123 -0.431 47 46 51 0 0
0.5265 3.2238 1.7503 -0.725 -0.659 0.199 31 29 32 0 0
0.5045 3.2241 1.7494 -0.666 -0.718 -0.202 23 21 24 0 0
0.5238 3.2689 1.7497 -0.297 -0.011 -0.955 19 19 21 0 0
0.5459 3.3636 1.7496 -0.780 0.601 0.174 21 21 23 0 0
0.5351 3.3718 1.7490 -0.747 0.637 0.190 22 22 24 0 0
0.5757 3.5136 1.7491 -0.808 0.105 -0.579 46 47 52 0 0
0.5781 3.5316 1.7490 -0.858 0.109 -0.502 55 56 58 0 0
0.6024 3.5821 1.7494 -0.973 0.095 0.211 49 50 55 0 0
0.9478 4.1169 1.7577 -0.746 0.654 0.127 175 173 175 0 0
1.2441 2.5620 1.8010 -0.924 0.380 0.048 49 50 54 0 0
0.7624 2.7164 1.7788 -0.495 -0.231 -0.838 33 34 36 0 0
0.5017 3.2227 1.7623 -0.591 -0.643 0.487 46 41 45 0 0
0.5627 3.4563 1.7624 -0.565 -0.164 -0.809 37 36 41 0 0
0.5670 3.5079 1.7621 -0.793 0.292 -0.535 46 45 49 0 0
1.2360 2.5428 1.8144 -0.795 -0.190 -0.577 54 53 59 0 0
0.8075 2.6084 1.7948 -0.725 0.327 -0.607 40 39 44 0 0
0.7349 2.7305 1.7904 -0.279 -0.858 -0.431 27 28 30 0 0
0.5831 2.9998 1.7811 -0.245 -0.739 -0.628 16 16 18 0 0
0.5634 3.0022 1.7802 -0.448 -0.557 -0.699 18 18 20 0 0
0.5688 3.5261 1.7753 -0.904 0.351 -0.243 56 59 58 0 0
0.5810 3.5513 1.7756 -0.981 0.120 -0.150 57 59 58 0 0
0.9073 4.1044 1.7846 -0.375 -0.922 -0.096 177 176 174 0 0
1.2469 2.5031 1.8288 -0.287 -0.878 -0.383 82 81 86 0 0
1.2176 2.5182 1.8274 -0.413 -0.704 -0.578 53 52 58 0 0
1.2513 2.5668 1.8285 -0.923 0.352 0.157 47 48 52 0 0
0.6900 2.7191 1.8014 -0.103 -0.930 -0.353 22 23 25 0 0
0.5228 3.0219 1.7910 -0.863 -0.493 -0.112 18 18 20 0 0
0.5684 3.4456 1.7893 -0.327 -0.927 -0.181 37 36 41 0 0
0.5536 3.4509 1.7885 -0.327 -0.927 -0.181 39 38 43 0 0
0.5803 3.5514 1.7889 -0.968 0.214 0.129 54 58 59 0 0
0.9039 4.1025 1.7986 -0.422 -0.900 -0.107 178 177 175 0 0
0.8735 2.5573 1.8243 0.033 -0.416 -0.909 53 52 57 0 0
0.6820 2.7148 1.8140 -0.003 -0.999 -0.051 21 22 24 0 0
0.6606 2.7168 1.8129 -0.058 -0.981 -0.186 21 22 24 0 0
0.6474 2.7238 1.8123 -0.381 -0.897 -0.226 20 21 23 0 0
0.6365 2.7321 1.8117 -0.902 -0.361 0.235 19 20 22 0 0
0.5105 2.8780 1.8045 -0.805 -0.593 -0.007 42 43 46 0 0
0.5264 3.0096 1.8042 -0.513 -0.677 -0.527 15 14 17 0 0
0.5274 3.2267 1.8024 -0.900 -0.288 -0.327 73 72 74 0 0
0.5276 3.2425 1.8023 -0.962 -0.273 -0.014 77 75 77 0 0
0.5243 3.2559 1.8020 -0.914 -0.393 0.099 76 74 76 0 0
0.8913 4.0758 1.8125 -0.857 0.421 -0.297 176 176 174 0 0
1.2469 2.4888 1.8561 -0.305 -0.816 -0.490 79 80 83 0 0
1.2434 2.5635 1.8553 -0.722 0.267 0.638 47 48 52 0 0
0.6436 2.7369 1.8248 -0.682 -0.379 -0.626 21 22 24 0 0
0.5188 2.8688 1.8177 -0.821 0.103 -0.561 33 34 38 0 0
0.5209 2.8852 1.8177 -0.915 -0.352 -0.195 38 39 43 0 0
0.4976 3.1290 1.8147 -0.792 -0.282 -0.541 30 27 33 0 0
