ply
format ascii 1.0
element vertex 732
property float x
property float y
property float z
property uchar diffuse_red
property uchar diffuse_green
property uchar diffuse_blue
end_header
1.5273605930316891 2.9648312982362612 1.4461060220894213 43 42 47
1.5044512447721181 2.9524104826118345 1.4551080154790346 43 42 47
1.5123124600817524 2.9366151960634292 1.4542864122594863 42 41 46
1.530310158215412 2.919779659254136 1.450220637574537 40 39 44
1.5535243488499149 2.90246643713703 1.4444788120737126 40 39 44
1.5746307248273403 2.885449273152941 1.439402575875151 42 41 46
1.574148780026388 2.8706697989229597 1.4412331509541916 45 44 49
1.6285538509804667 2.8504830169043385 1.4254717055049166 46 45 50
1.656646962656066 2.8330314614665357 1.4181274229426881 46 45 49
1.6580442445040724 2.818215476848406 1.4193388795254545 38 38 40
1.6464203530067887 2.8046206603610977 1.4247307638418225 29 29 31
1.632845918526484 2.7911654939521027 1.4307537593542399 22 22 24
1.622130066459997 2.7774076284601055 1.4358629240503304 19 19 21
1.5416217676256554 2.7697667816551848 1.463427268758716 20 20 22
1.5089175490678812 2.757717406105388 1.475635743070708 21 21 23
1.4805057505667514 2.7451927232462774 1.4864743665090903 22 22 24
1.4471597022289417 2.732980651961716 1.4989140956170541 22 22 24
1.4045946975158823 2.7214038881596054 1.5143394749556927 26 26 28
1.3814881470015399 2.708133722161982 1.5235028848754162 35 35 37
1.3456768168101978 2.69577366769006 1.5367769537551053 39 38 43
1.2384719509233095 2.688724010883205 1.5731283880811304 41 40 45
1.2320968943924075 2.6738070379098904 1.576928958005447 44 43 49
1.2500573832865836 2.6571012286544 1.5728608587860613 49 48 54
1.297815629521966 2.6383449419808827 1.5591421241253183 52 51 56
1.3477099737336478 2.619606468233474 1.5447129386039071 50 50 53
1.3713512119160451 2.602812579361421 1.5387707749631865 52 52 54
1.3503236757417427 2.5890386020585274 1.5473016325598563 67 66 68
1.1973832314215733 2.583640581795182 1.5986345697940991 76 74 75
1.1203456161722065 2.5729869986351352 1.6253884350036274 109 108 108
1.1343296112052137 2.5565539428454827 1.6226083072831103 171 171 171
1.1580816922234556 2.5395951031148933 1.616648029384029 171 171 171
1.1306125094588422 2.525646414974068 1.6273350101149726 171 171 171
1.8624236897413669 3.9221129263970047 1.2420784426012497 172 172 171
1.8626417328365006 3.907647142881471 1.2436404547235624 173 173 171
1.845758292660765 3.8970615321181614 1.2504670573167527 173 173 171
1.8170446197109569 3.8890807879114297 1.260944489277391 151 152 151
1.8126202766205455 3.875577245254702 1.2639459245641596 84 85 85
1.8400394468526498 3.8550034350822164 1.2571270360992264 71 72 73
1.8785267138878605 3.832092480536987 1.2468812242675773 68 69 70
1.914339687241815 3.8098993591036083 1.2374461274454296 60 60 62
1.9403254220558201 3.789957892803579 1.2310338081709058 52 54 53
1.9554668171726293 3.7724352611769127 1.2279645612727628 59 61 60
1.966323914322711 3.755878336890995 1.226214929034139 58 59 58
1.9759310668602657 3.739624042394705 1.2248479344978302 48 49 51
1.9685034723425212 3.726971902717212 1.228754692762163 43 43 47
1.979024741157144 3.7105668651132806 1.2270998898075476 39 39 43
1.9752284667435158 3.6971484056274497 1.2298822591591316 39 38 42
1.9832958582544225 3.681294726326529 1.2289834785483955 37 36 40
2.016347112165768 3.6604105383575236 1.2203214537273297 37 36 40
2.0205994732684873 3.645424091876397 1.2205969227010955 36 36 38
2.0188649541137966 3.6316450513883343 1.2227324771678947 39 39 41
2.025229100960796 3.616263051534889 1.222348398980987 36 36 38
2.0202169473131337 3.603129082370062 1.22550409564468 35 34 37
1.9973212498004544 3.5934454159630196 1.234233765705027 35 34 38
1.9831022471126523 3.5820165172490266 1.2402671173727975 34 34 37
1.9972121408361043 3.565146070391583 1.2374681588621448 34 34 37
2.014243732505873 3.5477743456524977 1.2337515077976557 34 33 36
2.0290248186626503 3.530883293666439 1.2307310457132876 32 31 34
2.0544575698934615 3.5120719218355925 1.2243754298350367 33 32 36
2.060002414375324 3.496998156902054 1.2242297435409486 33 32 35
2.0733646251695665 3.4805240170140603 1.2216353402665283 31 30 34
2.0802127048272094 3.4652696388586275 1.2210754560556945 34 33 36
2.063936570089364 3.454162074254942 1.2277585159908309 34 33 37
2.043560301808033 3.4437229409445322 1.235733368751074 34 33 35
2.053571643802619 3.427902621188438 1.2341825414878496 37 36 37
1.9614448641023279 3.4297945246530266 1.2646915715567018 37 36 38
1.9614253707001996 3.4155873679206845 1.2663035718719424 37 36 37
1.9306197917023364 3.4066025869715926 1.2775920840623638 36 35 38
1.906549156266713 3.3963815798408326 1.2867743003177385 37 36 39
1.8964284766936501 3.3837606064428893 1.2915756379619499 36 35 38
1.8723160936007994 3.3734060300456368 1.3007868705835897 35 34 37
2.1818427072990816 3.30869219446996 1.204877706576809 33 33 36
2.145777591323973 3.300673859325667 1.2178109767962262 32 32 34
2.106026819470918 3.293118556665901 1.2319210294588179 30 30 32
2.0717605676824355 3.284562950691146 1.244315121898236 29 29 31
2.0364212968673323 3.27605692853158 1.2570614459624503 26 26 28
2.0304751505574314 3.2629021879051083 1.2605309617485116 25 25 27
2.124195980861079 3.2345484115828937 1.2324807018286812 25 25 27
2.1769279002680904 3.212691619333187 1.2173653961317639 24 24 26
2.215334686838604 3.193150404301292 1.2067656211487805 23 23 25
2.1151151586635235 3.1941368669830297 1.2400757757288294 19 19 21
2.0876623819165387 3.184198555146111 1.250353936364816 17 17 19
2.077277165491953 3.1717144555114607 1.2552280252639574 15 15 17
2.0696005390187073 3.158811025453214 1.2592462291758642 13 13 15
1.9578587340825584 3.160471815038262 1.2963226779802708 11 11 13
1.956303991510557 3.14648972577466 1.2984212256038794 11 11 13
1.9538986793475541 3.132619586035473 1.3007907737517748 10 10 12
1.9672561178083638 3.116613974210154 1.2981450153076735 11 11 13
2.103506296715654 3.0842758350399664 1.256362147229956 11 11 13
2.072589794952921 3.074401487254108 1.267788177153907 15 15 17
2.034418845325388 3.0653631254523948 1.281538979202051 18 18 20
2.0002009375090206 3.0556874699292567 1.2940435224519342 14 14 16
1.959083097977497 3.046766546457493 1.3087637944984711 12 12 14
1.9028487598369486 3.0395887632499363 1.3283281942930492 11 11 13
1.8615021366252933 3.030387741197406 1.3431564150176893 12 12 14
1.692880425111678 3.0364694308624722 1.398701825111875 13 13 15
1.679497069726564 3.023424368288073 1.40463913844327 13 13 15
1.62997442368099 3.014589024917684 1.422152609734755 15 15 17
1.5774445302063245 3.0059325487180284 1.4406487374549273 20 20 22
1.5585697448798586 2.9932495210034373 1.4483764437618722 25 24 29
1.5433124661355966 2.9800952007825607 1.4549510277756557 32 31 36
1.54002961684394 2.965562144443918 1.4576881345237829 40 39 44
1.5188021065779578 2.952976624050914 1.4661894185208664 43 42 47
1.5072840495735496 2.9392763137814013 1.4715787314571065 42 41 46
1.5194383993962561 2.9230363211070793 1.4693606706238813 41 40 45
1.4808566743716876 2.912112036984402 1.4834615810686262 40 39 44
1.5220266764747459 2.89290519677442 1.4719025308159763 41 40 45
1.5084521898437897 2.879341814665224 1.4779621568241557 43 42 47
1.607164203219411 2.8546448023690902 1.447834178389259 44 43 48
1.6615215629926503 2.8345928465928982 1.4319728559154017 46 45 50
1.6965202950873453 2.8165743141950266 1.4223375404446306 42 42 45
1.6888491728786912 2.8026702012584637 1.4264669923363145 34 34 36
1.650727179304186 2.791537401450597 1.4404381532030697 23 23 25
1.6135976259792353 2.780184678824789 1.4541032035923593 19 19 20
1.5860607882504805 2.7678569699281104 1.4646794143885202 19 19 20
1.5582243431572063 2.7554612871433486 1.4753632209969965 19 19 20
1.4938791950544852 2.7460718506016004 1.4978823788960414 19 19 20
1.4411263735453705 2.7354968203004786 1.516669658481536 23 23 25
1.2906146266114775 2.7327078003724012 1.5671781280824972 28 28 30
1.274012180519642 2.71871871429906 1.5742956380599291 37 36 40
1.3505068620984546 2.6974075575624514 1.5511941658549022 41 40 45
1.2734385003588347 2.688081576628558 1.5779491438387285 45 44 50
1.247408483032114 2.67468356865074 1.5881438044499023 48 47 52
1.2294311332756949 2.6606100767072083 1.5957293615065058 48 47 53
1.28193196533576 2.641461134911458 1.5803851153737425 50 49 54
1.3477899072777788 2.621566937606698 1.56067070251073 51 51 54
1.3561653000132319 2.6057926221981593 1.559660239724484 54 54 56
1.4578095333271706 2.583894376626726 1.5282381336713626 65 63 65
1.1536242584718686 2.5884248436932613 1.6291671510077401 75 73 74
1.1298049532069323 2.574375759741241 1.6386981497806397 109 109 109
1.1524438431991824 2.5574205531510676 1.6330644839946535 171 171 171
1.1670574389298056 2.5410186657986813 1.6300445985923138 171 171 171
1.1542499088953613 2.526241250464491 1.6359856501970358 171 171 171
1.8668185530993568 3.923736118576251 1.2557505404190423 172 172 172
1.8532919196079907 3.912414718610559 1.2615652555004613 172 172 171
1.841792931279886 3.9005869086525466 1.2667572680500516 172 172 170
1.822724857998157 3.8904260270421593 1.2742990392011768 139 141 140
1.8235100402474893 3.8757602049810522 1.2756925240452495 78 80 79
1.849151413078633 3.8555826960847766 1.2693738667852552 69 71 70
1.8836568193925305 3.8335437280582223 1.2602932040681707 64 66 66
1.912879511679003 3.8127794224474334 1.2528399467376643 57 58 60
1.9399273968850657 3.792588818777319 1.246051136477466 48 49 51
1.9428949364873225 3.7776692567326284 1.2467414969437047 47 48 50
1.9610490687205078 3.7595229538079344 1.2427040023919464 48 49 50
1.9601440093489555 3.7454713712961536 1.2445948701586396 48 49 53
1.993168272861111 3.7243010299504045 1.2359127375913688 44 45 48
2.0059280343016637 3.707461584661283 1.2335364521793948 42 43 44
1.9953119683338905 3.6954893834669744 1.2384487144761707 41 41 43
2.0185055048581764 3.6765657688328623 1.232809216409949 40 40 42
2.01471408388547 3.6631964729471522 1.23559086337094 41 41 43
2.016526150037575 3.648688307593068 1.2366222028879412 40 40 42
2.0219865206081638 3.6334601753813174 1.2365115249097043 39 39 41
2.0300499991474146 3.617737592949366 1.2355838289060552 40 40 42
2.036012900147905 3.6024554355232827 1.2353107453570864 40 40 43
2.0201923373552306 3.5914240551121472 1.2418618987266705 42 41 46
1.992766894535193 3.582571718234313 1.252058242357807 43 42 47
2.008209385843628 3.5654514568844498 1.2488141061929081 42 41 46
2.050713258159497 3.5432727041657253 1.2370671858798614 42 41 44
2.0605166345368593 3.5273641237502797 1.2355770785042648 42 42 44
2.0800663726779822 3.5096828120110315 1.2310190795719116 42 42 44
2.1119678650644005 3.489800708213337 1.2225679051086271 41 41 43
2.10654048838374 3.476824413237861 1.2258537247633061 41 41 43
2.0767893467117546 3.4682153534813356 1.2368024400726583 40 40 42
2.0663072455465903 3.4560638075731243 1.2416900414991958 40 40 42
2.045885691406694 3.4456343766933806 1.2497159999399123 40 40 41
2.053269008492626 3.430267097603991 1.2489762379456737 39 39 39
1.8966693509784465 3.443352679070337 1.300009042524053 39 39 39
1.8831808291399534 3.431336517601738 1.3058894639922134 38 38 38
1.8714605852099138 3.4189742591256187 1.3112160437807994 37 37 39
1.8495173775204943 3.4082914631708823 1.3197808659133803 35 35 37
1.8484265777182742 3.394063408260604 1.3217539520164898 32 32 34
1.8327191004831747 3.3822398341885305 1.3283566782348322 32 32 35
1.8884269739647705 3.3587251291017983 1.312333107172217 32 31 36
1.942250147420367 3.335708210082915 1.2968852804504152 32 32 34
1.9947436761866648 3.3130907390016264 1.2818381857790886 32 32 34
2.058768202881453 3.288836822784423 1.263109378621786 34 34 36
2.0848718295137854 3.2707225361601227 1.2564026395915484 30 30 32
2.075386427502471 3.2581911456211734 1.2609989378466286 24 24 26
2.14988732739529 3.232813841964575 1.238884096153505 24 24 26
2.1900282242674405 3.212878353615707 1.2276761120311668 23 23 25
2.2510641533840263 3.1899670615768434 1.2097977686895138 22 22 24
2.191747555386817 3.1850058209975805 1.2302482968774031 19 19 21
2.0901382328096596 3.186000348031396 1.264207625713099 17 17 19
2.0874843398423106 3.1724024008358196 1.2666336666685036 16 16 18
1.973791203152551 3.1745852201706772 1.304510705583065 14 14 16
1.960742409807658 3.162238941014998 1.3102809699385691 12 12 14
1.9517365409359648 3.1492876511356775 1.3147639062487042 11 11 13
1.948849767612113 3.1354678888117404 1.3172930948088932 10 10 12
1.9865982982799903 3.1161422480256213 1.3068184264613898 11 11 13
2.085086813251829 3.088836653768318 1.2768778836954808 11 11 13
2.05053940876314 3.0794089235680877 1.289527367557107 13 13 15
2.013806011236668 3.0701470993781275 1.3028911173674345 15 15 17
1.9759434125284407 3.0609042082698092 1.3166313725338683 12 12 14
1.943265869496845 3.0508748373624432 1.3287218200079614 11 11 13
1.9096888259599079 3.040845854977576 1.3411138444618216 11 11 13
1.8569616129557796 3.033060584033956 1.3596738432392652 12 12 14
1.7117393344635818 3.0363270265550844 1.4080008316066153 12 12 14
1.6659265160208232 3.0271916752542274 1.4243948090599254 13 13 15
1.6116831347851046 3.0188937307051282 1.4435211258249772 14 14 16
1.574065186897068 3.008476509153493 1.4573120066527507 17 17 19
1.5598766092967964 2.995246945171183 1.4635642470764851 23 22 27
1.55310848934506 2.9811323598201662 1.4674282359915876 29 28 33
1.5474352699540423 2.966873836499752 1.4709413428338647 37 36 41
1.5402866694830148 2.9527581088731494 1.4749330436702985 42 41 46
1.5120656971267574 2.940886586937244 1.4857372166821357 42 41 46
1.5301846304965778 2.924011522312245 1.4815679154424222 41 40 45
1.4414772368832138 2.918327883720118 1.5119553850628324 39 38 43
1.5245475351256625 2.8947420275562794 1.486764672560794 40 39 44
1.5459728970397606 2.8776526034214154 1.4815108741964131 42 41 46
1.6151974503220763 2.855906779063021 1.4607550572512555 44 43 48
1.665766123840327 2.836215535933523 1.4460228349199615 46 45 50
1.7802660455675399 2.8105924168485834 1.4105232745135103 48 47 52
1.7392691801319324 2.799952330025582 1.4254723520325219 43 43 45
1.6963038440799596 2.789352993881812 1.441076894375164 41 41 43
1.6650279622169235 2.777550178208546 1.4528976792416752 33 33 33
1.6613917155331976 2.76319079130058 1.4557391419626464 25 25 25
1.6420290756230735 2.7501865635107814 1.4637008951981327 23 23 23
1.6541989852056318 2.734430721356086 1.4613999863820295 25 25 26
1.3126280650540734 2.7482379252828544 1.574375908551851 28 28 30
1.30950870745665 2.7332073191981703 1.5771198742826802 36 36 38
1.319399991467734 2.7171261914618654 1.5756197820555053 45 44 49
1.321834492626373 2.7016639653370134 1.5765501850061416 53 52 57
1.310792550026762 2.687242846742262 1.5818819023755633 53 52 57
1.2685220963206165 2.675121381784906 1.5974253887420735 49 48 53
1.2700750513214087 2.659651712118968 1.5986522329881019 45 44 49
1.293396955074555 2.6426347440097335 1.5927543002215498 44 43 48
1.2688404696026105 2.6290340540613495 1.6025250371305702 47 47 50
1.2414400803294452 2.615542935491931 1.6132370149151007 51 51 53
1.1823982577657177 2.604053114460328 1.6343329277000822 60 59 61
1.145688658703263 2.5909208719954178 1.6481259318367263 75 73 74
1.1351006304285975 2.576023952038536 1.6533591929268223 117 117 117
1.1532416151025555 2.5593383441539173 1.6491610948357265 170 170 170
1.1648580644171829 2.5431033333306026 1.6470999033918774 171 171 171
1.1499276750231175 2.5284380738036067 1.6537630764786029 171 171 171
1.8712130186078788 3.9253596775693387 1.269424329559589 173 173 173
1.8401327697377423 3.9180641988544895 1.2807271847776307 173 173 172
1.8347471221524212 3.904818389022393 1.284038853189745 172 172 170
1.8212124099865434 3.8933939942395646 1.2898923570148744 136 138 137
1.8245091062472447 3.8781543393790145 1.2905018628059097 77 79 79
1.8461538911609843 3.858850100292334 1.2853841648356408 66 68 68
1.8743979572107377 3.8381671252008718 1.2781971626314956 61 63 63
1.9118051276270447 3.8155789857794895 1.2681358904972908 55 56 59
1.9277035520814256 3.797789130647296 1.2647846084034473 48 49 51
1.9276816772679233 3.783482541997 1.266407628035558 45 46 48
1.9165211588558861 3.771555294487036 1.2715174389969786 48 49 50
1.948100764503017 3.7505383914347186 1.263243541130007 46 47 52
1.9756002315486503 3.7304891947726757 1.256236014299072 42 43 47
1.9881713210110372 3.7136463404778097 1.2538996272386949 40 41 43
2.004596180644106 3.696052015857982 1.2503487716686057 32 32 35
2.0276301906833076 3.6771618448872934 1.2447159236183032 31 30 33
1.9729750442381648 3.6741322892481625 1.2634855094580675 33 33 35
1.9827278530067782 3.657943759237086 1.2620254373379365 33 33 35
1.9994515826183012 3.64039839825809 1.25836828568757 34 34 36
2.0090023165488864 3.6243316751562995 1.2569625891908438 36 36 38
2.015860511327953 3.608827308885474 1.2564011986728305 39 39 42
2.000047175523348 3.597755969859702 1.2629830896517427 41 40 45
1.9707799598611602 3.589223407094354 1.273814368973054 40 39 44
1.9968647561476889 3.570019785174641 1.2671883198570144 40 39 44
1.587156596122766 3.6333751393366884 1.3981702625335337 40 40 43
1.6501436373679033 3.60667956491475 1.3799483675392925 41 41 43
1.7155494712078043 3.5797541620292086 1.3609369101395976 40 40 43
1.7778331937255674 3.55363120064549 1.342887479927484 39 39 41
1.8500514841281064 3.525914187614494 1.3216685401689512 37 37 39
1.9203610453695839 3.498793266472184 1.301025828332544 35 35 37
1.8381113086219194 3.499199732803131 1.3287111399549634 33 33 35
1.9323802473009568 3.4680607461650994 1.3004440761892442 31 31 33
2.077366168149477 3.428355535459016 1.25604472536118 31 31 32
1.9193172253136184 3.4417707560409467 1.3078173185940045 30 30 31
1.811886908415849 3.4459378469417548 1.3435677940855801 29 29 30
1.7993956291950575 3.433578133360848 1.349175121057026 28 28 30
1.8017451277497885 3.41867647249123 1.350065813098541 28 28 30
1.8000935345044884 3.404450982623534 1.3522291479774098 29 29 31
1.822850087414934 3.386194214415256 1.346618316779371 31 31 34
1.8737681494239142 3.363420332140284 1.3320227060253917 32 32 36
1.9113592647251751 3.342976256182864 1.3216572859931826 35 35 37
1.962577452662328 3.3204862020762764 1.306928432432247 38 38 40
2.0201556096214945 3.297169459139189 1.2901486180602213 40 40 42
2.0671473531245113 3.2757079199113415 1.276728596710823 36 36 38
2.0447689265709195 3.2651331812473754 1.2854678839951823 27 27 29
2.0823215759827436 3.2453217581856095 1.2750439875234034 23 23 25
2.187420695994355 3.2154341779251343 1.2429841125182612 23 23 25
2.284284572861007 3.1871417339946237 1.2135206824546496 21 21 23
2.1901851496692935 3.1873816469388876 1.2452200277831236 19 19 21
2.1630135506035497 3.177530624766589 1.2554936454875787 17 17 19
2.0849192744600917 3.1749290229499625 1.2821176088433777 16 16 18
2.080301236741848 3.1615907729733737 1.285180910188344 15 15 17
2.0738179295771895 3.1485000355464505 1.2888451517310047 13 13 15
1.9561809724946753 3.1508378753578703 1.3282434621978547 11 11 13
1.9482799821306633 3.1377065153890786 1.3323902754651855 11 11 13
1.998684097872422 3.1166463880426774 1.3177744116650576 11 11 13
2.0665614178812812 3.093423688419263 1.2975115246002047 10 10 12
2.0318353326561573 3.0839882865112895 1.310285266965189 11 11 13
1.9930076823780674 3.0749683578321347 1.3243949682214282 11 11 13
1.9555867246313743 3.0656341807763288 1.338065878957145 10 10 12
1.927006594976 3.0550497816304607 1.3488972153248666 10 10 12
1.9227263918701007 3.041326243733577 1.351890123392466 11 11 13
1.8567944080704182 3.0351984078557224 1.374811682065074 11 11 13
1.521587272715875 3.061613656166884 1.484846605981633 12 12 14
1.5006502108058908 3.0491681936916155 1.493311185652791 13 13 15
1.5304764628548646 3.030649189320228 1.4853463582730984 13 13 15
1.5684123947317312 3.011289539672349 1.4747422159731713 16 16 18
1.5492622120516173 2.9986145453124062 1.4826302548316206 21 20 25
1.5441745374741616 2.9842846035789683 1.4859638901668162 26 25 30
1.548339318681094 2.9689081217411455 1.4862961654531768 33 32 37
1.5438564838278528 2.9544948433975335 1.489435285027216 39 38 43
1.5197779452858429 2.942180863072484 1.4989441925687461 42 41 46
1.5163660727259032 2.9275911917153628 1.5017421479725832 42 41 46
1.4427006898955277 2.9203259977044285 1.5273995313266144 40 39 44
1.4478374651891897 2.9047156887696177 1.5274304964703764 40 39 44
1.531133487671652 2.8812336836727956 1.501998343192224 41 40 45
1.5935916063396918 2.8601082687110937 1.4833257404328304 44 43 48
1.6399827702478675 2.840766247758597 1.4698688523255592 47 46 51
1.864054109404809 2.804568867201197 1.398409025495451 48 47 52
1.8215394712602833 2.7942175147378077 1.4139121845772533 47 47 49
1.7899987013811411 2.782707247145966 1.425846284946274 52 52 54
1.6390691462739828 2.781904454565433 1.4768241562143383 59 59 60
1.7675291210273172 2.755754078914782 1.4364659230573862 60 60 61
1.770347851422431 2.7409962806487833 1.4371821630871475 60 60 62
1.4259995748874357 2.7559004317888856 1.5515990514777498 64 64 66
1.3921860388347516 2.743630211483161 1.5643852562523928 62 62 64
1.3483913520130526 2.7320623240863586 1.5804573782755789 59 59 61
1.3698694575555725 2.7151075123143142 1.5751305566657292 56 55 60
1.3703860059878343 2.6998734920778795 1.5766767771517614 55 54 59
1.3521966580284541 2.686078523115912 1.584367341062674 48 47 52
1.3038078697952766 2.674488343574013 1.601990921776186 45 44 49
1.2736167222807122 2.6613978823755993 1.6136484366368118 42 41 46
1.3139450944171291 2.643155173174535 1.6021115261156795 41 40 45
1.2458666460448504 2.6326275083248247 1.6262536570655532 44 44 46
1.2643325213219536 2.6159681781007875 1.6219090663229758 49 49 51
1.1873422654487191 2.605714104729727 1.6490249939491286 61 60 61
1.158612656044138 2.592073140913775 1.6602519068382953 76 74 75
1.1344939691751386 2.5780437996967733 1.669968066597827 129 128 129
1.1293577183080385 2.5627697429355294 1.6734246988468136 171 171 171
1.1074091246021354 2.548479786240397 1.68243862415704 172 172 172
1.1688293326251822 2.52929674957405 1.6638966090398462 171 171 171
1.8763743007094882 3.926806217067936 1.282859755484973 173 173 173
1.8600660389686214 3.916131330248484 1.2895933495626613 174 174 172
1.8430965243661726 3.9055513812200666 1.296540390063202 173 173 171
1.8239572115319045 3.895403852782967 1.30417417345086 136 137 140
1.8316854627897499 3.8791655887259893 1.3033874712216442 77 78 81
1.8533968250253026 3.859843701684716 1.298208622866437 67 68 71
1.8747476955445892 3.8406778924171134 1.2931343609681274 61 62 65
1.923282679234005 3.8156327607979623 1.2795084367594332 51 52 56
1.9587919175842687 3.7935878963572587 1.269959522775725 43 44 48
1.9715005902567895 3.776582565127268 1.2675710577968948 42 43 47
1.9959909648349639 3.757103081769423 1.2614679180898738 42 43 46
2.019156181529469 3.737990756328042 1.2557725565740192 35 36 41
1.980555642576513 3.7319529725022567 1.2695397214224935 28 29 33
1.9970886465013094 3.7142799783741647 1.2659301852889269 28 29 32
2.0320893740100887 3.692844690672182 1.2564848397659376 25 24 29
1.9630108014294414 3.6928839157471294 1.2798979858049686 25 24 29
1.9652641354728335 3.6781743373925737 1.2807946994171509 28 27 32
1.9706244194601954 3.6628470018094372 1.280707899551107 29 29 32
1.9987523657304127 3.6429870793962116 1.2734145747757442 29 29 31
2.010356193312594 3.6265010198880883 1.271342029736248 29 29 31
2.012908107506173 3.611834697780771 1.272132641666236 34 34 36
2.0046471603055025 3.5992838950126913 1.2763499789856518 35 34 39
1.9928998139711265 3.5873783088538613 1.2816763627778587 35 34 39
2.0028225881818154 3.5712882482206822 1.280128988271336 35 34 39
2.0433051506441706 3.54944167638123 1.2688717362453055 35 34 39
1.6397180269791491 3.6111301862695107 1.3987232783218053 36 35 40
1.702145896716961 3.5847130229608215 1.3805425694122326 37 36 41
1.7636210272607409 3.5586891437411308 1.362640439659093 35 34 39
1.8269917090153087 3.53253349958321 1.344110594933862 33 33 35
1.8076965848776658 3.521549246951875 1.3518916575743143 31 31 33
1.899859603572235 3.4905346981446606 1.324149767256721 30 30 32
1.9972083032371784 3.4589210149127085 1.2947175731416838 29 29 32
2.08247192640726 3.4297687775443344 1.2691043319028041 27 27 31
2.0965948056577832 3.4132858868174902 1.2661774728744042 27 27 31
1.7485351251068844 3.459214806183947 1.3789843911447557 27 27 31
1.7332706003528495 3.4472129682699078 1.3855139613117047 26 26 28
1.753172022687386 3.4292261985015093 1.3807979570737037 28 28 30
1.7582891219812546 3.413778199674571 1.3808072185003897 30 30 32
1.8154796814182497 3.389743920619345 1.3641329448279589 30 30 33
1.8694758721714495 3.366431281867902 1.3484600919534406 32 31 35
1.9151994352062098 3.3446452229033468 1.3354193140160109 32 32 34
1.9735841172262718 3.3209922883245815 1.318297183165728 31 31 33
2.0251415467076797 3.2986236047363064 1.303344503312636 30 30 32
2.065167707496461 3.2782402266275907 1.2920767883660051 29 29 31
2.0407518329040935 3.267975435828776 1.3015125594309545 26 26 28
2.0915740838832573 3.2461067647900985 1.2867526570789518 23 23 25
2.2138154861213133 3.2136034106550384 1.2489822957016052 23 23 25
2.1776690976232884 3.205227758026472 1.2621814321293277 21 21 23
2.1841359872031774 3.1904244897396907 1.2616603310205419 19 19 21
2.1719711125788415 3.1783683633884667 1.2671452512931736 17 17 19
2.0851059281181112 3.1770620185006213 1.296739946739891 16 16 18
2.082865561628705 3.163377760030854 1.2990442705266454 15 15 17
2.078363323367334 3.150005653480895 1.3020801274036082 13 13 15
1.9752946356278875 3.150345419592418 1.3369819633963407 11 11 13
1.9593786410209137 3.138343196851424 1.3437324247037503 11 11 13
1.982413153993197 3.1209974740496333 1.337881936553857 11 11 13
2.088509303585343 3.0925967200655182 1.3051216511516768 10 10 12
2.0752133738942007 3.08036414799278 1.3110099173666514 10 10 12
2.021969902232718 3.0733038825625774 1.3298564531498978 10 10 12
1.9846886756429165 3.0640031897199838 1.3435447281955566 10 10 12
1.9473298958379281 3.054584317876264 1.357272635160351 10 10 12
1.9056213194149523 3.0455826701433653 1.3724280180716777 10 10 12
1.8662066115727702 3.0361539775341555 1.3868539914841849 11 11 13
1.4376836619326048 3.0740422011221433 1.527845615102265 12 12 14
1.4857683399553254 3.053150221474171 1.5139034870111348 12 12 14
1.474890464200472 3.0394122432648953 1.5191419832242077 13 13 15
1.5206818979197418 3.0190209415513007 1.5059207404286818 15 15 17
1.5247253744635358 3.003591458947781 1.5062918686748783 18 17 22
1.5271407206271368 2.988361506737993 1.507192406302004 23 22 27
1.5409593783400348 2.9718686959798317 1.5043697979932722 30 29 34
1.5312850069505788 2.958005279550349 1.5092144682599355 37 36 41
1.5103288091850744 2.945329179341862 1.51774962921228 40 39 44
1.52039542027343 2.929281359829447 1.5161487254538704 42 41 46
1.5236562189593468 2.9139816841590185 1.5167705266451865 41 40 45
1.4716412550660267 2.904383625129275 1.5354870956652231 40 39 44
1.4894582142965902 2.8875400477074367 1.5313486654285267 40 39 44
1.5686919497993719 2.8646501784619103 1.5070725802482843 43 42 47
1.616023846120624 2.8451533700963236 1.4932281409820647 47 46 51
1.8926851964916058 2.803803269443053 1.404108281275827 48 47 52
1.8629359896479976 2.7922995623325018 1.41549191077838 48 48 50
1.8260639465408695 2.7813532936380945 1.4292272451281027 48 48 50
1.7086269174476763 2.7775979595898894 1.4694622394924801 50 49 53
1.6075291821739053 2.7719819976011513 1.5043682776582035 53 52 56
1.5486221111521359 2.7623315302376903 1.525427181296418 53 52 57
1.4635604397653519 2.754718486972755 1.555122462411462 54 54 57
1.4177707391476053 2.7435171259277054 1.5719096725226978 54 54 56
1.392765556981307 2.7304504290891014 1.5818615307449488 52 52 54
1.4075272426630345 2.714098823633043 1.5787032958685847 48 47 52
1.4095494245177362 2.6988023027771924 1.57974463090333 46 45 50
1.3801726625758324 2.685931711939375 1.5911563119803782 45 44 49
1.3200467390189852 2.6752754531819836 1.61274195120941 45 44 49
1.290644837868732 2.662152846741652 1.6241906049686754 40 39 44
1.2604864642701448 2.648984124669698 1.635900908290328 40 39 44
1.234081774079642 2.635449230606268 1.6463800541403513 43 43 45
1.2726983187677954 2.61737872653618 1.635329093109664 48 48 50
1.2244288359564988 2.605233101609621 1.6530635468804766 62 61 63
1.1963981432017823 2.5916080638043923 1.6641040826391054 79 77 78
1.146120994794523 2.5792931470318963 1.6825382449220603 139 138 139
1.117443039147205 2.5654781713880963 1.693819644659659 172 172 172
1.1083333003293419 2.5503963218369656 1.6986104561861215 172 172 172
1.1259847752279861 2.533731630019183 1.6945079302590322 171 171 171
1.8807612289591056 3.928431828822192 1.2965376708115337 174 174 174
1.864157172208333 3.917829227229186 1.303393566488432 174 174 173
1.847194633301247 3.9072516643829793 1.3103688220959646 172 172 172
1.826244541832414 3.897518573995787 1.3186078998655804 143 144 147
1.8170607407725141 3.8850712901255897 1.3231428425281262 82 83 86
1.8506231047186434 3.863067843116771 1.3141865600044669 68 69 72
1.8745571489651325 3.843310909158277 1.3082584825847252 63 66 68
1.9096525519265435 3.8211899121620934 1.2987929424798943 50 53 55
1.939383391445876 3.8003593884456883 1.2910102343719503 37 40 43
1.9671709452700539 3.7800527660613787 1.283830754777584 33 36 40
1.9933670147092062 3.760184565931545 1.2771442417861694 33 34 39
2.0634401018281348 3.7310887818864664 1.2565439805851502 29 30 34
2.125209828202406 3.7039867991232587 1.2385488427492826 26 27 30
2.1477481116454387 3.685297071664358 1.2329760606157496 24 24 26
2.2189490734216917 3.656604190219026 1.2119459037620284 22 22 25
1.984975219037088 3.6908590532244485 1.2878281494573565 22 22 24
1.965602708362009 3.680584110729063 1.2955906719790828 25 24 27
1.96744665262485 3.6659575970443523 1.2966128338669645 27 27 29
1.9854392828066363 3.6481048615566958 1.2924949420493936 30 30 32
1.9872453897152234 3.6335287664168407 1.2935243105681247 34 34 36
1.9886959075614739 3.6190299350019384 1.294666159153329 36 36 38
1.9962402794498142 3.6033486654455897 1.2938644109872595 37 37 39
1.9767299244484906 3.592924177899577 1.3016907932929773 36 36 38
1.9772732748703448 3.5785914830002006 1.3031230931991562 35 35 37
1.580404394331878 3.6396996516545244 1.4314962531616588 35 35 37
1.6438865484930711 3.6128448521152867 1.412889553123387 35 35 38
1.698040079799405 3.5879499321636965 1.3972412566478603 34 34 37
1.7580106033795055 3.5621701815766396 1.3797101433570849 32 32 34
1.837943245873301 3.5329490227021885 1.3557634842027868 32 32 34
1.9122762596284066 3.5050207179252615 1.3335795084010744 30 30 32
1.9442816913816006 3.484945369050873 1.3249363003549552 29 29 31
2.0387982735637635 3.4538756180758874 1.2962274476714901 27 27 29
2.053852049581561 3.437115385806623 1.292987946775087 21 21 24
1.901537380971374 3.44956434792901 1.3434982168560996 21 21 23
1.6479028837444107 3.478960121257189 1.4266299939732836 22 21 24
1.6512796665364347 3.4635967601554243 1.427212856564213 20 20 22
1.7474004985616933 3.4325726693213063 1.3979520558326763 23 23 25
2.206552281274924 3.3411615391152996 1.2517700883661884 27 27 29
2.179145982090048 3.331883395721729 1.2621583681068693 26 26 28
2.1383825264850325 3.3246989975698567 1.2768630361473268 24 24 26
2.1029903451083642 3.3165037378858124 1.2898510296806087 21 21 23
2.1007566867976646 3.302870572343017 1.2921509053654898 17 17 19
2.0831040233142857 3.2916759866778382 1.2994310174128059 17 17 19
2.0665867176815853 3.2802431001226706 1.30635104535173 24 24 26
2.0458587850534253 3.269407113746318 1.3146388679324188 26 26 28
2.0704318560876867 3.251551540419496 1.3082784081687746 23 23 25
2.146144081057605 3.226026585480622 1.2853531130604734 22 22 24
2.1676872703543864 3.2088863113689756 1.279944639038028 21 21 23
2.1782768382871085 3.193444932164119 1.2780778887871607 19 19 21
2.153053290836841 3.1832863271404683 1.2878215591348952 17 17 19
1.9700013378901562 3.195882801718788 1.3487917280921646 16 16 18
1.9869287442193628 3.179250641164387 1.3448991626253752 15 15 17
2.018059158408482 3.160671874552547 1.3363853022847212 12 12 14
1.99565217419278 3.149671827095228 1.345263930435657 10 10 12
1.975125466297681 3.1383360629421495 1.3535395689756984 10 10 12
1.9800498089967185 3.123467313025597 1.3535391400631673 10 10 12
1.9432008364864206 3.0572260959306594 1.3735743644682175 10 10 12
1.8792932482406912 3.051009358050948 1.3960583125195334 10 10 12
1.8710062452937708 3.037678874183299 1.400387261356221 11 11 13
1.4219860160185713 3.0781808065715848 1.5488612603268705 12 12 14
1.4634407830798009 3.058039348317685 1.537004786085041 12 12 14
1.4608390781868907 3.043273912037095 1.5395578882075844 13 13 15
1.488166029588998 3.0249985335392977 1.5323061678908627 15 15 17
1.5146307247970507 3.0069182396842105 1.5253263243773842 17 16 21
1.5205560560566393 2.9912628869717706 1.5250734878538437 22 21 26
1.5375093332639385 2.974395976006757 1.521198596945853 27 26 31
1.531845974045672 2.9600786630705134 1.5247446659916917 34 33 37
1.512342507987325 2.947242518703958 1.5328408644355789 40 40 42
1.5158658990626206 2.93188463359915 1.5333731388337941 42 41 46
1.518681242357058 2.916614287888108 1.5341368662573807 41 40 46
1.5025888792748785 2.9033054325948116 1.5411237659265746 40 39 44
1.483071729986508 2.8902893780015035 1.5492449317033787 39 38 43
1.5110980471245572 2.872466387013971 1.541703784863742 41 40 45
1.5355481765617518 2.8550918171779682 1.5353309457347593 46 45 50
1.5367051738679423 2.840044844767711 1.5366346980299426 49 48 53
1.7416115737547817 2.8057445741688554 1.4706649754055807 48 48 52
1.7292784740710097 2.7923118450707483 1.4763845412049061 47 46 51
1.7289461270823738 2.777744703159535 1.4781417734380393 47 46 51
1.6433809337832272 2.7707915083348955 1.508090646788485 47 46 51
1.541108884677931 2.765007064355002 1.5436020144040579 49 48 53
1.4776175883765887 2.7555397776276105 1.5663109089990872 49 48 53
1.4486197312664295 2.7429515651270227 1.5776152111881119 53 52 57
1.42730757256101 2.729630745552787 1.5863825847341007 53 52 57
1.4381317873367596 2.713644283745073 1.5844973716091948 48 47 52
1.4161325396729745 2.700288080733185 1.5935029268264669 45 43 47
1.3920010368386126 2.687021600761816 1.6032251178092316 44 42 46
1.3359856183272922 2.6760801776750704 1.6235522836185363 42 40 46
1.3239024271546016 2.6617050968697966 1.6292930179842704 40 38 44
1.2661153592749397 2.650582254726945 1.6502445094527944 40 40 45
1.249712653459062 2.636350645597766 1.6574413229470855 44 44 49
1.3402765102823588 2.614726272787093 1.6290137786123666 53 51 54
1.275036568758719 2.6038338505990875 1.6524795159811818 65 62 64
1.1917794237208055 2.5938907549794528 1.6819791314894206 92 89 90
1.1295233049513682 2.5823294532384193 1.7045033433096952 112 112 112
1.094480395688927 2.568875593185067 1.7179657423970516 168 170 169
1.1070976166689839 2.55244424275952 1.7155196053956554 172 172 172
1.1498445528707817 2.5343031222642733 1.7029969607777453 172 172 172
0.6324109933680575 2.547963070270456 1.8778182857667638 172 172 172
1.884591919755381 3.930186683515434 1.310393255236828 174 174 174
1.8352827475207687 3.9271131856599686 1.3276375698734957 173 173 173
1.8550193476753774 3.9081013904494175 1.3230189291227812 173 173 173
1.8286446090034554 3.899609369254864 1.333015220276293 157 159 159
1.8140397121049727 3.888379734842261 1.3392869927424917 93 94 94
1.8607800783908126 3.863411315325378 1.3260865300721583 75 77 77
1.891529298297924 3.842147114391121 1.317948121404955 68 71 72
1.908906364145778 3.8239283597075286 1.3140485935927888 54 57 61
1.9121783811344961 3.8088449844029046 1.314628953798767 40 43 48
1.9667729093594593 3.7826786287277754 1.2988721230827773 34 37 43
1.990748958844599 3.7632693407646736 1.292845524456117 34 36 41
2.0482827029274393 3.73680634959486 1.2761149298003678 31 32 37
2.082818390740078 3.7153964256309386 1.2666953903013698 27 28 30
2.12331723450799 3.692859912646677 1.2553594555231151 22 23 25
2.168101583667533 3.6695760043696377 1.2426392544494596 21 21 23
2.2144001416387895 3.6461372498834193 1.2294176238055003 21 21 23
1.8277261224645684 3.711195083410122 1.354585987722913 21 21 23
1.878727243786957 3.6863764172441886 1.3399085282685257 23 23 25
1.9823750412985786 3.6511781661942853 1.3083607509490205 24 24 26
2.0117887076499414 3.6310993199879325 1.3005462920156083 31 31 33
2.024354949984474 3.614443798904276 1.2981190107687186 35 35 37
2.0349148587309576 3.598224864737786 1.2963300188401725 35 35 37
1.8683849307266263 3.616326799345649 1.3513553659619322 35 35 37
1.8406409624528957 3.60722438063069 1.3618897355019728 36 36 38
1.8399761201985951 3.592878392984229 1.3637360147642612 35 35 37
1.6909769754518011 3.6064743536389408 1.4132621457156547 30 30 32
1.7323893170698677 3.5840147531618385 1.4016044908450662 24 24 26
1.793724009598729 3.558016307170026 1.3835189554822684 18 18 20
1.8857719993976105 3.5266062330684904 1.355518908844174 17 17 19
1.944087794253465 3.501637037515659 1.3383517931095719 15 15 17
2.011889084220534 3.4751669051177188 1.3181034569393388 14 14 16
2.1495027113532506 3.436509482478326 1.2753063031430614 15 15 17
2.2156342142448007 3.4109277723740603 1.2555299524722794 14 14 16
2.308190371055662 3.3809659297114534 1.2271923813004433 14 14 16
1.6486055705986287 3.481259659430344 1.4419083786720213 14 14 16
1.6123514410366693 3.4726653594931354 1.4553017401942199 15 15 17
1.6184490874981543 3.4567769779671913 1.4550046129542225 15 15 17
1.6853858688705516 3.4307176121040395 1.4350061912715804 15 15 17
2.1821205874866036 3.333627618336687 1.275735253003357 14 14 16
2.1459939865078956 3.3256908249083463 1.2890107354332585 13 13 15
2.1226785999720486 3.3155499059770803 1.2981446494664328 13 13 15
2.112997303937623 3.303139407955466 1.3028623909297052 15 15 17
2.093203909856834 3.2923027998326653 1.310867850839732 17 17 19
2.077750201783957 3.280716610690717 1.3174707240836323 23 23 25
2.050198661175484 3.2709577841139637 1.3280132041536303 27 27 29
2.051925954813925 3.2566053087513698 1.329040463167475 24 24 26
2.0985761845717126 3.235434768103213 1.3154424301945538 22 22 24
2.2140899061186214 3.2040841803534867 1.2793942881500402 21 21 23
2.1636182253947265 3.1977774053029613 1.2974017416478398 20 20 22
2.1397906489240044 3.187387198639826 1.3067392996179206 18 18 20
2.133409386974421 3.174385786359923 1.3103928288315236 16 16 18
1.9685734997155884 3.1840630619388723 1.3657880818829269 15 15 17
1.9666191772035952 3.1701181479567504 1.3680310010973178 12 12 14
1.9740520233256353 3.1548552458789856 1.367205755592687 10 10 12
1.9656597470869999 3.14180389638206 1.3715540655041827 10 10 12
1.4291675843369052 3.079528192454437 1.5624282240397867 12 12 14
1.4565211311986723 3.061082189500134 1.5551355300948695 12 12 14
1.445028447828876 3.047354569031891 1.5606226007222728 13 13 15
1.4812001361843317 3.027998923439757 1.5504106722386115 13 13 15
1.4787046614179808 3.013236938523069 1.552931215013505 16 15 19
1.536223726355476 2.991637743296067 1.5356569400875608 19 19 22
1.540745071218714 2.9761781962760545 1.535851610691545 24 23 26
1.530962182648545 2.9623136609358824 1.5407682041838238 32 31 34
1.517175821330635 2.948851118812838 1.5470113818922895 38 38 41
1.5093617871832936 2.934703627221495 1.5512851977720143 42 41 46
1.5299096558975336 2.91754810855742 1.5461791300118826 42 41 47
1.518159975885001 2.903804747079649 1.5517560456907773 40 39 44
1.5046625676316034 2.8901994929235713 1.557916303248268 39 38 43
1.554684664127655 2.87019982351572 1.5430306855960711 40 39 44
1.5595662116660087 2.8548080435657552 1.5430942745209761 45 44 49
1.5127748720103351 2.8444200744787556 1.5603009467518292 49 48 53
1.4944723166019545 2.8311716896279147 1.5680676020176223 49 48 53
1.5609867075134294 2.8099707019852804 1.5476658283428204 48 47 52
1.8084918094679256 2.7724769274270127 1.467079095985033 47 46 51
1.7050804570979157 2.7672713663829054 1.5031040150924835 46 45 50
1.6758611814608348 2.755192193228256 1.5144797756854185 54 53 58
1.57410487959214 2.749258987811298 1.5500196211054644 54 53 58
1.5556365207440366 2.7359471400582898 1.5578502545225668 53 52 57
1.5605442375045 2.7206404749500255 1.55789527335733 48 47 52
1.5306110180424888 2.708171151041522 1.5695597076826993 47 46 51
1.4662219988538898 2.6983279135384732 1.5927354092772974 41 40 43
1.3755953715430937 2.6902954445001575 1.6246980969318163 38 37 40
1.3406858468876555 2.677731113909983 1.6380785610041018 38 37 42
1.3148815634656397 2.6643733487136347 1.6484282953501548 43 41 47
1.2774253090020449 2.6517695869067186 1.6626859372437444 43 44 49
1.2217821308949426 2.6403204177807322 1.6830457327119321 46 45 50
1.281199910040669 2.620761898964525 1.664890574940674 52 50 54
1.3881923404102978 2.5982182045101534 1.6307690101786885 70 68 70
1.2797945539631166 2.5901232753298586 1.6688286767961815 99 97 98
1.1650953706045153 2.582055732781435 1.7090446560798802 86 86 86
1.0180909241744809 2.575592675146542 1.7601501954975094 143 143 143
0.8958019488529629 2.5671354338242365 1.8030110563774562 172 172 172
0.7758412476491381 2.5581206529364255 1.8451369486446363 172 172 172
0.6735342691838276 2.547691188811183 1.8813727501693494 172 172 172
0.606720972649467 2.5349575219158442 1.9057053030282527 172 172 172
1.870888692446566 3.9360129507693857 1.329834394652 174 174 174
1.8322805811462284 3.9304569904947853 1.3437627497805855 174 174 174
1.8466275437202873 3.91265767874971 1.3408270989398106 173 173 173
1.8291254602852682 3.902137271108087 1.3480436048718025 168 170 169
1.8129203549708046 3.891264888822451 1.354852953586148 122 124 123
1.8604134950014806 3.8661030564836625 1.3413276713141051 85 87 86
1.8929264676386586 3.8444290112319566 1.332570210009164 77 80 79
1.9267221747448344 3.8225870044540846 1.3233897464569147 69 73 74
1.9370789469851781 3.8059789722595707 1.321694499239107 57 61 64
1.9668862542082972 3.7851969852059275 1.3137686255235146 45 49 53
2.000004015467071 3.7638088107341576 1.3047705549067516 46 47 52
2.029152113684958 3.7433825249565427 1.2970316855834847 37 38 42
2.0637691771569515 3.721903204749026 1.2875273349203238 28 29 32
2.0992548095049677 3.7003633493422066 1.2777305605366955 23 24 26
2.1413038839373177 3.677584080836284 1.265812240576139 21 21 23
2.1875939648084337 3.6540781994807574 1.2525146988573104 20 20 22
1.9491144342193243 3.6889189782135 1.3307495452862796 21 21 23
1.941150815075599 3.6762327270938098 1.3349239921207539 21 21 23
1.9525464641600574 3.659631622522688 1.33287003620497 21 21 23
1.968252587216175 3.642212944860402 1.3294231828877905 23 23 25
1.9793748080161238 3.6257546204153326 1.3274473297490934 25 25 27
1.937098096856037 3.619782274990827 1.34268659747428 25 25 27
1.9146352811873033 3.6098222656483148 1.3515490396679657 26 26 28
1.8858777761153698 3.600994710459986 1.36245249575782 27 27 29
1.7812762771226542 3.6065097974826923 1.397869195950165 26 26 28
1.7747953398660417 3.5931495283196844 1.4016088235523911 23 23 25
1.7649308859861301 3.5804002786465667 1.4064452755866128 18 18 20
1.7850313049023434 3.5620683686123567 1.4015874336181446 15 15 17
1.8358097848591592 3.5381791803852694 1.3867867181926794 14 14 16
1.8758432254428774 3.5164201251004075 1.375447794199425 13 13 15
1.979575960235218 3.4833363452103105 1.3434395251519673 12 12 14
2.0745743998424717 3.452170922397999 1.3142241631181726 13 13 15
2.1595002798022547 3.4231145118473765 1.2882412829425376 13 13 15
1.767425042462689 3.4777208958772676 1.4171658240414398 12 12 14
1.716603511621472 3.4719171480414404 1.4353300507464428 12 12 14
1.7210311750232519 3.456473792965873 1.4355462288251541 12 12 14
1.7074576435370181 3.4440991880028142 1.4416183294414249 12 12 14
1.7194183532334975 3.4273932057054832 1.4393815192522044 12 12 14
2.177221803016827 3.3366804587329266 1.2918834013222897 12 12 14
2.1371189427015898 3.3293906014972383 1.306522290522608 13 13 15
2.116435168326996 3.3188046299448883 1.314842388279211 13 13 15
2.1023882868225603 3.3070800984575386 1.3210042603221757 15 15 17
2.097563691371629 3.293840132311397 1.324159656000286 22 22 24
2.0776902022781907 3.2829532322853536 1.3322345214826914 28 28 30
2.0511825340253695 3.2730311003605688 1.342486277428947 32 32 34
2.043338508465676 3.2601449518236443 1.3466420641409753 24 24 26
2.0936976119800574 3.2383740423678344 1.3317469447425845 22 22 24
2.1844564617267865 3.2107001862292175 1.3035984933441944 22 22 24
2.1310412101059244 3.20478530644233 1.3226688757380463 20 20 22
2.105099915208698 3.194647528780101 1.332749817205992 18 18 20
2.1416175120138985 3.175347986444934 1.3223448412666352 16 16 18
1.9685112412604588 3.1862623337832976 1.3807547882179303 15 15 17
1.9785986566320024 3.17060208155855 1.3790454556111114 12 12 14
1.9777892351370436 3.1565040056576734 1.380914266108253 10 10 12
1.951365934870112 3.1459470665764524 1.3912085461101065 10 10 12
1.4470854495890055 3.0644355048088525 1.5741424720713266 12 12 14
1.4777184862083566 3.045662148292584 1.5657055800474198 12 12 14
1.4757646699727696 3.030825512453591 1.5680519649091527 13 13 15
1.5433641646404954 3.0079301351889005 1.5473437747825285 13 13 15
1.52640098659171 2.994914455478464 1.5546560191692975 17 17 19
1.542065243476483 2.978176452346752 1.5511468257334966 22 22 24
1.5427053300041296 2.9631552413908735 1.5526203411488386 29 29 31
1.523822595568764 2.950262417282609 1.560580080897726 36 36 38
1.5174820039826393 2.9359617353787812 1.5643774116587212 41 40 45
1.5414354900725962 2.9184475498599114 1.558099840174471 41 40 46
1.5590734643079982 2.901672055040537 1.5539148640515914 40 39 44
1.2957051805584134 2.913599819202929 1.6433087687996113 39 38 43
1.3393419930325758 2.8938571388371104 1.6305009634323804 40 39 44
1.354780665425647 2.8770430765856454 1.6270780690282896 43 42 47
1.4150272152308854 2.8559493932878026 1.608700021966953 47 46 51
1.4832615097826463 2.8343066244834385 1.5876318569272971 49 48 53
1.5459979674892823 2.8134139742285873 1.5683732823749532 49 48 53
1.5528935243428883 2.797850975458009 1.5677526826135137 48 47 52
1.5637510738233418 2.7819571224831603 1.5658043581234211 46 45 50
1.7206564360788998 2.7532391819967064 1.5149839947794468 48 47 52
1.5858571790661244 2.7502516278812306 1.5617637230058596 49 48 53
1.612502539757642 2.7331385983071685 1.5545134705737644 46 45 50
1.5927279141392787 2.719966148615653 1.562812031645252 47 46 51
1.568217827577161 2.707110603642842 1.572706376034619 44 43 48
1.684087314023937 2.683022465870916 1.5355020936586676 39 39 42
1.46761539914445 2.6851556273160906 1.6098432542127215 38 38 41
1.4399166196360902 2.6722018075274865 1.6208472918856787 40 40 45
1.3618282845804743 2.6628935957123203 1.6488010569452847 45 44 50
1.2596250935992264 2.6550646118420285 1.684896364374355 44 45 50
1.2571679134099527 2.639824191511842 1.6874617123453186 47 46 51
1.3076967074180161 2.620918236317586 1.6721850281519222 57 55 58
1.4024372517812442 2.599212255911451 1.6419917124740042 81 80 81
1.3358010306305608 2.588418299147448 1.6661674034329788 95 95 95
1.2161628118222163 2.5807792427738874 1.7082482349677321 79 77 78
1.0738800830995572 2.574134286728784 1.7580187372701641 112 110 111
0.8542966933935177 2.5716669062186743 1.8339507388777574 170 170 170
0.8064889277234 2.558364212178445 1.8519223321321059 173 173 173
0.7143509781161436 2.547421368097277 1.8849010027791766 172 172 172
0.6411131942265962 2.535117714202082 1.9115214094135768 172 172 172
0.5186644977480679 2.525193804166962 1.95482822226182 172 172 172
1.867802664990997 3.9393827185185906 1.3459437279060102 173 173 173
1.865751770034357 3.925389826601378 1.3482316593904877 174 174 174
1.8443399897732724 3.9158244931715136 1.3567266959620663 173 173 173
1.82573715072277 3.905547247026131 1.3643290259486187 168 170 170
1.829043342618983 3.890265375302086 1.3649066768453304 128 129 129
1.8592874196573574 3.8689680284698804 1.3568317059336257 103 104 104
1.8958821790279763 3.8463670065289097 1.3467039475992117 85 87 87
1.9236983335158055 3.8258283440748135 1.3393844323077357 73 76 75
