ply
format ascii 1.0
element vertex 722
property float x
property float y
property float z
property uchar diffuse_red
property uchar diffuse_green
property uchar diffuse_blue
end_header
1.4956543768175257 3.027671652037557 0.18970122536450895 45 43 46
1.4576763555413366 3.010322731733074 0.20109264378250724 41 39 42
1.4528997311383804 2.9960732254681313 0.20445966936091386 36 36 38
1.430882687199378 2.9800894997409886 0.21201350757191495 31 31 33
1.5235280863516432 2.9755825793390684 0.19173088305023755 30 30 32
1.5485247536109714 2.9644441818024543 0.18784887870515388 30 30 32
1.566334952484341 2.9526321866768184 0.18570419758963286 26 26 28
1.5629273982462029 2.9386250479172893 0.1887219716711186 21 21 23
1.5545800166513646 2.9240662356208587 0.19294815596543502 17 17 19
1.5453608365904679 2.9093751066302453 0.1973932078077465 16 16 18
1.526146902957445 2.893535355786023 0.2042884329423189 17 17 19
1.47366462086901 2.873875748331396 0.21933870983664472 18 18 20
1.4718682384481991 2.8598227408969814 0.22199854311126155 19 19 21
1.4717184958118132 2.845945536024076 0.22425686254870403 19 19 21
1.54981782877175 2.8412660916839854 0.2072998499053087 14 14 16
1.4044496885175466 2.8101688771430533 0.24524300836601487 14 14 16
1.4014847234084022 2.795808661867226 0.2482170308164856 13 13 15
1.4941630894466629 2.793168905281978 0.2276276452822963 11 11 13
1.4744730359393639 2.7768509752469583 0.23470746579848034 11 11 13
1.4701218113336871 2.762391898432295 0.23801163451142748 13 13 15
1.4606938273200532 2.7472599185897773 0.24257469117234876 14 14 16
1.430838544246218 2.7294407976392216 0.25219984925342465 17 17 19
1.4592075506572355 2.7191517401380514 0.24741711080620654 20 20 22
1.4300220863568505 2.701299239051032 0.25689575465033476 23 23 25
1.380308778059744 2.6805745377732246 0.2714889589858319 25 25 27
1.2880433194785228 2.653870046800337 0.2966883002614699 28 28 30
1.2222475881974226 2.6304956588279396 0.31535251006642606 33 33 35
1.1505250266238267 2.606059286648458 0.33553070580817573 35 35 37
1.0575429792572686 2.578361609000441 0.36105171304754674 35 35 37
1.368418789573721 2.6081507658346776 0.2857934815573898 34 34 36
1.3392584847722122 2.5897338511917183 0.29535689062961146 34 34 36
1.3041090385843277 2.5703300336475428 0.30643637838832793 32 32 34
1.2819811984361884 2.552727419689715 0.31427482752389446 27 27 29
1.294432709753355 2.540226252663214 0.31345556226828786 27 27 29
1.3061559094230843 2.527647735348436 0.3128138219663498 26 26 28
1.3063632177255382 2.5133331314593534 0.31506129943037015 17 17 19
1.2199819552362192 2.4855768755116427 0.33909513262795105 13 13 15
1.212205519241929 2.4698438414322257 0.34338008455202873 12 12 14
1.196940000084213 2.4528869569124634 0.34955916977392615 10 10 12
1.185783977735317 2.4365266682228417 0.35471090098036634 16 16 18
1.177447532880863 2.4205751378524707 0.35915784360402636 26 26 28
1.1526181549971 2.4018849159465585 0.3677831311564531 34 34 37
1.121698592712255 2.382091884908703 0.3779659849233396 18 17 22
1.0898341051995897 2.362024607224875 0.38840703577829727 26 25 30
1.0629440608898129 2.3426778277186058 0.3976047673371227 31 31 35
1.0277557481374016 2.3218125889059653 0.40892731747853517 39 39 41
1.0075231647577123 2.303393540893137 0.4164669300946536 49 48 53
1.035729546745214 2.2933265916745387 0.4116854610776749 41 40 44
1.0007503184553226 2.2722390550527134 0.42299623851158935 57 57 58
0.9723371496132343 2.2521862550516762 0.43265246822271886 152 152 154
0.9458420145095142 2.2323689400114604 0.44183608582219547 167 167 167
0.9191679983592658 2.2124174381699055 0.4510817689660803 167 167 165
0.8903599265481601 2.1919734533398705 0.460890235873741 168 168 168
0.7624967252484691 3.608908346407058 0.2780856028164709 170 170 170
1.0009950733370543 3.599820412783104 0.22506357466832583 170 170 170
1.0909841374327152 3.587872773740917 0.20642590181535564 169 169 169
1.1905098912321155 3.576458149291351 0.1855240789492375 163 163 164
1.2878176562585297 3.5652979938301117 0.16508805119397452 103 103 103
1.3870195005311938 3.5545023385147627 0.14416079616181132 80 80 82
1.4720581756187516 3.5435836146734685 0.12648870011358126 84 84 86
1.5174567619304513 3.531642155537022 0.11803614514468563 68 68 71
1.5273173508732854 3.5186240154437702 0.11787472750149253 55 55 58
1.5533709855607107 3.506210398041522 0.11391711614791922 46 46 48
1.5829338539459576 3.4940051635921994 0.10912439375519345 39 39 41
1.6266155089456569 3.482441018568035 0.10100344126279903 38 38 40
1.68982062961219 3.471808017436545 0.08827303906761474 44 44 45
1.6824450157786948 3.458379045321551 0.0921149981489604 43 43 44
1.6892255734544293 3.4455412832432764 0.09262819917071974 30 30 31
1.6796063301657425 3.4319674883431492 0.09700594890591463 26 26 26
1.6753398014415606 3.4186070547244674 0.1001266688763145 27 27 28
1.6748023008695294 3.405406799321476 0.10236981177379423 35 35 36
1.6750917497414501 3.392238111667213 0.10441897817329782 37 36 35
1.6781855613437453 3.3792085053223544 0.10580518400087635 45 44 43
1.6184172949224631 3.362788666878121 0.12209598134286193 67 67 66
1.6350856506208973 3.3504134263543586 0.12027614955670096 82 82 81
1.6555102158226696 3.338299676018161 0.11755625772498257 80 80 80
1.6706279805928324 3.3259321630566907 0.11608939684646069 79 78 79
1.6776869633814213 3.3131179395089574 0.11653521430247749 72 70 72
1.6880436272301507 3.3005236460307965 0.11619239233416889 63 62 67
1.6962859545071276 3.287819976992289 0.11635013186393128 45 43 48
1.699931666325671 3.274833773814925 0.11760329146262594 22 21 26
1.7030478478808675 3.261815465063685 0.11898257243424737 20 18 23
1.7056677078975757 3.248764704837068 0.12048044424278093 18 16 21
1.7137854829537553 3.2361016844102966 0.12066010670658867 18 16 21
1.7208056592826984 3.2233777896815012 0.1211002794655962 18 16 21
1.7205323045202563 3.210130087230481 0.1232907031354844 19 19 22
1.7214361968857417 3.196961724919395 0.1251994557075311 30 29 33
1.7205246159890377 3.183647644403945 0.1275463360907707 37 36 41
1.7209344296998823 3.1704260439979217 0.1295765060984222 46 45 50
1.6960429590893922 3.1551605093002273 0.1377147403955744 51 49 54
1.7012375191894376 3.1422752534119076 0.13859787072261964 52 50 55
1.7462181105136696 3.1327339977540274 0.1298552563836305 35 33 38
1.744660410744309 3.1193551366731738 0.13236013986654316 27 26 30
1.7716111564281705 3.108447592097834 0.12795567467533708 24 24 28
1.6649725333857759 3.085752645370412 0.1559613621112237 25 25 29
1.5357844132326934 3.0606510031695784 0.18950477444732228 33 32 36
1.540838988476199 3.0474842740127626 0.19046509555165458 39 39 41
1.4574416439608955 3.026022650856784 0.21296350849358403 41 40 42
1.4778573453465034 3.014191341598986 0.21020027295473032 39 38 40
1.4672349119031698 2.999401870068277 0.21500246256075828 36 36 38
1.4460391252662284 2.9835219865558162 0.22239514915594472 31 31 33
1.5321228616614357 2.9783522578378543 0.20356086105943494 29 29 31
1.5370474115664492 2.9651632780814206 0.2045544588645004 30 30 32
1.5569086705825659 2.9535344820054124 0.20188534871605524 26 26 28
1.5835181806217993 2.942676367678458 0.19755089435385187 21 21 23
1.592615642276373 2.9300196493413395 0.1975057479419965 15 15 17
1.5784233074223295 2.9148460959686977 0.20318512985612003 14 14 16
1.5490436653472113 2.897934714050517 0.21261300068630407 15 15 17
1.4509319070988818 2.8731915940535457 0.23899983576571815 16 16 18
1.4429436555202477 2.8583876773152936 0.24320260136436656 14 14 16
1.5135569729873026 2.8526458413268867 0.22799422545641823 11 11 13
1.4727566005634378 2.834049010487866 0.24030174631154455 13 13 15
1.4578226386474002 2.818386591345108 0.24622906975571668 15 15 17
1.380902559522053 2.7951748428647614 0.26752895901559315 14 14 16
1.3345955955380358 2.7754440446699746 0.28127653783652806 11 11 13
1.3902912831681498 2.7682174384260003 0.26971439780820905 11 11 13
1.3828655731677304 2.7532226474738155 0.2738193182901002 13 13 15
1.3840351369596373 2.7392902301696784 0.27579011191082703 15 15 17
1.420163521175519 2.729873030089672 0.2690497412754116 17 17 19
1.4491514410311086 2.719633894627732 0.26407254372763345 20 20 22
1.4214820027831088 2.701965058824454 0.27323141076494495 23 23 25
1.3618207414939971 2.679892665907079 0.2904057343995893 26 26 28
1.282777514916023 2.6549695499255934 0.3124655259633944 31 31 33
1.2100163137935604 2.630633430176819 0.33299598185442303 34 34 36
1.1307280261724728 2.605128963436695 0.35520513681580207 35 35 37
1.3722878911733187 2.624658686542529 0.2968868890645614 35 35 37
1.3614590357394443 2.6089271708063366 0.3018875536958856 36 36 38
1.3369773187012024 2.5911743802980522 0.31033171322855946 36 36 38
1.305941647437114 2.5723692227332107 0.32044207954703313 34 34 36
1.2892635890162585 2.5555743572694443 0.3269497239223177 25 25 27
1.3114579405278364 2.5445353304213145 0.32365291468266827 29 29 31
1.3187125476463544 2.5312995267051925 0.3241217627743983 25 25 27
1.3226536072097343 2.517571431182949 0.32542662426786007 16 16 18
1.220517822935583 2.4874131903220014 0.3536025266189836 14 14 16
1.2488283345903415 2.477328358994587 0.34875528821763907 14 14 16
1.1903889387444782 2.4535932953254487 0.36591756761399885 12 12 14
1.1846047413080354 2.4380767942218924 0.36973130839015256 16 16 18
1.1692210167289856 2.4209774951006846 0.3759921803529635 24 24 26
1.1558466233214486 2.4041441061056514 0.3817513337678652 36 36 37
1.1230634234619792 2.3840477027706193 0.39246831300001833 30 30 31
1.1118430373889834 2.3674288532380348 0.3977009501659125 29 29 32
1.078781172008857 2.3470769775576743 0.4085226234264288 31 31 34
1.0329449186982367 2.324424144566101 0.42263204121003 42 42 44
1.0705999681644593 2.3159758844290805 0.4153872830062113 52 51 54
1.0255163733342398 2.2932616519333857 0.4293346284255426 41 41 44
0.9862595327740583 2.2714047894674914 0.4418132087492536 65 65 66
0.9675986767553003 2.2530544876981202 0.4490236471039323 156 156 156
0.9534814776528928 2.2354431597871964 0.45507744513139403 167 167 167
0.9393079728581266 2.217762679507985 0.46115521340640214 167 167 166
0.9600844037644666 2.2064025217937555 0.45823389282888327 168 168 168
0.767210422643489 3.625941053557726 0.28960170410095276 170 170 170
0.8298527211321187 3.612735025779458 0.27731032609828554 170 170 170
0.9680063853572224 3.6014250020605605 0.24733475475927869 170 170 170
1.0893945531300022 3.590151301069797 0.22121192675948048 170 170 170
1.2188225968941009 3.5794720336618355 0.19314302927419913 146 146 147
1.360423824402981 3.569540324619951 0.1621521300858927 99 99 101
1.4172755212151076 3.557599747396882 0.15098976195675018 92 92 94
1.5123902404316092 3.547010791155271 0.13080356163301798 64 64 66
1.5408791469449423 3.534570296635761 0.12624938095120175 53 52 57
1.5345041971536442 3.521030173260439 0.12989614865408117 42 41 45
1.558805430574603 3.508552818701437 0.12631169714376034 37 37 39
1.5407222649409822 3.4945678272617604 0.13272472948030944 37 37 39
1.6709035706200115 3.486280485583257 0.10409743731261889 37 37 39
1.6798687737155218 3.473499152668553 0.10409151519832771 39 39 41
1.6846922733315943 3.460564086452339 0.10506355553739888 27 27 29
1.680352513082226 3.4472348592085433 0.10820797481759103 24 24 24
1.6846574716181943 3.434275821654186 0.10930321642690044 24 24 24
1.6889622574546086 3.4213224072075508 0.11039759262521798 21 21 21
1.6838196858518266 3.4079140355824933 0.11373951943582106 23 23 23
1.6780197384485598 3.3944470318743676 0.11724217979934115 28 28 27
1.6882637882832607 3.3817874417468734 0.11692233317860623 33 33 33
1.4491164028267614 3.3557604535496375 0.1761518575480706 34 34 34
1.6684064733553237 3.354310766117525 0.12591545858933229 41 41 41
1.6674175364021413 3.341019949366398 0.12828250066152658 63 63 63
1.6790606345255468 3.328458226530611 0.1276249083322284 88 86 87
1.6879449459201927 3.3157600200265973 0.12762422254625094 93 91 92
1.7267121435009005 3.3049344184928744 0.12044453516221953 84 82 85
1.728912889349902 3.2919020977927604 0.12203585920179727 80 78 81
1.7318360068051741 3.2789156500173733 0.12345354471610182 77 75 79
1.735002647181771 3.2659466137561637 0.12481238051596821 48 46 50
1.7177704376775416 3.2515800933578727 0.1310909798700326 20 18 21
1.7239667503866125 3.2387938880522964 0.13172310404881027 18 16 20
1.7301784404539533 3.226020760970122 0.13234958390209095 17 15 18
1.7293191736646596 3.2127393281714536 0.13468527175385248 13 13 15
1.727777813794608 3.199395076471396 0.13718805581396465 16 15 19
1.7233227787322551 3.1858129376225626 0.1403997171322876 25 24 29
1.7229086563601028 3.1725248550468805 0.14263402511999912 27 26 31
1.7208338840437296 3.1590934583231083 0.14527360224375474 34 32 36
1.72139354974332 3.145862281633666 0.14727463205000058 42 40 45
1.7204642909855965 3.132499831952181 0.14963946997804822 40 38 43
1.7669857500254313 3.1231713023799927 0.14043414877986116 32 31 35
1.7641544499907083 3.1096992343458876 0.14325438817132552 27 27 31
1.517767685639734 3.019932843452408 0.2144102630615239 37 37 39
1.479250657353794 3.0025008370594026 0.22608103242238187 34 34 36
1.448132457490237 2.9856604850168957 0.23595371720166558 30 30 32
1.5243645853603238 2.9794789171249323 0.21940389572696373 29 29 31
1.565501716406973 2.9699639437158054 0.21146779329842036 30 30 32
1.5849389779934637 2.9583278708899994 0.20886736610972056 27 27 29
1.5852169548069242 2.944728966754601 0.2109924202983462 26 26 28
1.5932787447717751 2.9319555545295293 0.2111931443195555 14 14 16
1.5861129017521582 2.9175440840268942 0.21516219834637185 14 14 16
1.5505700570567564 2.899965066690674 0.22617212187497826 14 14 16
1.4330253370239225 2.8730610100311695 0.25755589395358114 14 14 16
1.4645523525685715 2.8627201278233363 0.25196451350990656 11 11 13
1.478219954907314 2.850413484955354 0.2507999196716846 11 11 13
1.476849572484993 2.8363812515861873 0.25337409833278746 12 12 14
1.4687094317062641 2.821530258547952 0.25763813807398217 13 13 15
1.4572754206816323 2.806245291066432 0.262730121609987 13 13 15
1.388432853828002 2.783891426242057 0.28217261103574154 14 14 16
1.4301751086346772 2.7750067478657137 0.27399577967496547 12 12 14
1.3942552218004516 2.7564929967557203 0.2852429448408391 15 15 17
1.3752944849688569 2.7400084276564307 0.2922603105756826 18 18 20
1.3992080129072322 2.728984766822302 0.2885310870448019 20 20 22
1.438738847565922 2.720075735091256 0.28086713570038624 24 24 26
1.55787516975674 2.72183910403644 0.25316397980903194 27 27 29
1.5203093383825714 2.7029702400645985 0.2648471231270493 29 29 31
1.4815252801223702 2.683798652280807 0.2768593719687048 32 32 34
1.4127171164649972 2.6603541398864703 0.29646950622935186 34 34 36
1.1182134619626949 2.6052236207466475 0.3731241408115893 35 35 37
1.3749362928844364 2.6268113745717963 0.31056420438373 36 36 38
1.355689133836352 2.609878247084179 0.3177196953268938 37 37 39
1.3310623847563323 2.5920929041251997 0.32625048459595285 37 37 39
1.3104612340978063 2.574802209886425 0.3337751555340851 34 34 36
1.2971037256651503 2.5585025672750614 0.33947316667349575 24 24 26
1.332132805774065 2.5493850096283124 0.33287886380579024 28 28 30
1.3095214984762427 2.531657766509355 0.3409364454014598 24 24 26
1.3026096954955317 2.5162455360927236 0.34500812538051956 20 20 22
1.3174537703568894 2.5041661182601476 0.3435361889355089 17 17 19
1.2376237359167603 2.477317607185026 0.36623095960398366 17 17 19
1.1878670781878085 2.454941425968879 0.38128440654267215 14 14 16
1.199236522571781 2.4421570546038325 0.3807256357866142 19 19 21
1.1987988549284698 2.427494129801394 0.3831866726181508 24 24 26
1.166954011853213 2.4076906055019904 0.39370357995695054 35 35 36
1.1386303194031033 2.3883487576654976 0.40333577554433275 34 34 34
1.1307751670114223 2.3723129557327183 0.40772494502400014 37 37 39
1.0989160940894334 2.352195759399537 0.41829561950806093 38 38 40
1.0758990835432836 2.333463818584873 0.4266083012849718 49 49 51
1.0679190652953392 2.317228055891313 0.43105839663145973 51 51 53
1.0165785198277233 2.293424077548674 0.44670621048819187 39 39 41
0.9653819425173266 2.269457773966587 0.4623470196515282 77 77 79
0.9130321305840747 2.245099920700735 0.4783162747250352 160 160 160
0.8689048086144253 2.2220213850655663 0.4921871850372183 167 167 167
0.8265133816114045 2.1990932307310493 0.5056343709135854 167 167 167
0.9412753763306327 2.2046631664046417 0.47832522213845313 167 167 167
0.6120344160441324 3.6254201624782394 0.3410121965531136 170 170 170
0.876718558003905 3.616104970910791 0.2811434951998313 170 170 170
0.9948077518328862 3.604380679139734 0.2556538545440798 169 169 169
1.1424592241283316 3.5937387512001004 0.22313511599287805 168 168 168
1.2674529410598419 3.5829915879258944 0.19588692534739782 131 131 132
1.3998761759867617 3.572845644476817 0.16681909482285273 98 98 100
1.5105226789412491 3.5624968592723887 0.14283327762397924 67 67 69
1.530006396828134 3.549727503200125 0.1403755154950448 50 50 52
1.5420906874000582 3.5367760278739997 0.13966281004661985 39 39 43
1.563302408734139 3.5241631262863513 0.13677914391093826 35 34 38
1.6511895897304212 3.5139675978697213 0.11804572647536848 36 36 38
1.6901583600485102 3.5022426440934415 0.11090156022685016 37 37 39
1.70108755963193 3.489554076580405 0.11041427123631486 37 37 39
1.6777087515969829 3.4755114390584914 0.11810028488184243 53 53 55
1.6869405698809878 3.462750167294496 0.11801828968738981 55 55 57
1.6903753028388477 3.449758235278504 0.11931765218001145 36 36 37
1.693974461376873 3.436776506731243 0.12057724395806502 30 30 30
1.6923283670712497 3.423552368302714 0.12309213737573999 21 21 21
1.695627230194108 3.4105540680764936 0.12442403078983277 23 23 23
1.696110729810306 3.3974169205759672 0.1264311102071728 22 22 23
1.7014325562143537 3.3845234067876646 0.12727704304446263 26 26 27
1.4898425901084744 3.360046061400502 0.180286149308039 28 28 29
1.6737839661670086 3.356653620809676 0.13818356820982314 30 30 30
1.6763119683703918 3.343565301691159 0.1397087195456197 34 34 34
1.6879824771661185 3.3310106956821945 0.13902793618662523 44 43 44
1.7224775611935728 3.3198569478015476 0.13282892478640818 68 66 67
1.7285949797232874 3.3070574964319253 0.13347521309475097 89 87 88
1.7334809641823312 3.2941916963626374 0.13441773246336197 87 85 87
1.7360872487319794 3.2811852604948317 0.13591152395771322 78 76 77
1.7384489747188567 3.2681625734016326 0.1374646418917148 66 64 66
1.742546379553736 3.2552577714481887 0.13859629787070982 61 59 61
1.7271552269917199 3.2409935001768058 0.14446599491704293 34 32 34
1.735841988754043 3.2283952785455257 0.14448407798274776 18 16 17
1.7445257055973604 3.215817110379969 0.1444996321872104 18 18 18
1.7336763751093212 3.201794120611003 0.14927731157448265 12 12 13
1.7377677895450372 3.1888718951001427 0.1504131671641903 11 11 14
1.7333074412969458 3.1752847156941453 0.15363915457187838 17 16 20
1.731126016536195 3.1618563313542873 0.15631112056228802 28 26 29
1.7271841404811057 3.1482682050473043 0.15941704443706772 31 29 32
1.7222445631381413 3.1345750724147217 0.1627712405537698 32 30 33
1.7729261772592655 3.1255856499174257 0.15246998388113542 33 32 35
1.5395948262714063 3.0921352005988347 0.21196766100280262 28 28 30
1.5291667615645774 3.0775921877389494 0.21673154926035332 29 29 31
1.485999339434162 3.0600574173864894 0.2295692024235969 32 32 34
1.4789846994642186 3.0456848488489108 0.2335141373742804 37 37 39
1.4916522188278776 3.0193802350064094 0.23482022955950643 35 35 37
1.482265031212314 3.004725267496048 0.23936083308490308 32 32 34
1.4483701403494107 2.9876173737317786 0.24997963727169736 29 29 31
1.532001913151956 2.9821525297978524 0.23146978724063771 29 29 31
1.6244315050305997 2.9778556312593185 0.21073161434184196 30 30 32
1.617903019101356 2.9636207536208414 0.21454161523645565 26 26 28
1.5813684397534926 2.9461993676330422 0.22582304471366477 21 21 23
1.5495613195097266 2.929151001031699 0.23594816256858708 14 14 16
1.5308432701269958 2.913407005211894 0.24282795333435836 14 14 16
1.4947403967537105 2.8956745247207634 0.2540594681490781 14 14 16
1.4766631050584729 2.8798283673528444 0.2608071686773761 13 13 15
1.4990456305985924 2.868508481112973 0.2574434527876637 11 11 13
1.4835387642490367 2.8528866312023107 0.26355897444203114 10 10 12
1.4754841340514135 2.8380750155800176 0.2678158719846534 10 10 12
1.4706112802647886 2.8236046043930823 0.271279981934494 11 11 13
1.4721045704561482 2.8098748698675835 0.27314851657100003 12 12 14
1.471751049992477 2.79591558220003 0.27548229434426486 15 15 17
1.4533809200349865 2.779715968802478 0.2823549111182777 20 20 22
1.4351280335317729 2.763459487576881 0.2892095165690637 19 19 21
1.4404976322942398 2.7501358121746855 0.29011376306750525 20 20 22
1.4545353008552129 2.737938205226302 0.28882652647199747 23 23 25
1.4936998591463122 2.7290599741765154 0.28117775147598745 27 27 29
1.4402878584078669 2.7080603938328447 0.2969496955080896 28 28 30
1.3458112071191966 2.6813678439842796 0.32316149956786533 30 30 32
1.4253683596428963 2.6779572596392507 0.30526503921681347 33 33 35
1.4084461555320738 2.6615535524164575 0.3118348535349138 35 35 37
1.3776201821173597 2.6431487950382997 0.3219512792603373 36 36 38
1.364365302095406 2.6271034634199033 0.32761295386944755 37 37 39
1.345244186634066 2.6101674107932062 0.3347784958355058 37 37 39
1.3253625037368493 2.5930468408057785 0.34215015279899164 37 37 39
1.3065720534345544 2.5760080180597846 0.3492556027354006 33 33 35
1.2812073265931407 2.557924668133839 0.35805390183366587 27 27 29
1.3387093353570676 2.552122089792357 0.34565714687176374 29 29 31
1.3166754526118085 2.5344910849394453 0.35361016621060504 26 26 28
1.3169107094299628 2.520177563124429 0.35586456872901895 24 24 26
1.323810050595479 2.506885009940232 0.35640909896213524 22 22 24
1.2377547250488268 2.4790843056817207 0.3808470397657146 22 22 24
1.1784709666873578 2.4552066652666897 0.3984447142908524 20 20 22
1.236055984754647 2.4497758863509054 0.3859687363482036 26 26 28
1.2174492399433166 2.4322369110569975 0.39311227203581267 28 28 30
1.1792351773379357 2.4114258891726315 0.405329908048649 34 34 35
1.1487295495559071 2.391744055648879 0.4155780647926244 35 35 35
1.146277443526886 2.3766199602428233 0.41858633214587276 41 41 42
1.0668411983657067 2.348521787955124 0.4415375159472074 54 54 56
1.0598393880942918 2.332454618975309 0.44575283643644836 59 59 61
1.0614771779291274 2.3178371778856324 0.4477310646685029 48 48 50
1.0006083548568483 2.292371922312729 0.4659523646846941 43 43 45
0.9437455852414605 2.2673878928420765 0.4831671677066078 89 89 90
0.8570824924309218 2.2369239172019375 0.5081756484081504 164 164 164
0.7851749726648631 2.208785864657414 0.5293876069554848 167 167 167
0.7169930517556581 2.181060290930846 0.5496691863060612 167 167 167
0.9087070273447242 2.2004267137278193 0.5020931103164972 167 167 167
0.6616650296264593 3.6288212819999144 0.3445001016771 170 170 170
0.8969153998405096 3.6189090733356712 0.2911517105065268 169 169 169
1.0441652721979473 3.607820196428653 0.25854904888597746 169 169 169
1.1842167414804239 3.5970328432825167 0.22757907704423352 166 166 166
1.3103370330313546 3.586342169916069 0.19984757793041774 119 119 119
1.4306478882187563 3.5758986637123225 0.17343311505542824 77 77 80
1.526305219644474 3.5651367093708743 0.15282880156366585 53 52 55
1.545351770045896 3.5523685708946555 0.1504438558805783 38 38 40
1.6190890751655929 3.5413932488900346 0.1349942035452626 35 34 38
1.6592284981075414 3.529527583212397 0.12753640980507908 35 35 39
1.6713333681472526 3.5168016394113355 0.12676610924067522 38 38 41
1.704856140163243 3.504893327808937 0.12086075376896865 43 43 45
1.7066304483138004 3.4918687023616677 0.12255179126995397 45 45 47
1.6984499433899796 3.4784431793559474 0.12663292154146544 51 51 53
1.6905070426053044 3.4649921449307404 0.13066267529947218 59 59 61
1.6947830966846613 3.4520354526921047 0.13175836306053668 58 57 58
1.700470834119384 3.439147743949755 0.13251315256952945 64 64 64
1.6961560782054703 3.425804243060327 0.1356780461526651 53 52 53
1.7042688560771548 3.4130374275673274 0.13584684188190854 25 25 25
1.6745482281802924 3.3984014715937256 0.1451550739025017 21 21 23
1.6831638897429193 3.3856345567330774 0.14520642006693552 20 20 22
1.5030778633451618 3.3628507718074494 0.1909547486498826 23 22 24
1.5295079645510814 3.3507886706812116 0.18673098896561813 27 27 28
1.5557851875598323 3.3387965633914725 0.1825316243858205 29 29 29
1.7130685624233948 3.3345007028913036 0.14648717543553513 32 31 32
1.7229038389101439 3.3218987039599353 0.14622697957989128 36 34 36
1.735035307465743 3.3094618378280862 0.14540373535626472 50 49 50
1.7362926721947427 3.2963702170337736 0.14722635270539308 78 76 77
1.7386548833500948 3.283345751760507 0.1487800395266876 86 84 86
1.741017242413646 3.2703205432397544 0.1503338119481865 82 80 82
1.7459201347262119 3.257467599990029 0.15126630879491176 74 72 73
1.7322409891804664 3.2433259583883256 0.15674759772024016 69 67 68
1.7417947362005086 3.230789703895732 0.15654253479217484 55 53 54
1.745468758985544 3.2178468487579632 0.15777661065586324 27 27 27
1.734846378340464 3.2038387978739093 0.16252229241782334 19 19 19
1.740056202436192 3.190996705654865 0.16338134076752653 12 12 14
1.7405983788387902 3.177798814287638 0.165388193831965 11 10 13
1.7379224941027152 3.164337384763519 0.1681893368660532 16 14 17
1.740373373477038 3.1512758436606436 0.1697283056722999 26 24 27
1.7442572545010917 3.1383329054611875 0.1709133754180261 29 27 30
1.7851503406559501 3.128531854535212 0.16294578394231518 29 28 31
1.529227392578532 3.093198654240031 0.2284370785324089 29 29 31
1.5101996968808344 3.0778764214641865 0.23535855138916928 32 32 34
1.5470576832921303 3.0675001379168467 0.228426483873017 36 36 38
1.5706329562808816 3.0560233980749536 0.22477494042159452 36 36 38
1.494080120980534 3.0077997182540015 0.2504520332856631 30 30 32
1.4881183677002183 2.9934560167924653 0.2541633260412619 29 29 31
1.5383900805865196 2.9846998043639785 0.24383613388782222 29 29 31
1.6376974266208424 2.981084013463375 0.22122402649927542 29 29 31
1.6137693031742357 2.965070012190848 0.22940198870181228 30 30 32
1.5952992186368204 2.949539169186078 0.23622693522017857 22 22 24
1.574941847984951 2.933735855827796 0.2435367677672463 16 16 18
1.5681995184107207 2.9193294711180884 0.24744052374525338 14 14 16
1.5113282488777777 2.899377280861906 0.2639501061310724 13 13 15
1.488768532821023 2.883055995934147 0.2718581038886444 12 12 14
1.5395497616893148 2.874964584664729 0.26130442889545447 10 10 12
1.504215526101327 2.857126572172532 0.272441536782264 10 10 12
1.4962018246838074 2.8423498676705985 0.27670212880561285 10 10 12
1.4912250612862916 2.8278966323192054 0.2802010502305362 10 10 12
1.477443645912015 2.812359462341815 0.28593182102403114 12 12 14
1.4733289270983043 2.7979442652222626 0.2892232335050444 15 15 17
1.4438070492315538 2.780366889245822 0.29896053408546086 21 21 23
1.4563110619471895 2.7679436576654024 0.2980480653893378 22 22 24
1.4557437759470493 2.753894331563023 0.3004517093643062 21 21 23
1.4959399206235835 2.745078031613778 0.2924877230267755 24 24 26
1.519616682131326 2.734236020169109 0.2887098668516265 28 28 30
1.4281408428590603 2.7082589695170562 0.3142764711058579 29 29 31
1.3241777618698918 2.680290572946757 0.34308180609529926 31 31 33
1.3234302626394323 2.6659403667261063 0.3455761835998683 33 33 35
1.31917944215809 2.6510976232978836 0.3489685019948685 35 35 37
1.3466005329559085 2.640629535216049 0.34425558373301157 36 36 38
1.335704154287479 2.6248586887728274 0.3493502306828201 37 37 39
1.329028600794019 2.609641765133113 0.3533694159928946 37 37 39
1.3096683883152755 2.592565805935576 0.3606520570223902 37 37 39
1.291891789808452 2.57564483899301 0.36753973585175026 30 30 32
1.2772197704310448 2.559111177994038 0.3736396246991605 31 31 33
1.3375844383144488 2.553709577776435 0.3604125911321484 31 31 33
1.320738527983203 2.5368569492158533 0.3670718288151054 29 29 31
1.3100291154890704 2.5208733139362263 0.37215720168749483 27 27 29
1.2626741764668061 2.4991888076630686 0.38672395715379526 27 27 29
1.2379865994129782 2.4808685471737757 0.3954521325201559 27 27 29
1.170490912594921 2.4557010158526285 0.4152864924080152 29 29 31
1.2623052482025081 2.4556958610116233 0.3938409579161631 31 31 33
1.2456067255428993 2.4385063380330814 0.4005202286400113 31 31 33
1.2004960523199173 2.4166209167384007 0.4145952381193612 37 37 38
1.157496672316003 2.3949177844393432 0.4281476152857069 41 41 42
1.1226551936625877 2.3744136450246227 0.4396006140677709 31 31 33
1.070442367421602 2.3508593816923797 0.455604349090558 36 36 38
1.108472492712203 2.342439785487466 0.44808218151983303 37 37 39
1.050416574426502 2.317658362465904 0.4656491455948509 49 49 51
0.9848255242291806 2.2913604052845846 0.48522135095865787 51 51 53
0.9049201979550023 2.262320118678363 0.5085804529786957 112 112 113
0.8230292330101571 2.232641866017352 0.5325064985976911 167 167 167
0.7606805972960288 2.206157330231051 0.5513514887806962 167 167 167
0.6900753367538618 2.177958174510085 0.5724022709485515 167 167 167
0.8726181157314926 2.195564157867943 0.5269170983185657 167 167 167
0.6924247477128811 3.646497549040976 0.34996073220235996 170 170 170
0.7893359817787878 3.6336378253606894 0.3292403875725479 170 170 170
0.967659854361518 3.6227197942024314 0.289048796914209 170 168 169
1.0997202098430732 3.611369936788304 0.2598131393142184 170 168 169
1.2385838615956497 3.6006011376749445 0.22888251118357505 162 160 161
1.3528296241106472 3.589662172824088 0.20377213077225387 97 95 97
1.4492115596668793 3.5786124681944926 0.182883115151792 59 57 62
1.5476643343527148 3.567927926169344 0.16144766823967682 44 42 46
1.596179120092716 3.556064336612178 0.15195381865697144 42 41 42
1.6414882020266528 3.54425003703373 0.1432062983662512 50 49 48
1.6842769565034403 3.5324921386513735 0.1350426837551898 57 58 60
1.6919446607066935 3.5196434769272362 0.1353198836257573 60 60 63
1.7253672484338072 3.5077503466919175 0.12938207019508652 59 57 58
1.716032854164141 3.4943296244377486 0.13375259930715033 51 49 50
1.7081289860888362 3.4809265759701917 0.13778365715994756 53 51 52
1.7002047567986411 3.4674881768646353 0.14182523276553427 59 57 59
1.723637747743465 3.4553645350457933 0.1382753509258765 73 71 74
1.7130389799550307 3.441789040975538 0.14296846436394473 75 73 76
1.7002050393802528 3.4280665372417882 0.14821133738588554 75 73 75
1.6796255619032923 3.413921550964984 0.15534520495288495 53 51 52
1.6865373137616941 3.4010643913736014 0.15580165986424444 31 29 32
1.6941999915030532 3.3882599764640853 0.15607287464710384 20 18 21
1.5044022706816746 3.3650204136991837 0.2044977183980945 21 19 22
1.5290658684463225 3.3528509467343866 0.20066569368645626 23 21 23
1.5436188396466204 3.3401856769536606 0.19929305560088717 24 22 23
1.5693273515432564 3.328205672594301 0.1951844663885961 25 24 26
1.5701900645823237 3.314822446598405 0.19714950373045703 27 27 29
1.566101722332954 3.3011302623714283 0.20032959308634335 28 28 30
1.7467873214435918 3.2990324350464477 0.15815343641251833 26 26 28
1.7490748285554902 3.2860137452187343 0.15972416076243134 40 40 42
1.7510501734804145 3.2729733982662723 0.16137184642327285 63 63 65
1.7495622105948812 3.259696020332867 0.1638728595807537 77 77 79
1.7265671917806742 3.2449099818708897 0.1716789613293851 79 79 81
1.733496479775442 3.2321688290127226 0.17211249722727506 72 72 74
1.7445667470529151 3.2197437657696146 0.17152043976648024 63 63 63
1.7501057178287527 3.206934794996265 0.1722921087790058 46 46 48
1.7533721356361174 3.193962525334621 0.17362497187096293 28 27 32
1.7366408068825032 3.179435678345699 0.1799152157771865 14 13 17
1.7485607306036761 3.1671226477977705 0.1791050820616613 10 10 12
1.7502611805245873 3.1540110408650257 0.18082899541919117 20 20 22
1.7519631453588231 3.140896568539136 0.18255301649585964 28 28 30
1.7686496223215564 3.129045846751744 0.1805464025257486 27 27 29
1.5324974129487297 3.0954448604997813 0.24155714612954204 27 27 29
1.5041643916567788 3.0793083476948193 0.2508380720701756 33 33 35
1.5484645764594118 3.0695731202618535 0.24199114645564013 37 37 39
1.5802987683777203 3.0588401384660813 0.23623914841328986 35 35 37
1.5101808683226827 3.0112832432632035 0.26044220741610724 30 30 32
1.5156136077982987 2.9980776523720816 0.26130312415687806 29 29 31
1.5677951812845787 2.9895396150492566 0.25040773758221035 29 29 31
1.5829673410164529 2.977418181058519 0.24880130257592314 30 30 32
1.617497241965057 2.9673330387624692 0.24231004632366382 29 29 31
1.6081213527346832 2.9527584030389473 0.24687726940014387 23 23 25
1.5956191122412942 2.9378105703715134 0.25224059125826326 13 13 15
1.5900721083232423 2.9235632542998133 0.2558538386274142 11 11 13
1.577738219275225 2.908543228834606 0.26118924174743496 12 12 14
1.5219216549486652 2.8886259957719376 0.2775496119813762 12 12 14
1.5151106592313053 2.874055839951547 0.2815125802881506 9 9 11
1.5107026228148104 2.8597294895776018 0.2848706276298063 10 10 12
1.5056206522755147 2.845300553030346 0.2884038728022724 10 10 12
1.494360788689006 2.8301148300147987 0.2935133961503126 10 10 12
1.5025305241784495 2.817211942127287 0.29368125063423467 12 12 14
1.497005949225733 2.8026620337217816 0.29733823930955605 15 15 17
1.463359262242651 2.784616016238477 0.308178823912166 20 20 22
1.4802480305620986 2.7727646555333214 0.3061247135314036 25 25 27
1.4984930324084391 2.761133396774825 0.3037158205627648 25 25 27
1.4910792650581421 2.7462597145406002 0.3078697935335759 27 27 29
1.4457895052353735 2.7264227045383445 0.3217401714175244 29 29 31
1.408356072220545 2.7074578441137866 0.33362064095169097 30 30 32
1.3226560643524452 2.681910424073439 0.3579247683462201 32 32 34
1.312211697375926 2.6662393528694173 0.3629210270411154 34 34 36
1.293447913712017 2.6493837784636964 0.370066761088514 35 35 37
1.3360660249155378 2.640966124935524 0.36140219120863626 36 36 38
1.3276172346537785 2.625516229449743 0.3658930535239847 37 37 39
1.3186531199224456 2.609954749485758 0.37052324991996 38 38 40
1.2996567057812962 2.5929104760683157 0.37775429138514816 38 38 40
1.2839055344152 2.5762638375384195 0.3841572995875713 29 29 31
1.2611647312714793 2.5585246111300686 0.39238198980881744 35 35 37
1.2959386261749555 2.5492641475920648 0.38569972572101147 33 33 35
1.2946547600528255 2.5346810902618 0.3883642297537268 32 32 34
1.2748157488789178 2.517256700512457 0.3958551150022883 30 30 32
1.2720209887987053 2.5023809816935727 0.3989225481992578 32 32 34
1.239511286737418 2.4828559930151792 0.40973518428288563 33 33 35
1.241068214065963 2.4685762353945795 0.4116821054691382 35 35 37
1.284744137860913 2.461000046524795 0.40263231392488136 36 36 38
1.2538554123165437 2.441561088887638 0.4130495914337212 36 36 38
1.205224955300324 2.41911922898689 0.42812802466303473 38 38 40
1.1706199488249984 2.3988060965395266 0.43956137031673287 41 41 43
1.1199125196789452 2.3756880989128515 0.45523805486423924 33 33 35
1.0894626468560284 2.355786079301867 0.4656270831454641 35 35 37
1.084851096041286 2.3401515569536526 0.46924493758288643 37 38 40
1.0185292970475213 2.3139171581888447 0.48910058813116924 47 47 49
0.9480006472089125 2.286715021111501 0.510102896728756 58 57 58
0.8550618618929293 2.2553408461378495 0.5370542499605282 135 134 135
0.780236951289969 2.2268322362814277 0.559279128923847 167 167 167
0.7996860298562435 2.2148612254396274 0.5566419508759761 168 168 168
0.7742198940981361 2.1948618322425513 0.5658740613668929 168 168 168
0.8564618526712501 2.1943403641546886 0.5466066968405869 168 168 168
0.7324108105803673 3.649620976409426 0.35549676876041686 170 170 170
0.8681299241460758 3.637498655915368 0.3252958241719526 170 170 170
1.0115640864342739 3.625962729335385 0.2931710226327154 171 169 170
1.1504904801498892 3.614789317834126 0.2620558261756576 169 167 168
1.2720874522790304 3.603660876314187 0.23504084179380025 140 138 139
1.3800650511520562 3.5925845104067466 0.21124554040737575 74 72 73
1.479756220702184 3.581634260494898 0.1893938593812481 59 57 58
1.5669484908228368 3.570651866785123 0.17050995274486025 62 61 61
1.615897319119303 3.558813527956503 0.16082966528339726 68 67 65
1.6498284148548452 3.546657551004486 0.15476052647153316 69 68 65
1.6893878916889358 3.5347895278406605 0.1473105723926954 63 61 61
1.7123194336419465 3.522468402881176 0.14387541681866078 58 53 53
1.748486065818304 3.5106930650785264 0.13721460651409734 72 62 60
1.7184456063775402 3.496523330460882 0.14663526067621158 89 80 75
1.7133693725209673 3.4832318323898717 0.14999618795872915 56 50 50
1.707861712858587 3.469897374443683 0.1534663481716383 48 47 51
1.739169132474141 3.4581108447758857 0.1479591113732146 64 62 67
1.72853140890179 3.444555835739244 0.15268103094018326 79 77 81
1.706913950323838 3.4304514229061596 0.16009461596778396 75 73 76
1.689927799794248 3.416488129560918 0.16638755429361274 64 62 65
1.6764184426386524 3.4026318227164176 0.17183903630069164 64 59 65
1.6809865944242357 3.389644617158505 0.17286460096053557 50 45 51
1.5076517132794245 3.3672929651562877 0.21757791352405298 33 28 34
1.52276654353451 3.354597410250808 0.21605630154454558 20 17 20
1.5458166634114479 3.3423873429056092 0.21257501099113574 21 19 20
1.5663173199124087 3.3300978886633237 0.2097108955283561 20 19 21
1.568332952233894 3.3167714768166103 0.21139653852024165 20 20 22
1.5668107468575396 3.3032273207766747 0.21395608719866543 22 22 24
1.5652856652440676 3.289669151473269 0.21651859252015726 19 19 21
1.5660472638257394 3.2762441097584385 0.21851748480958588 16 16 18
1.5687289237287954 3.2629394086472643 0.22004173786793202 19 19 21
1.583232805706315 3.250434041592149 0.2186340611839125 30 30 32
1.5856609674315552 3.237131679059935 0.22021802009719482 47 47 49
1.5993563562428548 3.224627813831611 0.21900173299513304 64 64 65
1.7436765384924149 3.2216440421956025 0.18527857229882538 74 74 74
1.7616876484211883 3.209752200597344 0.18293999440269615 76 76 77
1.7583299199828686 3.1962891577472554 0.1859214407537052 64 64 67
1.7573814576088629 3.182993226885578 0.1883047011122181 40 40 43
1.7450360649293464 3.1687819689038648 0.19353791649728125 19 19 21
1.7326456324089876 3.154517117960142 0.19879050770536477 17 17 19
1.5905218641202514 3.1294834963704754 0.23654138365692534 25 25 27
1.5796811544814033 3.1150317583023694 0.2414569903397633 24 24 26
1.4455043243714178 3.0899316698023758 0.27733503055865727 24 24 26
1.5022758708805646 3.081108686830097 0.2653110500188134 29 29 31
1.529105965557757 3.069792634324247 0.26078867591134614 32 32 34
1.4331018249940684 3.0473795402615274 0.28718261596659467 33 33 35
1.5287409618382528 3.0149973910441723 0.2697706067590494 30 30 32
1.534189795370295 3.00181673091154 0.27061883276706256 29 29 31
1.5825178501070833 2.9929080392469385 0.26061008782123773 30 30 32
1.600726841316361 2.981108304863915 0.2582096544312805 31 31 33
1.6292335704852974 2.970419419670989 0.25318806158551177 24 24 26
1.6142204423627136 2.9552713061375164 0.2592056863125176 26 26 28
1.6060028669298276 2.9407849534029538 0.2635051629715094 11 11 13
1.6022929364725376 2.926748002657002 0.26666325788046663 11 11 13
1.5823809790277523 2.9109148003793974 0.2739532461680626 11 11 13
1.5149859969404131 2.889723746280325 0.29336770502675247 11 11 13
1.4966384210396009 2.873834006330467 0.30029607348910625 8 8 10
1.5134359547956975 2.8619011763397304 0.29825179795014933 9 9 11
1.5175247115924972 2.8485379839629403 0.2994520287795577 10 10 12
1.5138737885147742 2.8342661951030075 0.302634260873356 10 10 12
1.5166989404674966 2.820748090964169 0.3041591463521618 11 11 13
1.490562220158044 2.803714385814111 0.3131194499962868 17 17 19
1.4850666357937148 2.7891236546947518 0.31679069043346186 20 20 22
1.4888886777651982 2.7756679050226616 0.31806916511837435 27 27 29
1.4916039005509196 2.7620759379087856 0.31963209745398347 28 28 30
1.4656423133489969 2.744807419744267 0.3285890094653301 28 28 30
1.4420208223947029 2.7277452086419527 0.3369577675884391 29 29 31
1.4091748055343662 2.7093790794247514 0.34772464934322345 32 32 34
1.3767919604506151 2.6909533177458917 0.3583914283247466 33 33 35
1.3408400826565638 2.6719257046738827 0.37000186265580226 35 35 37
1.2810621129268416 2.6495078944550263 0.3878100469865357 37 37 39
1.4942209819790997 2.6646640319631687 0.3348255532124995 39 39 41
1.440113818170366 2.643080095634815 0.3511542422870776 40 40 42
1.3865961602709889 2.6213852541039326 0.3673612077700431 40 40 42
1.3211194424737656 2.597780561159737 0.38671281752462094 36 36 38
1.307202198310116 2.581433499889307 0.392665326167951 33 33 35
1.3048707045982697 2.5667324583123787 0.39560450457626484 37 37 39
1.2977044515699419 2.5512948044027604 0.39980922462663115 36 36 38
1.2919455263336717 2.53603471999807 0.4036515458037371 34 34 36
1.252410943911132 2.5156057286970004 0.4163386706189902 34 34 36
1.2641830372004215 2.5029266086007462 0.4156067040730738 35 35 37
1.2329911337775177 2.483592824784165 0.42613860725677644 36 36 38
1.24597127679196 2.4710915854896016 0.42509142525835203 38 38 40
1.175784570447877 2.4453974032779735 0.44589862777096717 40 40 42
1.232777264097847 2.4398991763929487 0.43328249152124826 42 42 44
1.2294514737820488 2.4247858943972798 0.4365242662223083 44 44 46
1.1587269173503925 2.3985824678226946 0.45754162316807023 44 44 46
1.1018878685072369 2.3744293300108548 0.4749349203900938 46 46 48
1.0782609230541818 2.3556390923314234 0.4835854978119893 47 47 49
1.05837812331779 2.3373915376159733 0.49126051901540013 43 44 46
0.9889809389792361 2.3105908462823224 0.5120602145875975 46 46 48
0.9259737186838923 2.2846444430268114 0.5312066421648862 76 75 76
0.822151131452701 2.251342511641313 0.5612214374805462 147 146 147
0.7358024925764916 2.220751759668704 0.5866543331358676 167 167 167
0.6483143798976868 2.1896480176530333 0.6124405913752946 168 168 168
0.692715240474491 2.1819467459916533 0.6031666794642936 168 168 168
0.8846463929833824 2.201175316376161 0.5545525774619711 168 168 168
0.7363563458351414 3.652138535620356 0.3696138013358038 170 170 170
0.9316852689859487 3.6410460598911394 0.32478377261581626 170 170 170
1.0658948504249053 3.6293878841931164 0.2946379524037935 171 169 170
1.1877850751295913 3.6178982000448965 0.2674059552097462 166 164 165
1.313020196603547 3.606874244694776 0.23929960161153363 111 109 110
1.4131044071082777 3.595636311275454 0.217232812241692 77 75 77
1.5108969323550232 3.5846574231448947 0.19567101828480682 83 81 84
1.5852419706397716 3.5733402445107663 0.17976232126792113 77 75 77
1.6375056782384554 3.561609881454914 0.16919273670963852 63 61 61
1.6722823441315169 3.549500315791368 0.16285985466342723 51 49 50
1.695179408552982 3.537108618165646 0.15940911294626947 40 38 42
1.730527359510205 3.5252104198045595 0.15290545148905277 46 42 43
1.7639080664350713 3.5133492168859304 0.1468654489964395 72 65 62
1.7323017768492843 3.499147859649069 0.1567217256968736 54 49 45
1.7279314097024299 3.485902049607029 0.1599200037582077 40 37 37
1.7247889151546407 3.472683516128245 0.16282069110380792 32 29 35
1.7464189682939002 3.460499149791584 0.15963871790179363 35 33 39
1.7385081711858903 3.447073146121217 0.1637115842250233 52 50 55
1.716435748656545 3.4329638271001692 0.17127668711356459 62 60 64
1.7081421933279752 3.419427014492299 0.1754589632046245 63 61 64
1.6916285704109832 3.4054505530803953 0.18167529490612344 74 69 72
1.6852482443135581 3.391925312448065 0.18539890695595096 69 64 67
1.6964828329123813 3.379293681231659 0.18477160212152388 68 62 66
1.7032297447973916 3.3664479631543136 0.1852505535503851 56 52 54
1.724926675130872 3.354449122567251 0.18202243175166422 24 22 23
1.7570210902044687 3.3431102554023866 0.17620455537215152 20 19 21
1.760127117676836 3.3301576380663596 0.1775701547696521 18 18 20
1.759839054477005 3.3170007193328437 0.17977932598099033 18 18 20
1.7575368537187468 3.303708652108719 0.18249135669038574 18 18 20
1.5566495387333326 3.27768565871251 0.23468647166850876 16 16 18
1.5660242767280512 3.2647979332780244 0.23454486619889137 14 14 16
1.5782094324301004 3.2521218681619195 0.23369784306266284 14 14 16
1.5889018243172406 3.239374525932852 0.2332188112501602 14 14 16
1.5974115320148212 3.2264997101428623 0.23328163069399355 18 18 20
1.6159925996396316 3.2143731265776614 0.23081819938078885 26 26 25
1.6091505444035223 3.2004179130071573 0.23472199772319768 40 40 39
1.6384904597331782 3.1891696242327843 0.22954701979810999 52 52 52
1.7804363526662959 3.1867216609024887 0.19605582570532243 65 65 67
1.7827085774976674 3.1737008996748495 0.1976315804130716 46 46 48
1.801749557403418 3.1620323856885038 0.19498382575699513 24 24 26
1.5798693371395927 3.1305725258915054 0.25307545637353157 23 23 25
1.5711371428003726 3.116276334326357 0.257485994507464 23 23 25
1.460523201357947 3.093207857195164 0.28764778835450167 22 22 24
1.5248366347428446 3.0850489920606203 0.2736203251889693 26 26 28
1.5688378736227213 3.075287458117546 0.2647031029921345 30 30 32
1.464378263390159 3.052190055228223 0.29340026237664585 32 32 34
1.5472369692226522 3.0186986443536465 0.27906628887620955 30 30 32
1.552701889545204 3.005542821156285 0.2799017630374586 29 29 31
1.5965567814394328 2.996203736933777 0.2709507559831429 31 31 33
1.6305106560432343 2.986004886408527 0.2645034751673393 32 32 34
1.637091041535985 2.973104532678351 0.26503107284690386 23 23 25
1.6134749075560149 2.957069892422593 0.27327795072196936 22 22 24
1.60759998785102 2.942825769626026 0.27699784685044726 11 11 13
1.6232022824187253 2.9308640925130955 0.27521876715940974 11 11 13
1.556540620547034 2.909954184199126 0.2945358393090234 11 11 13
1.5451294290639852 2.8949424124660936 0.2997023973742162 11 11 13
1.5135313900668677 2.877608003443677 0.31006639599750774 10 10 12
1.5363936412121935 2.8663870027856757 0.306433514361097 10 10 12
1.5249697056548737 2.8512543442621006 0.31162278118921494 12 12 14
1.5300247919612353 2.8380147103781233 0.31256973730158755 13 13 15
1.5451653692546279 2.8259881120433397 0.31091145365593365 13 13 15
1.505860001213382 2.807406168791893 0.3233185206705358 18 18 20
1.477144492450437 2.789982692531525 0.33300880785555365 21 21 23
1.4908085700533353 2.7777319633078967 0.3317394990786694 26 26 28
1.4906278353103883 2.7637701771880114 0.33405398332598 29 29 31
1.4462943958966328 2.7441476082026415 0.3478307884242836 29 29 31
1.4330064431534613 2.7283909729179343 0.3535665973239639 31 31 33
1.3683712864578155 2.705832825928557 0.3726679825588429 33 33 35
1.3372289971503366 2.6875027332945587 0.38308515141397503 34 34 36
1.4025574653758495 2.6820623304333226 0.3683731043267877 37 37 39
1.496421050890105 2.6807315064415733 0.3461797723861241 41 41 43
1.4579415528595083 2.661418287119257 0.35850862939213823 43 43 45
1.4126591005711981 2.641012026863777 0.37263950294233394 42 42 44
1.3415850912303864 2.616787758714405 0.3935492057898644 43 43 45
1.3169125890385613 2.5989630980901133 0.4023394949186997 36 36 38
1.3019056009583458 2.582446656851084 0.40860932861582405 38 38 40
1.3041495229968048 2.5684016592473142 0.410358465608037 39 39 41
1.2982569068107477 2.553146386606883 0.4142470828292711 37 37 39
1.2794367033091143 2.535919090909046 0.4215429611017363 36 36 38
1.2470359306733223 2.5165538245584615 0.43242899587382977 35 35 37
1.208955207609824 2.496194561887274 0.4448328183999831 36 36 38
1.1901066109369605 2.478683190052013 0.45218168964217076 38 38 40
1.1791880991731865 2.462343166240023 0.4574467039014258 40 40 42
1.1724845058671056 2.44662528947589 0.46160419852003787 42 42 44
1.2617747363446876 2.4462885570112047 0.4403410293406198 44 44 46
1.2168996499755542 2.4244753890835447 0.45460352353039557 46 46 48
1.177299604278074 2.403362735569676 0.4674926460296369 44 44 46
1.1437951462123652 2.383113801178754 0.4787859416056226 46 46 48
1.1148241603797908 2.3634984421194014 0.48889380398048027 63 63 65
1.0550175069867405 2.338555009184386 0.5072304326333249 49 50 52
0.9656626523244471 2.3083432364906837 0.5334787286503766 62 62 64
