ply
format ascii 1.0
element vertex 882
property float x
property float y
property float z
property float nx
property float ny
property float nz
property uchar diffuse_red
property uchar diffuse_green
property uchar diffuse_blue
property uchar class
property uchar detection
end_header
1.1348 2.5723 0.0424 0.518 -0.495 -0.698 47 47 49 0 0
1.1225 2.5620 0.0448 0.634 -0.431 -0.642 48 48 50 0 0
1.0694 2.3932 0.0664 0.311 -0.675 -0.668 32 32 35 0 0
0.9875 2.3142 0.0838 0.074 -0.995 0.073 17 17 20 0 0
0.9221 2.2942 0.0939 0.501 -0.735 -0.457 14 13 18 0 0
0.8043 2.2605 0.1119 -0.024 -0.969 -0.247 30 25 29 0 0
1.1529 2.4824 0.0619 0.234 -0.301 -0.925 46 46 48 0 0
1.0105 2.3481 0.0917 0.605 -0.760 0.237 25 24 29 0 0
0.9880 2.3218 0.0969 0.308 -0.945 0.110 17 16 21 0 0
0.9741 2.3216 0.0986 0.245 -0.967 -0.073 17 17 21 0 0
0.9622 2.3117 0.1010 0.469 -0.815 -0.341 16 15 20 0 0
0.8516 2.3076 0.1155 -0.218 -0.960 -0.177 33 31 34 0 0
0.8086 2.2501 0.1260 0.184 -0.877 -0.443 42 38 41 0 0
0.7389 2.3717 0.1244 -0.647 -0.760 0.058 34 32 35 0 0
1.0036 2.3231 0.1085 0.544 -0.832 0.111 24 23 26 0 0
0.9759 2.3228 0.1121 0.206 -0.974 0.095 18 18 18 0 0
0.8130 2.2393 0.1400 0.274 -0.753 -0.599 51 50 53 0 0
0.7229 2.3881 0.1390 -0.685 -0.686 0.244 42 40 43 0 0
1.3991 2.9355 0.0205 0.885 -0.345 -0.312 43 44 47 0 0
1.0534 2.3629 0.1125 0.466 -0.863 0.197 46 46 48 0 0
1.4380 2.9862 0.0260 -0.460 -0.631 0.625 141 140 140 0 0
1.1298 2.3365 0.1187 0.435 -0.438 -0.787 56 55 58 0 0
1.1127 2.3540 0.1194 -0.209 -0.592 -0.779 56 56 59 0 0
1.1012 2.3415 0.1219 -0.664 -0.743 0.085 55 55 57 0 0
0.9985 2.2996 0.1386 0.749 -0.492 -0.444 47 45 49 0 0
0.7357 2.3502 0.1684 -0.669 -0.680 -0.302 51 49 52 0 0
1.2208 2.5435 0.1041 0.487 -0.196 -0.851 37 37 39 0 0
1.2110 2.5189 0.1073 0.384 -0.235 -0.893 39 39 41 0 0
1.1378 2.3038 0.1340 0.175 -0.849 0.499 60 59 61 0 0
1.0265 2.3789 0.1424 0.335 -0.910 0.246 48 47 52 0 0
1.0004 2.2999 0.1521 0.704 -0.509 -0.495 51 49 55 0 0
0.9016 2.3074 0.1643 0.675 -0.294 0.677 59 60 62 0 0
0.6380 2.4715 0.1853 0.036 -0.929 0.368 90 89 87 0 0
0.6233 2.4727 0.1871 -0.063 -0.962 0.267 120 119 117 0 0
1.1753 2.3363 0.1403 -0.238 -0.968 -0.075 64 62 65 0 0
1.0299 2.3718 0.1564 0.342 -0.790 -0.509 49 49 54 0 0
0.7036 2.3838 0.1978 -0.687 -0.595 -0.418 55 55 55 0 0
0.6385 2.4776 0.1989 0.409 -0.717 0.564 74 73 71 0 0
0.6300 2.4531 0.2019 -0.276 -0.864 -0.422 84 83 81 0 0
1.2054 2.3335 0.1503 0.508 -0.861 -0.023 69 66 69 0 0
1.1912 2.3355 0.1520 0.012 -0.994 0.105 69 66 69 0 0
0.9073 2.5014 0.1762 0.965 -0.121 0.232 80 80 80 0 0
0.8248 2.1693 0.2124 0.509 -0.723 -0.468 68 68 69 0 0
0.6316 2.4549 0.2157 -0.096 -0.991 -0.093 69 68 67 0 0
0.5909 2.4451 0.2217 -0.568 -0.356 -0.742 94 93 91 0 0
1.3006 2.5230 0.1374 0.501 -0.379 -0.778 35 35 37 0 0
1.2645 2.4031 0.1511 0.407 -0.535 -0.741 43 43 45 0 0
1.2304 2.3601 0.1588 0.785 -0.569 -0.242 64 63 66 0 0
1.2192 2.3448 0.1614 0.594 -0.790 -0.148 70 68 71 0 0
1.0886 2.3777 0.1760 0.150 -0.250 -0.957 54 49 55 0 0
0.8859 2.3440 0.2050 0.955 -0.200 0.221 83 78 81 0 0
0.6002 2.4828 0.2460 0.041 -0.627 0.778 61 59 62 0 0
0.5755 2.4655 0.2505 -0.300 -0.951 -0.077 67 66 65 0 0
0.4961 2.5508 0.2546 -0.692 -0.343 -0.636 166 164 163 0 0
1.3090 2.4102 0.1724 0.552 -0.551 -0.626 40 40 42 0 0
0.8915 2.4704 0.2229 0.917 -0.398 -0.022 88 83 87 0 0
1.2880 2.3816 0.1910 0.408 -0.831 -0.378 53 52 55 0 0
1.2767 2.3670 0.1935 -0.106 -0.971 0.215 56 56 59 0 0
0.8524 2.2683 0.2563 0.962 -0.185 0.200 69 68 69 0 0
0.8394 2.2015 0.2627 0.786 -0.541 0.299 56 55 55 0 0
1.3338 2.4538 0.1938 0.792 -0.363 -0.491 35 36 40 0 0
1.2804 2.3569 0.2075 0.393 -0.700 -0.596 50 49 54 0 0
0.8394 2.2102 0.2758 0.831 -0.514 0.213 57 55 56 0 0
0.4886 2.4898 0.3028 -0.739 -0.455 -0.496 94 94 92 0 0
1.4491 3.1631 0.1449 0.999 -0.043 0.009 34 37 42 0 0
1.2460 2.3283 0.2278 0.279 -0.738 -0.614 35 34 39 0 0
0.8192 2.1247 0.2979 -0.189 -0.931 -0.311 59 59 59 0 0
0.4887 2.4975 0.3166 -0.712 -0.683 -0.164 78 77 77 0 0
0.4727 2.5030 0.3183 -0.756 -0.503 -0.419 95 96 95 0 0
1.2497 2.3182 0.2417 0.279 -0.738 -0.614 35 34 39 0 0
0.8444 2.3322 0.2945 0.922 -0.387 -0.017 66 64 65 0 0
0.8252 2.2293 0.3038 0.896 -0.443 0.035 54 54 54 0 0
0.5061 2.5517 0.3250 0.458 -0.669 0.586 54 52 55 0 0
1.4369 2.8527 0.1963 0.999 -0.031 0.010 54 54 55 0 0
1.2527 2.3126 0.2553 0.278 -0.671 -0.687 34 33 36 0 0
1.1531 2.1813 0.2770 0.373 -0.699 -0.610 69 66 65 0 0
1.0570 2.1160 0.2939 -0.405 -0.216 -0.889 59 54 57 0 0
0.8754 2.2631 0.3087 -0.430 -0.702 0.568 69 66 67 0 0
0.8518 2.3077 0.3090 0.514 -0.772 0.373 64 63 64 0 0
0.4890 2.5695 0.3405 0.288 -0.697 0.657 53 53 55 0 0
0.4425 2.5228 0.3497 -0.791 -0.491 -0.366 107 107 105 0 0
1.4360 2.8750 0.2096 0.998 -0.046 -0.051 58 58 59 0 0
1.3652 2.5766 0.2376 0.934 -0.175 -0.312 33 33 35 0 0
1.1696 2.1763 0.2886 0.142 -0.852 -0.504 63 59 60 0 0
1.1574 2.1687 0.2907 0.301 -0.730 -0.614 55 53 54 0 0
0.4508 2.4988 0.3644 -0.791 -0.511 -0.337 84 84 82 0 0
0.4262 2.5367 0.3653 -0.820 -0.455 -0.347 124 124 122 0 0
1.4368 2.8852 0.2234 0.996 -0.047 -0.077 64 64 65 0 0
1.4300 2.8299 0.2277 0.997 -0.044 0.062 45 46 48 0 0
1.3753 2.6169 0.2479 0.922 -0.187 -0.338 31 31 33 0 0
1.3679 2.5725 0.2516 0.942 -0.157 -0.297 33 33 35 0 0
1.3623 2.5168 0.2557 0.937 -0.169 -0.304 35 36 38 0 0
1.2841 2.3132 0.2785 0.460 -0.637 -0.619 32 32 34 0 0
1.2730 2.2978 0.2810 0.520 -0.597 -0.611 28 28 30 0 0
1.1721 2.1734 0.3020 0.447 -0.642 -0.623 47 45 48 0 0
0.8769 2.2746 0.3353 0.801 -0.566 -0.193 56 56 56 0 0
0.4085 2.5562 0.3809 -0.829 -0.467 -0.307 150 150 148 0 0
1.4280 2.8603 0.2406 0.993 -0.062 0.098 50 51 52 0 0
1.4101 2.7830 0.2476 0.934 -0.043 0.355 32 33 36 0 0
1.3843 2.6661 0.2580 0.899 -0.141 -0.415 31 31 33 0 0
1.3830 2.5796 0.2633 0.929 -0.282 -0.241 31 31 33 0 0
1.3711 2.5652 0.2657 0.942 -0.157 -0.297 34 34 37 0 0
1.2209 2.2154 0.3065 0.441 -0.633 -0.636 33 33 35 0 0
1.1765 2.1602 0.3157 0.524 -0.645 -0.557 29 28 30 0 0
1.1463 2.1044 0.3231 0.168 -0.984 -0.056 28 28 30 0 0
0.8682 2.2599 0.3512 -0.782 -0.573 0.244 51 51 51 0 0
1.1922 2.1594 0.3272 0.269 -0.835 -0.479 35 35 37 0 0
0.8842 2.2595 0.3628 -0.498 -0.678 -0.540 48 48 48 0 0
0.8656 2.2812 0.3641 -0.807 -0.590 -0.018 47 47 47 0 0
0.4417 2.6143 0.4019 0.244 -0.913 0.326 54 53 57 0 0
0.3991 2.5516 0.4112 -0.841 -0.483 -0.245 158 157 155 0 0
1.3582 2.4035 0.3047 0.871 -0.469 -0.146 28 28 30 0 0
1.3471 2.3865 0.3071 0.878 -0.460 -0.134 25 24 27 0 0
1.1954 2.1524 0.3406 -0.090 -0.913 -0.399 32 32 34 0 0
1.1619 2.1141 0.3473 0.539 -0.810 -0.231 19 19 21 0 0
0.9888 2.0992 0.3715 0.384 -0.865 -0.324 33 33 35 0 0
0.4552 2.5697 0.4171 -0.162 -0.977 -0.135 52 51 56 0 0
1.3878 2.6853 0.2992 0.989 -0.139 0.043 34 34 36 0 0
1.3605 2.4024 0.3183 0.869 -0.454 -0.196 25 25 27 0 0
1.3493 2.3856 0.3207 0.865 -0.475 -0.164 19 19 21 0 0
1.3139 2.3488 0.3275 0.284 -0.935 -0.212 31 30 34 0 0
1.3045 2.3223 0.3302 0.634 -0.711 -0.305 28 28 30 0 0
1.2775 2.2375 0.3384 0.489 -0.601 -0.632 35 35 36 0 0
1.1978 2.1505 0.3539 0.285 -0.948 -0.144 22 22 24 0 0
1.1371 2.1129 0.3642 0.182 -0.784 -0.594 25 25 27 0 0
1.1218 2.1221 0.3657 0.130 -0.817 -0.561 27 27 29 0 0
1.0043 2.0995 0.3828 -0.134 -0.985 -0.104 22 22 24 0 0
0.9902 2.1021 0.3846 0.006 -0.814 -0.580 26 26 28 0 0
0.9790 2.0904 0.3868 0.165 -0.900 -0.405 30 30 32 0 0
1.3939 2.6588 0.3141 0.934 -0.218 0.282 36 36 36 0 0
1.3628 2.4009 0.3319 0.869 -0.454 -0.196 26 26 27 0 0
1.3513 2.3862 0.3342 0.828 -0.514 -0.227 17 16 20 0 0
1.3407 2.3661 0.3367 0.743 -0.651 -0.156 28 27 32 0 0
1.3161 2.3476 0.3410 0.159 -0.986 0.050 31 30 35 0 0
1.2227 2.1733 0.3628 0.410 -0.912 -0.004 22 22 24 0 0
1.2100 2.1686 0.3648 0.765 -0.639 -0.081 22 22 24 0 0
1.1403 2.1062 0.3775 0.576 -0.722 -0.383 26 26 28 0 0
1.1252 2.1149 0.3791 0.335 -0.903 -0.269 27 27 29 0 0
1.0063 2.0992 0.3961 0.173 -0.780 0.601 16 16 18 0 0
0.9801 2.0946 0.3999 -0.172 -0.767 -0.618 24 24 26 0 0
0.7826 2.0623 0.4283 -0.366 -0.930 -0.027 53 53 54 0 0
1.3651 2.3994 0.3455 0.869 -0.454 -0.196 25 25 26 0 0
1.3534 2.3857 0.3478 0.847 -0.516 -0.131 15 14 18 0 0
1.3429 2.3650 0.3503 0.683 -0.726 -0.074 22 21 24 0 0
1.3179 2.3493 0.3545 0.211 -0.978 -0.002 33 33 36 0 0
1.3067 2.3336 0.3568 0.550 -0.804 -0.225 29 29 31 0 0
1.2249 2.1725 0.3761 0.269 -0.961 -0.059 17 17 19 0 0
1.2004 2.1578 0.3802 0.455 -0.849 -0.267 16 16 18 0 0
0.9518 2.1089 0.4165 -0.234 -0.971 0.050 29 29 31 0 0
1.3908 2.7089 0.3405 0.986 -0.096 0.136 43 43 43 0 0
1.3856 2.6479 0.3443 0.968 -0.128 0.218 40 40 40 0 0
1.3662 2.4054 0.3589 0.888 -0.460 0.002 25 25 26 0 0
1.3551 2.3878 0.3613 0.841 -0.534 0.090 16 15 18 0 0
1.3439 2.3715 0.3636 0.808 -0.580 0.102 23 23 25 0 0
1.3207 2.3447 0.3681 0.568 -0.774 -0.280 35 35 37 0 0
1.2259 2.1784 0.3892 0.021 -0.948 0.319 15 15 17 0 0
1.2012 2.1647 0.3933 0.627 -0.749 0.215 15 15 17 0 0
1.1261 2.1312 0.4052 -0.807 -0.585 0.088 24 24 26 0 0
0.9538 2.1086 0.4298 -0.556 -0.698 0.451 27 27 29 0 0
0.9231 2.1249 0.4331 -0.554 -0.614 0.562 32 32 34 0 0
0.4610 2.4660 0.4792 -0.401 -0.904 -0.148 63 61 63 0 0
0.3886 2.5741 0.4837 -0.903 -0.390 0.178 167 167 165 0 0
1.3458 2.3730 0.3771 0.857 -0.515 -0.019 22 21 24 0 0
1.3349 2.3548 0.3795 0.857 -0.515 -0.019 48 47 49 0 0
1.2129 2.1864 0.4042 0.670 -0.728 -0.144 17 17 19 0 0
1.1798 2.1443 0.4107 0.853 -0.402 0.332 14 14 16 0 0
1.1672 2.1390 0.4127 0.719 -0.419 0.555 15 15 17 0 0
1.1516 2.0779 0.4178 -0.831 -0.556 0.031 21 21 23 0 0
1.1327 2.1064 0.4190 -0.840 -0.542 -0.026 23 23 25 0 0
1.1096 2.1570 0.4197 -0.638 -0.633 0.438 25 25 27 0 0
0.4693 2.4982 0.4908 -0.721 -0.617 -0.315 54 52 54 0 0
1.3944 2.7137 0.3685 0.987 -0.119 0.111 50 50 52 0 0
1.2754 2.2292 0.4072 0.537 -0.782 0.316 20 20 22 0 0
0.9749 2.0921 0.4547 0.238 -0.971 0.032 23 23 25 0 0
1.4470 2.9721 0.3641 0.999 -0.054 0.008 56 56 56 0 0
1.2761 2.2374 0.4204 0.553 -0.760 0.341 30 30 32 0 0
1.4478 2.9824 0.3783 0.998 -0.056 -0.019 53 53 53 0 0
1.3126 2.2761 0.4273 0.712 -0.598 -0.369 35 35 37 0 0
0.9696 2.0708 0.4834 0.252 -0.805 -0.538 21 21 23 0 0
0.9544 2.0785 0.4851 0.015 -0.823 -0.568 21 21 23 0 0
0.4888 2.4463 0.5334 -0.745 -0.526 -0.410 53 53 53 0 0
1.2921 2.2469 0.4451 0.463 -0.822 -0.331 28 28 29 0 0
1.2791 2.2434 0.4470 0.162 -0.967 -0.196 26 26 28 0 0
1.2549 2.2255 0.4511 0.076 -0.995 -0.064 26 26 28 0 0
1.1974 2.1658 0.4615 0.336 -0.764 -0.552 24 24 27 0 0
0.5073 2.4386 0.5454 -0.003 -0.512 -0.859 46 46 46 0 0
0.4807 2.4294 0.5495 -0.503 -0.519 -0.691 67 67 66 0 0
1.4139 2.7371 0.4223 0.124 -0.343 0.931 52 52 54 0 0
1.2008 2.1581 0.4749 0.538 -0.673 -0.508 27 27 28 0 0
0.5029 2.4072 0.5615 -0.215 -0.472 -0.855 54 54 54 0 0
0.4878 2.4097 0.5635 -0.397 -0.480 -0.782 67 67 66 0 0
0.9340 2.0111 0.5311 -0.048 -0.558 -0.828 28 28 30 0 0
0.4990 2.3742 0.5775 -0.503 -0.519 -0.691 67 67 66 0 0
1.2962 2.2591 0.4850 0.534 -0.589 0.607 43 42 46 0 0
1.2821 2.2618 0.4869 0.448 -0.764 0.465 36 36 38 0 0
1.2104 2.1269 0.5018 0.448 -0.718 0.533 32 32 32 0 0
0.5598 2.3693 0.5834 -0.232 -0.597 -0.768 41 41 42 0 0
0.4885 2.3669 0.5934 -0.384 -0.581 -0.718 121 121 119 0 0
0.8270 2.0219 0.5725 0.305 -0.913 -0.271 49 49 49 0 0
1.3931 2.7426 0.4827 0.686 -0.483 0.544 47 47 49 0 0
1.2129 2.2114 0.5257 0.087 -0.816 0.571 36 36 37 0 0
0.5146 2.3933 0.6172 0.840 -0.289 -0.459 57 55 58 0 0
1.2843 2.2850 0.5269 0.650 -0.245 0.719 50 50 52 0 0
1.2043 2.1944 0.5410 0.180 -0.667 0.723 35 35 35 0 0
0.8315 2.0192 0.5989 0.089 -0.880 0.467 50 50 50 0 0
1.4060 2.9888 0.5023 0.977 -0.072 -0.202 41 41 43 0 0
1.2664 2.2408 0.5445 0.553 -0.317 0.770 43 43 45 0 0
1.2214 2.2638 0.5502 0.508 -0.738 0.444 41 41 43 0 0
0.8201 2.0177 0.6140 0.642 -0.660 0.390 51 50 50 0 0
1.5118 3.3372 0.4923 0.961 0.007 -0.276 28 28 30 0 0
1.3118 2.3948 0.5474 0.639 -0.302 0.707 56 56 58 0 0
1.2347 2.2784 0.5616 0.493 -0.781 0.383 42 42 44 0 0
1.2221 2.2718 0.5636 0.403 -0.843 0.355 42 42 44 0 0
1.1683 2.1156 0.5756 0.505 -0.452 0.735 27 27 29 0 0
0.5151 2.3030 0.6623 0.943 0.060 -0.327 122 120 121 0 0
1.5163 3.3195 0.5075 0.961 0.007 -0.276 28 28 30 0 0
1.3540 2.6784 0.5477 0.953 -0.274 -0.125 49 49 51 0 0
1.2344 2.2919 0.5751 0.353 -0.781 0.516 44 44 46 0 0
1.2229 2.2789 0.5771 0.295 -0.704 0.646 43 43 45 0 0
0.9626 2.0044 0.6212 0.232 -0.331 -0.915 24 24 26 0 0
0.9519 1.9915 0.6231 -0.266 -0.556 -0.788 37 37 39 0 0
0.8979 1.9913 0.6307 -0.794 -0.576 0.193 54 52 53 0 0
1.4112 2.9992 0.5458 0.988 -0.057 -0.141 38 38 40 0 0
1.3001 2.4071 0.5766 0.881 -0.237 0.409 64 64 66 0 0
1.2350 2.3002 0.5886 0.698 -0.472 0.539 46 46 48 0 0
1.2232 2.2888 0.5905 0.290 -0.577 0.764 44 44 46 0 0
0.9585 1.9696 0.6361 -0.101 -0.551 -0.829 29 29 31 0 0
0.9182 1.9688 0.6419 -0.618 -0.770 -0.159 54 52 54 0 0
1.3560 2.6937 0.5758 0.935 -0.288 0.207 44 44 46 0 0
1.3465 2.6626 0.5779 0.902 -0.431 -0.027 46 46 48 0 0
1.3357 2.6398 0.5800 0.824 -0.474 -0.311 49 49 51 0 0
1.2552 2.2744 0.6001 0.960 -0.151 0.234 52 52 54 0 0
1.2371 2.2997 0.6021 0.727 -0.437 0.530 47 47 49 0 0
1.2196 2.2422 0.6059 0.431 -0.499 0.752 42 42 44 0 0
0.9510 1.9507 0.6510 0.550 -0.566 -0.614 42 42 44 0 0
1.4115 3.0293 0.5749 1.000 -0.025 0.014 37 37 39 0 0
1.3277 2.6132 0.5960 0.783 -0.400 -0.477 47 47 49 0 0
1.3018 2.4223 0.6040 0.942 -0.336 -0.030 55 55 57 0 0
0.9665 1.9501 0.6622 0.898 -0.369 -0.239 34 34 36 0 0
0.9000 2.0079 0.6704 -0.573 -0.691 0.441 60 60 61 0 0
1.3313 2.6036 0.6100 0.783 -0.400 -0.477 44 44 46 0 0
1.1900 2.2009 0.6385 0.434 -0.633 0.641 36 36 38 0 0
0.9398 1.9582 0.6792 0.843 -0.538 -0.022 53 52 55 0 0
1.3204 2.5964 0.6260 0.815 -0.464 -0.347 43 43 45 0 0
1.2437 2.2969 0.6426 0.399 -0.639 0.657 48 48 50 0 0
1.2208 2.2700 0.6464 0.810 -0.257 0.527 41 41 43 0 0
1.2771 2.2739 0.6521 0.694 -0.656 -0.298 50 50 52 0 0
1.2629 2.2769 0.6541 0.615 -0.785 -0.074 48 48 50 0 0
1.1823 2.1901 0.6671 0.823 -0.077 0.563 36 36 38 0 0
1.5847 3.5259 0.6019 0.960 -0.245 -0.134 44 44 46 0 0
1.3027 2.5560 0.6577 0.812 -0.172 0.557 39 40 42 0 0
1.2881 2.4720 0.6611 0.608 -0.555 0.568 43 44 46 0 0
1.2258 2.2649 0.6734 0.927 -0.231 0.296 44 44 46 0 0
1.5388 3.2864 0.6276 -0.454 -0.760 0.466 30 30 32 0 0
1.5222 3.2986 0.6298 -0.305 -0.860 0.409 31 31 33 0 0
1.2983 2.5968 0.6720 0.793 -0.235 0.562 38 38 40 0 0
1.2878 2.4863 0.6751 0.736 -0.658 0.163 39 40 42 0 0
1.2254 2.2788 0.6870 0.930 -0.271 0.248 43 43 45 0 0
1.1808 2.1454 0.6953 0.139 -0.983 -0.124 35 35 37 0 0
0.8314 1.8769 0.7495 -0.234 -0.740 -0.631 62 62 62 0 0
0.7935 1.8670 0.7551 -0.015 -0.533 -0.846 73 73 75 0 0
1.2849 2.2634 0.6924 0.686 -0.688 -0.239 41 41 43 0 0
1.2277 2.2771 0.7005 0.840 -0.491 0.230 42 42 44 0 0
1.1823 2.1479 0.7087 0.724 -0.668 -0.173 35 35 37 0 0
1.1671 2.0833 0.7117 -0.624 -0.693 -0.361 30 30 32 0 0
0.9347 1.9645 0.7468 -0.033 -0.861 -0.507 84 80 79 0 0
0.7992 1.8508 0.7678 0.312 -0.583 -0.750 66 66 68 0 0
1.4307 3.0030 0.6770 -0.785 -0.581 -0.216 40 40 42 0 0
0.8031 1.8424 0.7806 0.377 -0.456 -0.806 55 55 57 0 0
1.2002 2.2226 0.7326 0.830 -0.283 0.480 38 38 40 0 0
1.1854 2.0785 0.7361 -0.369 -0.791 -0.488 34 34 36 0 0
1.1699 2.0893 0.7383 -0.629 -0.708 -0.323 32 32 34 0 0
0.9227 1.9226 0.7891 -0.710 -0.482 0.514 91 87 84 0 0
0.8177 1.7967 0.8053 -0.249 -0.738 -0.627 51 51 53 0 0
1.4281 2.9639 0.7223 -0.626 -0.695 -0.353 43 43 45 0 0
0.9385 1.9207 0.8001 -0.477 -0.497 0.725 84 81 78 0 0
0.6648 1.9338 0.8400 -0.455 -0.335 -0.825 70 70 72 0 0
1.1445 2.1858 0.7822 0.904 -0.422 0.067 32 32 34 0 0
0.8177 1.7569 0.8319 0.325 -0.670 -0.668 50 50 52 0 0
0.6518 1.9388 0.8554 -0.445 -0.308 -0.841 74 74 76 0 0
0.5942 2.0031 0.8635 0.124 -0.246 -0.961 141 139 140 0 0
0.8239 1.7387 0.8442 0.619 -0.713 -0.330 50 50 52 0 0
1.4905 3.1003 0.7576 0.931 -0.340 -0.136 37 36 39 0 0
0.6558 1.8845 0.8818 -0.429 -0.365 -0.826 70 70 70 0 0
0.6177 1.9269 0.8874 -0.321 -0.403 -0.857 84 84 84 0 0
0.6319 1.8794 0.8988 -0.426 -0.429 -0.796 75 75 75 0 0
0.6131 1.8995 0.9016 -0.230 -0.518 -0.824 85 85 85 0 0
1.5040 3.1465 0.7858 0.776 -0.631 -0.005 35 35 37 0 0
0.9258 2.0239 0.8690 -0.434 -0.331 0.838 48 48 50 0 0
1.4941 3.1245 0.8024 0.817 -0.533 -0.220 36 36 38 0 0
1.4852 3.0786 0.8035 0.967 -0.251 0.032 37 37 39 0 0
0.8595 1.8464 0.8918 -0.442 -0.613 -0.655 54 54 57 0 0
0.6276 1.8581 0.9262 -0.346 -0.553 -0.758 67 67 68 0 0
1.4960 3.1280 0.8173 0.692 -0.722 -0.028 36 36 38 0 0
1.4865 3.0856 0.8184 0.966 -0.257 0.033 37 37 39 0 0
1.4679 3.0020 0.8208 0.868 -0.467 0.168 44 44 45 0 0
0.9820 1.9690 0.8875 -0.409 -0.387 0.826 37 37 39 0 0
1.6274 3.5814 0.8159 0.281 -0.954 0.100 41 42 46 0 0
1.5511 3.1830 0.8246 0.654 -0.717 -0.240 37 37 39 0 0
1.5113 3.1427 0.8302 0.645 -0.764 0.016 39 39 41 0 0
1.4978 3.1314 0.8321 0.552 -0.828 0.097 36 36 38 0 0
1.4869 3.1007 0.8336 0.954 -0.298 -0.029 37 37 39 0 0
1.4694 3.0076 0.8355 0.911 -0.412 0.015 42 42 43 0 0
0.9987 1.8994 0.8980 0.866 -0.239 -0.440 35 35 37 0 0
0.8533 1.8317 0.9192 0.356 -0.912 0.202 80 81 80 0 0
0.8389 1.8362 0.9214 0.625 -0.396 -0.673 96 95 96 0 0
1.6296 3.5831 0.8314 0.244 -0.970 0.018 42 43 45 0 0
1.5529 3.1874 0.8396 0.821 -0.518 -0.240 37 37 39 0 0
1.4893 3.0991 0.8483 0.866 -0.430 -0.256 37 37 39 0 0
1.4804 3.0536 0.8492 0.968 -0.250 0.027 39 39 41 0 0
1.4719 3.0055 0.8501 0.946 -0.323 0.024 41 41 42 0 0
0.9237 2.0069 0.9234 0.598 -0.227 -0.769 34 35 37 0 0
0.8680 1.8342 0.9303 0.408 -0.824 -0.393 101 102 99 0 0
0.5822 1.8976 0.9735 0.949 -0.175 0.261 60 60 60 0 0
0.5747 1.8743 0.9744 0.937 -0.116 0.328 73 73 73 0 0
1.6320 3.5828 0.8469 0.305 -0.944 -0.125 42 42 44 0 0
1.5554 3.1850 0.8544 0.820 -0.457 -0.345 38 38 40 0 0
1.4817 3.0604 0.8641 0.968 -0.250 0.027 40 40 42 0 0
1.0542 1.7784 0.9151 0.157 -0.574 -0.804 37 37 39 0 0
0.9578 1.9833 0.9316 0.646 -0.762 0.043 32 32 34 0 0
0.9428 1.9904 0.9340 0.507 -0.785 -0.355 31 32 34 0 0
0.9325 1.9755 0.9353 0.643 -0.651 -0.404 37 37 39 0 0
0.7588 1.6873 0.9584 0.222 -0.682 -0.697 54 51 52 0 0
1.5580 3.1825 0.8692 0.866 -0.434 -0.250 38 38 40 0 0
1.4902 3.1277 0.8787 -0.243 -0.969 0.052 37 37 39 0 0
1.4831 3.0673 0.8791 0.968 -0.250 0.027 39 39 41 0 0
0.9037 1.8707 0.9519 0.836 -0.394 0.382 63 63 61 0 0
0.8874 1.8241 0.9538 0.908 -0.355 0.224 67 67 67 0 0
0.8858 1.7729 0.9535 -0.024 -0.466 -0.885 66 66 68 0 0
0.8039 1.6724 0.9646 -0.138 -0.761 -0.634 45 43 46 0 0
1.4845 3.0742 0.8940 0.968 -0.250 0.027 38 38 40 0 0
0.8086 1.6603 0.9767 0.064 -0.824 -0.563 38 37 40 0 0
1.6277 3.5459 0.8946 -0.273 -0.923 -0.271 34 34 37 0 0
1.4950 3.1436 0.9237 -0.617 -0.786 -0.040 35 34 38 0 0
0.9695 1.7789 0.9805 0.768 -0.429 -0.475 30 28 31 0 0
1.4932 3.1751 0.9398 -0.878 -0.449 -0.164 36 35 39 0 0
1.1137 1.9253 0.9745 -0.715 -0.698 -0.041 37 37 39 0 0
1.0998 1.9283 0.9766 -0.606 -0.745 -0.280 37 36 41 0 0
0.9763 1.7565 0.9922 0.576 -0.439 -0.689 23 21 24 0 0
0.8325 1.7497 1.0139 0.018 -0.711 0.703 15 14 19 0 0
0.8187 1.7519 1.0160 0.068 -0.675 0.734 17 16 21 0 0
0.5546 1.8389 1.0576 -0.627 -0.747 0.219 60 59 63 0 0
0.9900 1.7626 1.0034 0.116 -0.633 -0.765 19 19 21 0 0
0.9793 1.7513 1.0048 0.344 -0.639 -0.688 23 21 24 0 0
0.8584 1.7034 1.0222 -0.142 -0.971 0.191 11 11 13 0 0
0.8152 1.7745 1.0302 0.332 -0.615 0.715 14 14 16 0 0
0.8008 1.7790 1.0324 -0.307 -0.738 0.601 18 18 20 0 0
0.5368 1.8616 1.0741 -0.608 -0.735 0.301 90 90 90 0 0
1.0181 1.7633 1.0123 0.030 -0.682 -0.731 20 20 22 0 0
0.8178 1.7713 1.0429 -0.246 -0.777 -0.579 11 11 13 0 0
0.8069 1.7611 1.0444 -0.464 -0.530 -0.710 14 14 16 0 0
0.7702 1.7481 1.0497 0.069 -0.996 -0.065 13 13 15 0 0
1.5066 3.1232 0.9823 -0.826 -0.563 0.006 35 34 37 0 0
1.4887 3.1466 0.9856 -0.808 -0.588 0.022 34 34 36 0 0
1.0342 1.7585 1.0229 0.338 -0.643 -0.687 22 22 24 0 0
1.5711 3.1017 0.9871 0.559 -0.697 -0.449 41 41 43 0 0
1.5278 3.0911 0.9934 -0.854 -0.520 -0.015 50 48 51 0 0
1.4911 3.1461 1.0004 -0.834 -0.551 0.043 33 33 35 0 0
1.0481 1.7636 1.0340 0.454 -0.820 -0.348 24 24 26 0 0
1.0365 1.7565 1.0356 0.454 -0.820 -0.348 34 34 36 0 0
0.9690 1.7641 1.0461 0.489 -0.871 0.050 13 11 16 0 0
1.5741 3.0949 1.0016 0.559 -0.697 -0.449 39 39 41 0 0
1.4940 3.1408 1.0151 -0.838 -0.546 -0.009 33 33 35 0 0
1.4784 3.1458 1.0176 0.348 -0.811 -0.471 32 31 34 0 0
1.2194 2.2892 1.0347 0.895 0.047 0.443 59 56 61 0 0
1.1345 1.9371 1.0385 0.422 -0.384 -0.821 39 38 43 0 0
1.1246 1.9195 1.0395 0.268 -0.485 -0.833 40 39 44 0 0
1.1187 1.8811 1.0394 0.925 -0.275 0.261 40 39 44 0 0
1.0280 1.7435 1.0497 0.330 -0.882 -0.338 34 33 35 0 0
0.9706 1.7657 1.0591 0.489 -0.871 0.050 14 13 17 0 0
1.5776 3.0851 1.0159 0.450 -0.705 -0.548 39 39 41 0 0
1.4820 3.1359 1.0320 0.562 -0.714 -0.418 33 33 35 0 0
1.1361 1.9388 1.0517 0.296 -0.677 -0.674 39 38 43 0 0
1.1300 1.9012 1.0515 0.566 -0.658 -0.497 41 40 45 0 0
1.0793 1.8229 1.0571 0.318 -0.858 0.404 32 31 36 0 0
1.0323 1.7321 1.0618 0.373 -0.927 -0.034 17 15 16 0 0
0.8527 1.8255 1.0920 -0.295 -0.948 -0.123 11 11 13 0 0
1.5831 3.0575 1.0293 0.074 -0.789 -0.610 39 39 41 0 0
1.5742 3.0092 1.0293 -0.858 -0.507 -0.086 38 38 40 0 0
1.4850 3.1302 1.0466 0.507 -0.752 -0.421 33 33 35 0 0
1.1374 1.9421 1.0650 0.812 -0.562 -0.161 39 38 43 0 0
1.0814 1.8222 1.0700 0.172 -0.956 0.236 31 30 35 0 0
1.0257 1.7104 1.0753 -0.015 -0.990 -0.137 14 12 14 0 0
0.9997 1.7096 1.0793 0.102 -0.993 0.057 16 16 18 0 0
1.5841 3.0688 1.0446 0.385 -0.652 -0.653 39 39 41 0 0
1.5773 3.0021 1.0436 -0.860 -0.507 -0.058 39 39 41 0 0
1.4882 3.1230 1.0611 0.319 -0.823 -0.470 33 33 35 0 0
1.3773 2.9559 1.0730 0.990 -0.086 0.115 41 41 43 0 0
1.1749 2.0385 1.0756 0.776 -0.125 0.619 37 36 41 0 0
1.1704 1.9903 1.0748 0.846 -0.139 0.516 37 36 41 0 0
1.1433 1.9218 1.0768 0.602 -0.737 -0.307 41 40 45 0 0
1.1326 1.9083 1.0781 0.950 -0.262 -0.170 42 41 46 0 0
1.0942 1.8336 1.0817 -0.083 -0.984 0.160 34 33 38 0 0
1.0818 1.8294 1.0834 0.678 -0.693 -0.246 31 30 35 0 0
1.4914 3.1159 1.0756 0.319 -0.823 -0.470 33 33 35 0 0
1.4165 3.1171 1.0872 0.938 -0.090 -0.335 53 53 55 0 0
1.3879 3.0012 1.0878 0.990 -0.129 0.061 44 44 46 0 0
1.3773 2.9712 1.0885 0.997 -0.080 0.007 40 40 42 0 0
1.1525 1.9534 1.0898 0.437 -0.529 -0.727 41 40 45 0 0
1.1312 1.8568 1.0899 -0.264 -0.962 -0.062 41 40 45 0 0
1.0418 1.7137 1.0991 0.120 -0.713 -0.691 26 24 29 0 0
1.4946 3.1087 1.0900 0.203 -0.772 -0.603 33 33 35 0 0
1.4160 3.1373 1.1032 0.970 -0.203 -0.134 52 52 53 0 0
1.4980 3.0998 1.1044 -0.025 -0.765 -0.643 33 33 35 0 0
1.4399 3.1999 1.1170 0.140 -0.828 -0.543 56 56 58 0 0
1.4250 3.1990 1.1193 0.282 -0.819 -0.500 58 58 58 0 0
1.4182 3.1380 1.1181 0.970 -0.203 -0.134 51 51 51 0 0
1.4091 3.0948 1.1180 0.970 -0.203 -0.134 42 42 44 0 0
0.8021 1.6321 1.1596 0.404 -0.817 -0.411 21 21 23 0 0
0.6226 1.8148 1.1941 -0.197 -0.932 0.306 34 35 37 0 0
1.4587 3.1891 1.1290 0.116 -0.954 -0.276 39 39 41 0 0
1.4432 3.1929 1.1316 0.426 -0.853 -0.302 52 52 54 0 0
1.4282 3.1919 1.1339 0.211 -0.966 -0.148 58 58 58 0 0
0.6996 1.7321 1.1923 -0.856 -0.515 0.041 13 13 15 0 0
1.4615 3.1857 1.1438 0.133 -0.971 -0.200 36 34 37 0 0
1.4467 3.1834 1.1460 0.318 -0.925 -0.207 50 48 51 0 0
1.4310 3.1883 1.1487 0.218 -0.975 0.033 60 58 61 0 0
0.6909 1.7735 1.2086 -0.587 -0.636 -0.501 13 13 15 0 0
1.5444 3.0207 1.1394 -0.718 -0.630 -0.297 46 45 49 0 0
1.4335 3.1867 1.1636 0.130 -0.988 -0.086 58 56 59 0 0
0.9246 1.6935 1.1821 0.355 -0.820 -0.449 13 13 15 0 0
0.8942 1.7112 1.1875 0.047 -0.989 0.137 10 10 12 0 0
0.8784 1.7225 1.1905 0.098 -0.923 0.371 10 10 12 0 0
0.8490 1.7350 1.1956 0.314 -0.664 -0.679 10 10 12 0 0
0.8343 1.7412 1.1981 -0.056 -0.961 -0.272 11 11 13 0 0
0.6960 1.7610 1.2206 -0.612 -0.650 -0.451 14 14 16 0 0
0.6605 1.7948 1.2275 -0.611 -0.784 -0.109 22 22 24 0 0
1.5484 3.0061 1.1532 -0.661 -0.630 -0.407 46 45 49 0 0
1.5314 3.0247 1.1567 -0.701 -0.603 -0.381 36 36 38 0 0
0.9988 1.6623 1.1822 -0.250 -0.964 0.085 21 20 25 0 0
0.9152 1.6854 1.1963 0.091 -0.945 -0.315 12 12 14 0 0
0.8418 1.7174 1.2092 0.360 -0.865 -0.349 12 12 14 0 0
0.8375 1.6798 1.2082 -0.289 -0.881 0.374 12 12 14 0 0
0.7644 1.7084 1.2209 0.729 -0.660 0.179 13 13 15 0 0
0.7012 1.7478 1.2325 -0.612 -0.650 -0.451 15 15 17 0 0
0.6811 1.7741 1.2368 -0.614 -0.768 -0.182 24 24 26 0 0
1.5835 2.9776 1.1615 -0.465 -0.714 -0.524 36 35 39 0 0
1.5522 2.9939 1.1671 -0.465 -0.714 -0.524 49 48 52 0 0
1.5358 3.0070 1.1703 -0.774 -0.618 -0.140 36 35 39 0 0
1.4392 3.1781 1.1930 -0.114 -0.786 -0.608 56 55 57 0 0
1.0855 1.7568 1.1858 0.842 -0.487 0.232 60 60 61 0 0
1.5732 2.9606 1.1773 -0.633 -0.755 -0.172 50 50 52 0 0
1.5566 2.9759 1.1806 -0.737 -0.654 -0.170 51 50 53 0 0
1.4427 3.1688 1.2074 -0.305 -0.838 -0.453 55 55 57 0 0
0.8574 1.7234 1.2334 0.709 -0.677 0.197 20 18 21 0 0
0.5895 1.8805 1.2828 0.471 -0.670 -0.574 70 69 67 0 0
1.5063 3.0422 1.2067 -0.375 -0.816 -0.441 32 32 34 0 0
1.4631 3.1461 1.2185 -0.323 -0.893 -0.313 45 45 47 0 0
1.4465 3.1578 1.2216 -0.229 -0.854 -0.467 54 54 56 0 0
1.2078 2.6824 1.2368 0.901 -0.144 -0.410 8 8 10 0 0
1.5098 3.0330 1.2208 -0.375 -0.816 -0.441 32 32 34 0 0
1.4673 3.1308 1.2323 -0.248 -0.930 -0.273 42 42 44 0 0
1.4502 3.1471 1.2359 0.025 -0.998 -0.064 51 51 53 0 0
1.0758 1.7682 1.2274 0.376 -0.899 0.224 29 29 31 0 0
1.0636 1.7635 1.2291 0.376 -0.899 0.224 51 51 52 0 0
0.7568 1.7156 1.2753 -0.144 -0.709 0.690 39 39 41 0 0
0.7043 1.7654 1.2861 -0.488 -0.606 0.629 48 48 49 0 0
0.4955 1.7948 1.3340 -0.458 -0.249 -0.854 171 171 171 0 0
1.5165 3.0154 1.2490 -0.215 -0.882 -0.419 31 31 33 0 0
1.4589 3.1159 1.2635 -0.358 -0.809 -0.467 47 47 49 0 0
1.1605 2.1096 1.2582 0.984 -0.118 0.132 9 9 11 0 0
0.7171 1.8372 1.3145 0.380 -0.412 0.828 56 56 56 0 0
0.5718 2.0300 1.3477 -0.668 -0.397 0.630 157 157 156 0 0
0.5354 1.8052 1.3417 0.614 -0.787 -0.059 170 170 170 0 0
1.5203 3.0033 1.2629 -0.041 -0.898 -0.438 31 31 33 0 0
1.5037 3.0172 1.2663 -0.384 -0.712 -0.589 30 30 32 0 0
1.4625 3.1051 1.2776 -0.418 -0.694 -0.586 45 45 47 0 0
1.1709 2.0641 1.2678 0.800 -0.600 0.007 9 9 11 0 0
1.0421 1.7674 1.2723 0.543 -0.830 0.128 40 40 42 0 0
0.8437 1.8228 1.3070 0.326 -0.708 0.626 47 47 49 0 0
0.5229 1.8079 1.3573 -0.047 -0.992 0.117 171 171 171 0 0
1.5315 3.0493 1.2787 -0.007 -0.717 -0.697 34 34 36 0 0
1.4656 3.0991 1.2920 -0.377 -0.731 -0.568 44 44 46 0 0
1.1610 2.0549 1.2826 0.820 -0.549 0.162 9 10 11 0 0
1.0563 1.7720 1.2836 0.130 -0.986 -0.101 42 41 44 0 0
1.0432 1.7715 1.2856 0.397 -0.917 0.036 42 41 44 0 0
0.8251 1.8530 1.3250 0.450 -0.779 0.436 53 53 55 0 0
0.8139 1.8434 1.3263 0.605 -0.595 0.529 56 54 57 0 0
1.5364 3.0287 1.2919 0.294 -0.745 -0.598 35 35 37 0 0
1.4692 3.0887 1.3061 -0.531 -0.676 -0.511 43 43 45 0 0
1.1522 2.0405 1.2968 0.684 -0.683 0.256 13 14 16 0 0
1.1399 2.0340 1.2984 0.845 -0.403 0.351 55 56 57 0 0
1.1300 2.0146 1.2989 0.888 -0.358 0.288 54 58 57 0 0
1.0682 1.7874 1.2958 -0.226 -0.940 0.257 44 43 48 0 0
1.0409 1.7916 1.3004 -0.275 -0.951 0.138 43 42 47 0 0
1.0250 1.8041 1.3036 0.502 -0.856 0.120 42 41 46 0 0
0.9753 1.7884 1.3107 0.822 -0.398 -0.407 45 44 47 0 0
0.8843 1.8974 1.3315 -0.245 -0.816 0.524 39 35 41 0 0
0.7997 1.8545 1.3426 0.751 -0.496 0.436 75 75 76 0 0
0.7563 1.8660 1.3502 -0.233 -0.692 0.683 70 70 68 0 0
0.7225 1.8934 1.3572 -0.000 -0.546 0.838 58 58 56 0 0
0.7102 1.8878 1.3589 -0.295 -0.565 0.771 53 53 53 0 0
1.1419 2.0334 1.3117 0.765 -0.582 0.275 26 27 28 0 0
1.1304 2.0229 1.3129 0.828 -0.454 0.328 56 58 57 0 0
1.0419 1.7959 1.3137 -0.101 -0.965 0.243 43 42 47 0 0
1.0266 1.8056 1.3168 -0.622 -0.779 0.076 43 42 47 0 0
0.9556 1.8881 1.3330 0.341 -0.878 -0.337 42 41 45 0 0
0.9327 1.8699 1.3356 0.509 -0.549 -0.663 43 42 47 0 0
0.9223 1.8563 1.3365 0.576 -0.442 -0.687 46 45 50 0 0
0.9027 1.8839 1.3413 -0.268 -0.893 -0.360 47 46 51 0 0
0.7999 1.8614 1.3565 0.851 -0.517 0.094 50 49 49 0 0
0.7589 1.8631 1.3631 -0.346 -0.938 0.018 53 53 53 0 0
0.7431 1.8724 1.3662 -0.528 -0.772 0.354 50 50 50 0 0
0.7245 1.8927 1.3704 -0.527 -0.621 0.579 50 50 50 0 0
1.6115 2.9309 1.3041 -0.293 -0.865 -0.406 40 40 43 0 0
1.1435 2.0354 1.3252 0.696 -0.578 0.426 12 12 13 0 0
1.1322 2.0238 1.3263 0.698 -0.515 0.498 38 39 38 0 0
0.9496 1.9250 1.3497 0.558 -0.697 0.449 42 42 45 0 0
0.9396 1.9090 1.3504 0.810 -0.586 -0.019 42 43 47 0 0
0.9292 1.8947 1.3511 0.810 -0.586 -0.019 42 43 47 0 0
0.8903 1.8876 1.3570 -0.409 -0.900 -0.147 44 43 48 0 0
0.7764 1.9116 1.3768 0.135 -0.709 -0.692 51 47 52 0 0
0.7667 1.8951 1.3773 0.124 -0.433 -0.893 51 49 53 0 0
0.7575 1.8771 1.3777 -0.510 -0.788 -0.344 54 54 56 0 0
0.7335 1.9196 1.3841 -0.276 -0.712 0.646 56 56 58 0 0
0.7179 1.9276 1.3871 -0.364 -0.644 0.672 57 57 59 0 0
0.7005 1.9425 1.3908 -0.381 -0.568 0.730 61 61 62 0 0
1.5995 2.9273 1.3208 -0.102 -0.905 -0.413 34 34 36 0 0
1.1355 2.0171 1.3390 0.652 -0.686 0.324 16 16 18 0 0
0.8535 1.8800 1.3759 0.672 -0.712 -0.202 44 43 48 0 0
0.8435 1.8648 1.3766 0.659 -0.685 -0.312 44 43 47 0 0
0.8307 1.8619 1.3785 0.632 -0.666 -0.396 46 45 49 0 0
0.8188 1.8551 1.3800 0.520 -0.739 -0.427 52 47 51 0 0
0.7757 1.9225 1.3911 0.247 -0.969 0.026 54 51 55 0 0
0.7225 1.9727 1.4028 0.157 -0.404 0.901 62 62 63 0 0
1.5886 2.9152 1.3367 -0.097 -0.794 -0.600 40 40 42 0 0
1.5740 2.9152 1.3391 -0.097 -0.794 -0.600 54 54 56 0 0
1.4722 3.0218 1.3623 -0.887 -0.423 -0.187 38 38 40 0 0
1.1246 2.0136 1.3541 0.518 -0.762 0.389 15 15 16 0 0
1.1130 2.0039 1.3554 0.653 -0.651 0.387 41 41 41 0 0
1.1021 1.9901 1.3563 0.723 -0.574 0.384 53 53 53 0 0
1.0954 1.9558 1.3552 0.689 -0.570 0.447 48 48 48 0 0
0.7706 1.9520 1.4074 -0.328 -0.496 0.804 70 68 70 0 0
1.5775 2.9050 1.3528 -0.041 -0.815 -0.578 56 56 58 0 0
1.1073 1.9739 1.3680 0.325 -0.821 -0.470 38 37 39 0 0
1.5811 2.8937 1.3663 -0.071 -0.882 -0.465 56 56 58 0 0
1.5665 2.8937 1.3687 -0.071 -0.882 -0.465 37 37 39 0 0
1.0995 1.9551 1.3816 -0.065 -0.718 -0.693 28 27 31 0 0
1.6138 2.8820 1.3751 -0.184 -0.879 -0.440 34 34 36 0 0
1.5984 2.8896 1.3782 0.190 -0.901 -0.389 35 35 37 0 0
1.5843 2.8857 1.3802 0.190 -0.901 -0.389 51 51 53 0 0
1.5695 2.8879 1.3827 -0.119 -0.921 -0.370 41 41 43 0 0
1.6169 2.8744 1.3890 -0.184 -0.879 -0.440 34 34 36 0 0
1.6013 2.8841 1.3922 0.190 -0.901 -0.389 34 34 37 0 0
1.5872 2.8803 1.3942 0.190 -0.901 -0.389 47 46 51 0 0
1.6178 2.8856 1.4045 0.360 -0.761 -0.539 35 35 37 0 0
1.5896 2.8788 1.4086 0.012 -0.914 -0.405 44 43 49 0 0
1.2659 2.7019 1.4488 0.750 -0.369 -0.549 16 16 18 0 0
1.1158 2.5656 1.4635 0.830 -0.462 -0.314 7 7 9 0 0
1.1100 2.5182 1.4610 0.039 -0.988 -0.149 8 8 10 0 0
1.4106 3.0276 1.4638 -0.843 -0.511 -0.166 20 19 23 0 0
1.2833 2.6974 1.4603 0.227 -0.349 -0.909 21 19 22 0 0
1.2403 2.5202 1.4543 0.375 -0.759 0.532 35 35 39 0 0
1.2269 2.5151 1.4561 0.308 -0.845 0.437 12 12 16 0 0
1.1998 2.5071 1.4600 0.230 -0.812 0.536 16 15 19 0 0
1.1104 2.5275 1.4761 0.403 -0.910 -0.097 11 11 13 0 0
0.9266 2.1696 1.4799 0.016 -0.339 0.941 20 18 22 0 0
1.2975 2.7127 1.4739 0.089 -0.103 -0.991 25 23 25 0 0
1.2767 2.6614 1.4734 0.421 -0.157 -0.893 17 15 17 0 0
1.1492 2.5631 1.4869 0.163 -0.982 0.094 8 8 10 0 0
1.1126 2.5269 1.4902 0.403 -0.910 -0.097 13 13 15 0 0
1.0042 2.5669 1.5110 0.154 -0.814 0.560 17 17 19 0 0
1.4451 3.0259 1.4884 -0.903 -0.420 0.093 29 29 29 0 0
1.2785 2.5742 1.4811 -0.205 -0.892 -0.402 25 25 26 0 0
1.2638 2.5765 1.4837 -0.569 -0.821 -0.042 45 45 45 0 0
1.1505 2.5679 1.5017 0.191 -0.931 0.311 8 8 10 0 0
1.1376 2.5594 1.5031 0.758 -0.648 -0.068 8 8 10 0 0
1.1120 2.6217 1.5121 0.731 -0.568 0.377 7 7 9 0 0
1.1025 2.5155 1.5055 -0.039 -0.994 -0.098 9 9 11 0 0
0.9530 2.6165 1.5379 -0.355 -0.494 -0.794 32 32 34 0 0
1.4054 3.1141 1.5171 -0.873 -0.486 -0.038 25 25 25 0 0
1.2663 2.5740 1.4976 -0.569 -0.821 -0.042 43 43 42 0 0
1.1517 2.5731 1.5164 0.191 -0.931 0.311 9 9 11 0 0
1.1248 2.6432 1.5264 0.369 -0.800 0.474 8 8 10 0 0
1.1150 2.6171 1.5259 0.809 -0.587 0.033 7 7 9 0 0
1.6938 3.3818 1.5063 0.751 -0.075 -0.657 43 42 47 0 0
1.6866 3.3050 1.5013 0.852 -0.003 -0.524 47 47 49 0 0
1.4153 3.0592 1.5264 -0.735 -0.195 -0.650 30 28 29 0 0
1.1065 2.5165 1.5339 -0.149 -0.968 0.202 8 8 10 0 0
1.0933 2.5106 1.5356 0.250 -0.968 -0.033 8 8 10 0 0
1.6981 3.3637 1.5198 0.691 -0.076 -0.719 40 39 44 0 0
1.6908 3.2873 1.5147 0.810 0.001 -0.586 45 45 48 0 0
1.6757 3.1464 1.5057 0.786 -0.005 -0.618 46 45 48 0 0
1.4200 3.0412 1.5395 -0.687 -0.216 -0.694 48 46 47 0 0
1.2884 2.5522 1.5212 -0.317 -0.914 -0.253 71 69 70 0 0
1.2729 2.5599 1.5244 -0.604 -0.736 -0.305 73 71 72 0 0
1.0954 2.5106 1.5498 0.250 -0.968 -0.033 9 9 11 0 0
1.4164 2.9757 1.5498 -0.526 -0.133 -0.840 44 42 43 0 0
1.2764 2.5515 1.5377 -0.604 -0.736 -0.305 58 56 59 0 0
1.0833 2.5095 1.5662 0.567 -0.819 0.088 11 11 13 0 0
0.9313 2.6214 1.6008 -0.762 -0.544 -0.352 37 37 39 0 0
1.3886 2.9781 1.5698 -0.807 -0.216 -0.549 51 51 53 0 0
1.2879 2.5821 1.5528 -0.032 -0.924 0.381 43 41 45 0 0
1.2762 2.5657 1.5534 -0.468 -0.822 -0.325 30 28 33 0 0
1.0990 2.5137 1.5785 -0.047 -0.643 -0.764 12 12 14 0 0
1.0710 2.5099 1.5828 0.631 -0.746 -0.212 13 13 15 0 0
1.2905 2.5791 1.5667 0.311 -0.371 -0.875 15 13 16 0 0
1.0218 2.5525 1.6092 -0.335 -0.940 0.059 14 14 16 0 0
1.0051 2.5641 1.6130 -0.124 -0.992 -0.021 14 14 16 0 0
0.9902 2.5659 1.6156 -0.124 -0.992 -0.021 12 12 14 0 0
1.8183 3.3146 1.5581 0.928 -0.265 -0.261 58 60 63 0 0
1.6479 2.9455 1.5539 0.463 -0.883 0.082 65 65 65 0 0
1.4089 2.8661 1.5868 -0.833 -0.204 -0.515 28 27 30 0 0
1.1092 2.4810 1.6029 0.111 -0.842 -0.528 14 14 16 0 0
1.0840 2.5401 1.6123 0.078 -0.883 -0.463 14 14 16 0 0
1.0734 2.5199 1.6123 0.449 -0.872 0.193 15 15 17 0 0
1.8246 3.2713 1.5687 0.967 -0.237 -0.097 59 60 64 0 0
1.6773 2.9647 1.5658 -0.017 -0.798 0.602 61 61 61 0 0
1.2492 2.5083 1.5964 -0.028 -0.778 -0.627 21 21 23 0 0
1.0865 2.5380 1.6263 0.269 -0.937 -0.222 35 35 37 0 0
0.9926 2.5756 1.6454 -0.571 -0.821 -0.013 34 34 36 0 0
0.9789 2.5715 1.6473 -0.536 -0.844 0.021 40 40 42 0 0
0.9645 2.5703 1.6496 -0.471 -0.880 0.059 45 45 47 0 0
0.9275 2.6098 1.6594 -0.753 -0.580 0.311 44 45 47 0 0
0.8807 2.6950 1.6749 -0.697 -0.562 0.445 44 45 47 0 0
1.6920 2.9849 1.5802 0.232 -0.923 0.306 60 60 60 0 0
1.2611 2.5356 1.6113 0.088 -0.755 0.650 37 37 37 0 0
1.0895 2.5333 1.6399 0.214 -0.973 0.084 37 37 38 0 0
0.9949 2.5744 1.6596 -0.586 -0.797 -0.142 32 31 36 0 0
0.9793 2.5800 1.6627 -0.598 -0.801 0.021 36 35 40 0 0
0.9661 2.5734 1.6643 -0.486 -0.831 0.272 37 36 40 0 0
0.9490 2.5861 1.6684 -0.699 -0.605 0.381 39 39 42 0 0
0.9243 2.6363 1.6771 -0.588 -0.578 0.566 43 43 45 0 0
0.9008 2.6797 1.6850 -0.699 -0.505 0.506 46 46 48 0 0
0.8743 2.7370 1.6948 -0.545 -0.502 0.672 43 43 45 0 0
1.5898 2.7564 1.5911 0.330 -0.296 -0.896 43 42 47 0 0
1.1939 2.5227 1.6359 0.426 -0.671 0.607 37 37 37 0 0
1.1811 2.5143 1.6373 0.510 -0.595 0.621 38 38 38 0 0
1.1655 2.5218 1.6406 0.230 -0.652 0.722 36 36 36 0 0
1.1475 2.5422 1.6456 -0.129 -0.619 0.775 34 34 34 0 0
1.0905 2.5390 1.6549 0.270 -0.910 0.314 14 14 15 0 0
1.0303 2.5523 1.6662 -0.104 -0.848 -0.520 19 17 20 0 0
1.0149 2.5570 1.6693 0.237 -0.743 -0.626 43 41 44 0 0
0.9830 2.5717 1.6760 -0.626 -0.773 -0.106 57 56 58 0 0
0.9678 2.5750 1.6789 -0.579 -0.799 0.163 55 55 57 0 0
1.7965 3.0104 1.5952 0.675 -0.092 -0.732 72 72 72 0 0
1.7675 3.0067 1.5997 0.460 -0.627 0.629 62 62 64 0 0
1.5954 2.7289 1.6024 0.237 -0.461 -0.855 29 28 34 0 0
1.5826 2.7160 1.6033 0.286 -0.537 -0.794 27 26 32 0 0
1.2173 2.5661 1.6506 0.555 -0.705 0.441 35 35 35 0 0
1.2047 2.5556 1.6518 0.526 -0.673 0.520 33 33 33 0 0
1.1920 2.5461 1.6530 0.709 -0.521 0.475 32 32 32 0 0
1.1792 2.5374 1.6543 0.659 -0.511 0.551 25 25 25 0 0
1.1639 2.5425 1.6574 0.265 -0.608 0.749 17 17 17 0 0
1.1422 2.5843 1.6650 -0.088 -0.813 0.576 19 19 19 0 0
1.0917 2.5441 1.6697 0.238 -0.918 0.316 12 12 13 0 0
1.0190 2.5470 1.6823 -0.120 -0.740 -0.662 47 44 47 0 0
0.9638 2.6061 1.6972 -0.778 -0.589 -0.218 66 63 64 0 0
1.2300 2.5885 1.6652 0.591 -0.500 0.633 43 41 43 0 0
1.0927 2.5505 1.6848 0.204 -0.852 0.483 11 11 13 0 0
1.0232 2.5358 1.6951 0.046 -0.732 -0.680 41 38 41 0 0
1.0062 2.5491 1.6993 -0.641 -0.594 -0.487 73 70 70 0 0
0.9862 2.5771 1.7053 -0.769 -0.563 -0.302 71 68 68 0 0
1.0593 2.5087 1.7009 -0.545 -0.762 -0.349 16 16 18 0 0
1.0108 2.5361 1.7118 -0.566 -0.714 -0.413 69 67 67 0 0
0.9695 2.5991 1.7250 -0.822 -0.534 -0.197 74 72 72 0 0
1.0156 2.5222 1.7242 -0.620 -0.633 -0.463 55 53 55 0 0
0.6957 2.9184 1.8182 -0.898 -0.344 -0.276 111 111 111 0 0
1.8510 3.1584 1.6614 0.842 -0.355 0.407 55 55 57 0 0
1.8388 3.1285 1.6604 0.842 -0.355 0.407 49 49 51 0 0
1.0022 2.5279 1.7417 -0.808 -0.521 -0.276 73 71 74 0 0
0.6738 2.9582 1.8413 -0.903 -0.357 -0.240 141 142 142 0 0
1.0071 2.5135 1.7540 -0.807 -0.512 -0.295 63 61 62 0 0
0.6810 2.9357 1.8532 -0.884 -0.408 -0.229 120 121 122 0 0
1.8928 3.2457 1.6941 0.881 -0.162 -0.445 64 64 66 0 0
1.0121 2.4984 1.7662 -0.799 -0.519 -0.303 64 63 61 0 0
1.7073 3.0548 1.7363 -0.164 -0.223 0.961 44 44 47 0 0
1.0117 2.4699 1.8214 -0.881 -0.466 -0.086 69 67 70 0 0
1.9072 3.2127 1.7654 0.976 -0.115 -0.184 73 73 75 0 0
1.8310 3.0924 1.7802 -0.177 -0.354 0.918 55 54 59 0 0
0.8284 2.6737 1.9056 0.935 -0.082 -0.345 45 43 49 0 0
1.8595 3.1293 1.7948 0.578 -0.302 0.758 58 58 60 0 0
1.8454 3.1219 1.7964 0.467 -0.312 0.827 55 54 58 0 0
0.8317 2.6682 1.9194 0.868 -0.465 0.174 44 42 48 0 0
1.8852 3.2038 1.8145 0.425 -0.380 0.821 64 63 67 0 0
1.7448 3.4177 1.8642 0.542 -0.733 0.412 37 38 42 0 0
1.7285 3.4271 1.8681 0.451 -0.892 0.038 36 37 41 0 0
1.7143 3.4156 1.8692 0.154 -0.986 0.060 38 38 42 0 0
0.8375 2.7216 1.9396 0.418 -0.482 -0.770 45 43 48 0 0
0.8322 2.6760 1.9352 0.867 -0.492 0.073 45 43 49 0 0
1.8700 3.2337 1.8362 0.364 -0.400 0.841 54 53 58 0 0
1.8405 3.2289 1.8407 0.383 -0.353 0.853 42 41 46 0 0
1.6917 3.5098 1.9003 -0.772 -0.425 0.472 41 41 45 0 0
1.2567 3.2736 1.9478 -0.865 -0.455 0.212 33 32 37 0 0
0.8429 2.7060 1.9519 0.594 -0.607 -0.528 45 43 48 0 0
0.6178 2.9818 2.0397 -0.940 -0.340 -0.017 166 166 164 0 0
1.9496 3.4291 1.8773 -0.221 -0.643 -0.734 83 83 86 0 0
1.9126 3.3203 1.8704 -0.566 -0.458 0.685 64 66 70 0 0
1.8584 3.4258 1.8929 -0.351 -0.856 0.379 44 43 48 0 0
1.9502 3.4537 1.8961 0.357 -0.710 -0.607 80 80 83 0 0
0.8777 2.6409 1.9827 -0.657 -0.381 -0.650 49 49 54 0 0
1.0019 2.4691 1.9541 -0.504 -0.837 0.215 28 29 29 0 0
1.9540 3.4666 1.9288 0.826 -0.539 0.165 75 73 76 0 0
1.1733 2.5676 1.9511 -0.878 -0.411 -0.247 9 10 13 0 0
1.0105 2.4360 1.9629 -0.644 -0.758 -0.102 21 21 23 0 0
0.9761 2.4645 1.9727 -0.719 -0.592 -0.363 19 19 21 0 0
0.9563 2.4912 1.9796 -0.621 -0.633 -0.461 25 23 26 0 0
1.4188 2.4739 1.9104 0.084 -0.942 0.324 40 41 45 0 0
1.4001 2.5049 1.9177 -0.012 -0.990 0.143 41 41 46 0 0
1.3867 2.4999 1.9194 -0.513 -0.858 0.011 41 39 44 0 0
1.3677 2.4389 1.9149 -0.005 -0.184 -0.983 38 37 42 0 0
1.3415 2.4396 1.9340 -0.252 -0.917 0.309 43 42 47 0 0
1.0039 2.4179 1.9908 -0.200 -0.722 -0.663 15 15 17 0 0
0.9887 2.4223 1.9941 -0.090 -0.744 -0.662 14 14 16 0 0
1.4961 2.5583 1.9368 -0.320 -0.883 0.344 18 19 21 0 0
1.4023 2.5189 1.9482 0.199 -0.875 0.441 46 45 50 0 0
1.3480 2.4112 1.9435 -0.118 -0.993 -0.016 44 43 48 0 0
1.1146 2.3716 1.9796 0.401 -0.911 0.102 32 31 36 0 0
0.7317 2.8152 2.1064 -0.878 -0.478 0.027 62 62 64 0 0
0.5976 3.0023 2.1551 -0.927 -0.371 -0.058 173 172 170 0 0
1.4979 2.5608 1.9514 -0.157 -0.954 0.254 18 18 20 0 0
1.1313 2.3694 1.9907 0.070 -0.995 -0.069 43 43 45 0 0
1.1026 2.3714 1.9961 -0.059 -0.986 0.159 38 38 41 0 0
1.0876 2.3753 1.9993 0.175 -0.973 0.150 39 38 43 0 0
0.9628 2.4289 2.0286 -0.570 -0.754 0.328 67 67 69 0 0
0.6801 2.9203 2.1450 -0.853 -0.497 0.160 67 67 68 0 0
1.5150 2.5551 1.9622 -0.358 -0.932 -0.047 21 19 22 0 0
1.4566 2.4667 1.9605 0.233 -0.885 0.403 41 40 45 0 0
1.3988 2.4758 1.9720 0.216 -0.920 -0.327 44 43 48 0 0
1.1930 2.4329 2.0028 0.187 -0.583 0.791 44 44 46 0 0
1.1764 2.3660 1.9966 -0.134 -0.611 -0.781 45 45 47 0 0
1.1623 2.3659 1.9991 -0.134 -0.611 -0.781 45 45 47 0 0
1.0665 2.3481 2.0137 0.639 -0.663 -0.391 40 39 44 0 0
0.5719 3.0655 2.1996 -0.884 -0.427 0.191 179 179 179 0 0
1.0689 2.3460 2.0274 0.176 -0.983 -0.041 42 42 45 0 0
0.8113 2.6856 2.1202 -0.856 -0.516 0.013 58 59 62 0 0
0.7909 2.7110 2.1274 -0.804 -0.573 0.156 59 60 62 0 0
1.5344 2.5485 1.9869 -0.307 -0.900 -0.309 27 27 31 0 0
1.2991 2.5053 2.0229 0.027 -0.875 0.483 36 36 39 0 0
1.0016 2.4097 2.0627 0.897 -0.417 -0.143 52 51 56 0 0
0.8276 2.6891 2.1328 -0.585 -0.627 0.515 55 54 57 0 0
1.6120 2.6254 1.9985 0.180 -0.033 -0.983 23 23 25 0 0
1.3905 2.4792 2.0175 0.483 -0.859 0.170 45 44 48 0 0
1.2879 2.4994 2.0387 0.041 -0.942 0.334 51 50 54 0 0
0.7166 2.8644 2.1926 -0.811 -0.499 0.305 70 71 73 0 0
0.5977 3.0502 2.2401 -0.800 -0.478 0.362 183 183 181 0 0
1.2893 2.5037 2.0536 0.325 -0.774 0.543 39 38 42 0 0
0.7169 2.8728 2.2091 -0.821 -0.491 0.292 74 76 75 0 0
0.6006 3.0473 2.2549 -0.803 -0.516 0.298 189 189 187 0 0
0.5745 3.0928 2.2661 -0.802 -0.529 0.277 189 189 189 0 0
1.5724 2.5227 2.0201 0.060 -0.985 -0.165 41 40 45 0 0
1.3115 2.4671 2.0589 0.859 -0.420 -0.294 35 35 37 0 0
1.2589 2.5278 2.0772 0.474 -0.594 0.650 28 28 30 0 0
0.6014 3.0539 2.2715 -0.811 -0.519 0.270 193 193 191 0 0
1.9615 3.1153 2.0512 0.562 0.007 -0.827 40 39 44 0 0
1.4363 2.5000 2.0558 0.455 -0.699 0.552 39 38 43 0 0
1.3784 2.5081 2.0674 -0.463 -0.814 -0.351 36 35 40 0 0
1.3655 2.4992 2.0684 0.122 -0.723 0.680 36 35 40 0 0
0.6009 3.0657 2.2891 -0.854 -0.495 0.159 196 196 195 0 0
1.0737 2.5397 2.1417 0.786 -0.617 -0.040 27 27 29 0 0
0.6007 3.0763 2.3065 -0.908 -0.418 0.020 198 198 196 0 0
1.6585 2.5824 2.0716 0.539 -0.787 0.302 46 45 50 0 0
1.3410 2.8142 2.1794 0.083 -0.462 0.883 28 28 30 0 0
0.5988 3.0454 2.3496 0.956 -0.063 0.286 200 200 198 0 0
1.6026 2.4971 2.0978 -0.013 -0.913 0.407 41 40 45 0 0
0.8962 2.6668 2.2526 -0.733 -0.504 0.458 46 47 51 0 0
2.0659 3.3128 2.1553 0.691 -0.158 -0.706 75 72 79 0 0
2.0398 3.2531 2.1508 0.585 -0.154 -0.796 59 58 64 0 0
2.0171 3.1513 2.1390 0.897 -0.051 -0.439 57 56 61 0 0
1.6147 2.5306 2.1154 0.738 -0.662 0.129 45 45 47 0 0
1.6024 2.5156 2.1152 0.865 -0.502 -0.002 46 45 49 0 0
0.8936 2.6901 2.2718 -0.804 -0.539 0.250 48 49 53 0 0
2.0829 3.3192 2.1690 0.970 -0.020 -0.243 97 95 98 0 0
2.0452 3.2089 2.1584 0.720 -0.151 -0.677 66 65 71 0 0
0.8982 2.6781 2.2842 -0.688 -0.570 0.449 49 50 54 0 0
0.8460 2.7245 2.3162 -0.399 -0.545 -0.737 41 41 45 0 0
0.8466 2.7425 2.3494 -0.660 -0.725 0.199 43 43 47 0 0
0.5773 3.0609 2.4508 0.924 -0.238 0.299 175 175 175 0 0
0.5764 3.0748 2.4691 0.872 -0.407 0.271 146 146 145 0 0
0.5565 3.1023 2.4932 -0.901 -0.376 -0.217 185 185 185 0 0
0.5948 3.0139 2.4872 -0.901 -0.376 -0.217 109 109 107 0 0
0.5646 3.0770 2.5034 -0.901 -0.376 -0.217 161 161 159 0 0
1.9092 3.6354 2.3648 0.751 -0.117 -0.650 39 38 44 0 0
0.5727 3.0516 2.5135 -0.895 -0.395 -0.208 138 138 136 0 0
2.0729 3.5476 2.3356 0.923 -0.235 -0.303 56 55 59 0 0
1.9995 3.4955 2.3404 0.196 -0.518 0.833 40 41 46 0 0
1.3466 3.3681 2.4398 -0.613 -0.745 0.264 35 34 39 0 0
1.3248 3.3016 2.4325 0.968 0.061 -0.245 33 32 37 0 0
0.5507 3.0883 2.5397 -0.906 -0.369 -0.209 189 189 187 0 0
2.0738 3.5735 2.3561 0.795 -0.092 -0.600 52 51 56 0 0
1.3451 3.2849 2.4418 0.964 0.101 -0.245 34 33 37 0 0
0.6229 3.0577 2.5369 -0.001 -0.815 -0.579 72 72 74 0 0
0.5590 3.0625 2.5496 -0.906 -0.369 -0.209 180 180 178 0 0
0.5667 3.0387 2.5599 -0.910 -0.370 -0.189 173 173 173 0 0
1.0685 2.3756 2.3650 -0.038 -0.932 -0.360 24 24 26 0 0
1.0549 2.3719 2.3669 -0.246 -0.964 -0.102 20 20 22 0 0
0.5757 3.0098 2.5690 0.755 0.040 -0.655 170 170 170 0 0
2.0901 3.4246 2.3750 0.820 -0.038 -0.571 46 44 50 0 0
1.0872 2.3633 2.3739 -0.155 -0.821 -0.550 35 35 37 0 0
1.0708 2.3741 2.3789 0.009 -0.950 -0.311 26 26 28 0 0
1.0890 2.3645 2.3883 0.182 -0.925 -0.333 29 29 31 0 0
0.6015 2.9848 2.5912 0.007 -0.206 -0.979 110 110 108 0 0
0.5940 2.9499 2.5864 0.706 0.032 -0.708 179 179 178 0 0
1.0926 2.3564 2.4007 -0.223 -0.964 -0.144 30 30 32 0 0
1.8737 3.7375 2.5209 0.545 -0.277 0.791 41 40 45 0 0
0.6645 2.8631 2.5886 -0.778 -0.440 -0.449 78 78 78 0 0
0.6307 2.8862 2.6148 -0.816 -0.342 0.465 170 170 168 0 0
2.0083 3.2434 2.4364 -0.731 -0.247 -0.636 36 36 38 0 0
1.1338 2.3551 2.4798 -0.190 -0.963 -0.189 13 13 15 0 0
1.1216 2.3443 2.4801 -0.156 -0.872 -0.463 14 14 16 0 0
1.1070 2.3466 2.4833 0.066 -0.908 -0.413 15 15 17 0 0
1.0931 2.3446 2.4855 0.066 -0.908 -0.413 22 22 24 0 0
0.9490 2.4212 2.5276 -0.749 -0.644 0.157 33 34 38 0 0
0.9296 2.4451 2.5359 -0.760 -0.567 -0.317 35 36 41 0 0
2.1595 3.3849 2.4977 0.899 -0.009 -0.437 88 87 87 0 0
2.1487 3.3067 2.4847 0.889 -0.034 -0.457 76 74 78 0 0
1.1672 2.3391 2.4849 -0.297 -0.947 0.124 12 12 14 0 0
1.1520 2.3448 2.4889 0.487 -0.617 -0.619 13 13 15 0 0
1.1365 2.3519 2.4932 -0.190 -0.963 -0.189 12 12 14 0 0
1.1101 2.3408 2.4961 -0.001 -0.999 -0.051 13 13 15 0 0
1.0959 2.3407 2.4988 -0.001 -0.999 -0.051 14 14 16 0 0
0.9770 2.3644 2.5260 -0.301 -0.379 -0.875 33 34 37 0 0
2.0895 3.0915 2.4698 0.978 -0.209 0.005 72 69 71 0 0
1.1941 2.3593 2.4982 -0.520 -0.602 0.606 14 12 16 0 0
1.1825 2.3446 2.4975 -0.033 -0.953 0.300 13 12 15 0 0
1.1545 2.3428 2.5025 0.478 -0.751 -0.454 14 14 16 0 0
1.1392 2.3488 2.5066 -0.190 -0.963 -0.189 14 14 16 0 0
1.1122 2.3410 2.5103 -0.017 -1.000 0.018 15 15 17 0 0
0.9157 2.3924 2.5578 -0.482 -0.609 0.630 66 66 71 0 0
2.1173 3.1565 2.4927 0.899 -0.278 -0.339 63 60 64 0 0
2.1043 3.1274 2.4894 0.930 -0.326 -0.171 64 59 63 0 0
1.1570 2.3405 2.5161 0.562 -0.827 -0.023 27 27 29 0 0
1.1142 2.3412 2.5244 -0.017 -1.000 0.018 22 22 24 0 0
1.1015 2.3334 2.5254 -0.044 -0.975 -0.217 24 24 26 0 0
0.9325 2.3915 2.5691 -0.499 -0.626 0.599 71 72 77 0 0
2.1200 3.1512 2.5066 0.881 -0.345 -0.324 62 59 61 0 0
2.1068 3.1257 2.5041 0.917 -0.363 -0.166 60 58 59 0 0
2.0410 3.0076 2.4933 0.552 -0.223 0.804 55 55 57 0 0
1.0300 2.3454 2.5560 -0.236 -0.972 0.008 51 52 55 0 0
0.5206 3.2371 2.8304 -0.903 -0.428 -0.041 205 205 203 0 0
1.0917 2.3321 2.5560 0.237 -0.968 -0.083 44 45 47 0 0
1.0787 2.3254 2.5572 0.383 -0.903 0.192 49 50 54 0 0
0.9936 2.3948 2.5874 0.232 -0.606 0.761 50 51 53 0 0
0.5555 3.1649 2.8255 -0.911 -0.411 0.035 205 205 203 0 0
1.1751 2.3534 2.5588 0.018 -1.000 0.007 44 45 48 0 0
1.1238 2.3232 2.5626 -0.286 -0.957 -0.036 43 46 49 0 0
0.5914 3.0873 2.8191 -0.906 -0.414 0.087 196 196 194 0 0
1.8264 2.7130 2.5208 0.882 -0.276 -0.383 51 50 55 0 0
1.3911 2.3404 2.5290 -0.576 -0.751 -0.325 45 44 50 0 0
1.3752 2.3523 2.5345 -0.654 -0.743 -0.143 45 44 49 0 0
1.6797 2.5098 2.5224 0.314 -0.580 -0.751 49 48 53 0 0
1.1011 2.3913 2.6100 -0.013 -0.548 0.836 26 26 29 0 0
2.0739 3.1306 2.5890 0.088 -0.128 -0.988 40 38 45 0 0
1.7825 2.6254 2.5410 0.960 -0.241 0.144 36 35 40 0 0
1.7112 2.4995 2.5288 0.253 -0.886 -0.389 43 42 47 0 0
1.6969 2.5018 2.5321 0.288 -0.862 -0.417 48 47 52 0 0
1.5493 2.4431 2.5485 0.718 -0.677 -0.161 48 47 52 0 0
1.4212 2.3543 2.5550 -0.707 -0.668 -0.232 46 46 50 0 0
2.0457 3.1443 2.6128 -0.192 -0.016 -0.981 36 36 38 0 0
1.7602 2.5883 2.5524 0.163 -0.985 -0.061 46 45 49 0 0
1.6604 2.4711 2.5474 0.830 -0.555 0.056 29 29 34 0 0
1.6466 2.4691 2.5496 0.496 -0.864 -0.082 32 32 36 0 0
1.6320 2.4739 2.5535 -0.390 -0.876 -0.285 31 30 35 0 0
1.4167 2.3988 2.5796 0.888 -0.231 0.398 34 34 36 0 0
1.2049 2.3939 2.6197 0.654 -0.753 -0.069 26 25 30 0 0
1.1721 2.4177 2.6310 0.158 -0.955 -0.251 28 28 30 0 0
1.1581 2.4162 2.6334 0.337 -0.941 -0.028 32 32 34 0 0
1.1456 2.4058 2.6336 0.385 -0.922 0.033 21 21 23 0 0
1.1322 2.4010 2.6353 0.263 -0.955 0.140 27 26 29 0 0
1.6759 2.4776 2.5603 0.630 -0.615 0.474 28 29 31 0 0
1.6616 2.4799 2.5636 0.702 -0.657 0.274 28 29 31 0 0
1.6487 2.4700 2.5640 0.536 -0.794 0.286 31 32 35 0 0
1.6348 2.4683 2.5663 -0.437 -0.862 -0.257 23 24 26 0 0
1.3792 2.3809 2.5977 -0.566 -0.825 0.002 22 22 24 0 0
1.1805 2.3823 2.6366 -0.306 -0.817 -0.490 16 16 18 0 0
1.1475 2.4069 2.6482 0.259 -0.962 -0.089 21 21 23 0 0
1.1340 2.4023 2.6498 -0.138 -0.963 0.232 35 35 36 0 0
1.6476 2.4967 2.5844 0.482 -0.596 0.643 43 44 46 0 0
1.6354 2.4813 2.5836 -0.178 -0.928 0.326 41 42 44 0 0
0.8552 2.7881 2.8005 0.563 -0.028 -0.826 44 43 48 0 0
0.6411 3.0666 2.9011 -0.794 -0.479 0.375 123 123 123 0 0
1.7795 2.6017 2.5957 0.197 -0.866 0.459 37 36 41 0 0
1.7670 2.5859 2.5948 0.634 -0.645 0.427 38 38 41 0 0
1.7564 2.5521 2.5897 -0.145 -0.964 0.222 39 38 41 0 0
1.7400 2.5729 2.5973 0.536 -0.717 0.447 38 38 41 0 0
1.7278 2.5551 2.5959 0.385 -0.877 0.289 38 38 41 0 0
1.7679 2.5984 2.6121 0.677 -0.581 0.452 31 31 34 0 0
1.7582 2.5552 2.6047 -0.145 -0.964 0.222 33 33 35 0 0
1.7313 2.5436 2.6075 0.279 -0.955 -0.102 33 33 35 0 0
1.7176 2.5394 2.6092 0.279 -0.955 -0.102 33 33 35 0 0
1.3813 2.4089 2.6469 0.558 -0.699 -0.446 15 15 17 0 0
1.3601 2.3632 2.6412 0.119 -0.993 -0.021 14 14 16 0 0
