ply
format ascii 1.0
element vertex 726
property float x
property float y
property float z
property uchar diffuse_red
property uchar diffuse_green
property uchar diffuse_blue
end_header
1.4066556510716786 3.4642604073195575 0.05394658605358948 43 43 46
1.599348251258341 3.247940731399976 0.04344906203536378 45 45 47
1.5951461728862502 3.2342784516299123 0.04568327123143337 46 46 48
1.5868763129942212 3.2221806190138294 0.048466627317637956 50 50 52
1.5912847034986783 3.205211647655397 0.049537901824269676 52 52 53
1.5958243550253395 3.1882234845992428 0.05058804227993205 62 62 62
1.6064165456892434 3.1689709520838134 0.05081417759855414 70 70 70
1.6190855387733314 3.148987985318603 0.05075249540349552 77 77 77
1.6274832237732304 3.1306703848825186 0.05126496545893097 68 68 69
1.635148235410976 3.11267189974392 0.051872272584914475 38 38 41
1.6325420043111019 3.0985363313649694 0.05387571843698652 31 30 34
1.588889162784757 3.099597928157746 0.061484698094638246 31 29 35
1.5856070144437668 3.085646028076614 0.06358771526996726 32 29 38
1.5752793089121255 3.0742785751830017 0.06665554022828366 32 29 36
1.5705911404704118 3.0608314447478984 0.06895229423532467 31 28 35
1.5973181591285242 3.03598347291631 0.06693369632188384 40 40 44
1.605643804219866 3.0178901865954644 0.06743444098300744 44 48 49
1.6027389184536358 3.0038753698039278 0.06947756226256763 30 32 34
1.5932961208625227 2.9922007514635784 0.07242230695198654 21 21 23
1.5487788378261909 2.9778585306623206 0.08186487657335606 22 22 24
1.576816112321049 2.937848317782745 0.08126867734293677 15 15 17
1.6203804901478454 2.8927178690832154 0.07848344118659278 15 15 17
1.5605616624554097 2.8984196115096954 0.08844689420704563 20 20 22
1.5413435573234393 2.889997986854605 0.09276656202108727 24 24 26
1.532901227985648 2.8778457867681277 0.09558636999941308 27 27 29
1.5155600818945707 2.868696727211979 0.09965325733080801 29 29 31
1.5134324521658011 2.8543650337131052 0.10159340795316671 29 29 31
1.5122542029706403 2.8397212149257984 0.10339961037921908 29 29 31
1.4891230012430825 2.832417555175987 0.10828976505765664 29 29 31
1.514185426471352 2.8090395000461026 0.10640535967104536 28 28 30
1.5130991265124147 2.794402883578416 0.10819450496390604 22 22 24
1.5157476239960674 2.778549531920889 0.10945549143472025 13 13 15
1.5177189027554951 2.7629410552194558 0.11080960164659501 10 10 12
1.5047633525352935 2.75220428770667 0.11427363952708111 9 9 11
1.5119968364484127 2.7349108414241408 0.11488038719794502 11 11 11
1.5118375162971025 2.7200332333774253 0.11653178735181607 15 15 15
1.494876075532606 2.7105391904396403 0.1205691211264226 20 20 20
1.4852669603065263 2.6986620380647164 0.12356539465192401 26 26 27
1.4731251312358284 2.687565222564221 0.12692471917154324 29 29 31
1.4472249756623734 2.680763193372445 0.13225013784008097 21 21 23
1.4429345118568684 2.6671302657508744 0.1344967852795385 22 22 24
1.481595726792123 2.6401499595447153 0.13059895898656046 34 32 35
1.017941215391624 2.395944270814162 0.23929105539131043 63 61 62
0.9354138464842506 2.371557635051556 0.25655577352486847 54 52 54
0.9440220318737946 2.3538757547231066 0.25696163382401177 48 46 50
0.9556927753067209 2.335446780586061 0.25690705498021627 43 41 46
0.9562665700087779 2.31991955492662 0.2584995990690238 48 46 50
0.9671159789599775 2.3017896720898405 0.25855773146063865 57 57 58
0.9101042533818202 2.285474155225609 0.27042661139785523 75 75 75
0.8372078076473599 2.288275610885013 0.28302071184841493 77 77 78
0.7676080519978773 2.2900237813193494 0.2951463478793513 86 86 87
1.4746777595655858 3.4708719605751965 0.056059918777686776 84 84 85
1.4332947957982787 3.472037855169123 0.06332181496975989 47 47 48
1.4238310347158518 3.4601210368158295 0.06630621921329372 39 39 39
1.6119729708938484 3.2304263286568924 0.057670863927255234 41 41 43
1.604095787117835 3.218200717323326 0.060405548189114644 44 44 46
1.6029158162862978 3.2033937689034273 0.06222495915896051 47 47 49
1.612036160301972 3.1846681192993844 0.06263109560240165 52 52 52
1.6172680092682181 3.1674666798417097 0.0635658873903672 64 64 64
1.6233437609929606 3.149980216781046 0.06438097478498567 75 75 75
1.628445037479156 3.1328969095952695 0.06532624437958101 77 77 77
1.6331198944479215 3.1160063195911465 0.06632670923055875 59 59 60
1.6386879588410248 3.0988148072499597 0.06720039412680667 39 37 41
1.6397732067856476 3.0833186869968054 0.06869024679160829 32 30 34
1.599802598035531 3.0829742923382235 0.07586406840203658 31 29 35
1.6298990706228302 3.056799217019857 0.07333446105801583 27 24 30
1.5748984141062512 3.0618048122085333 0.08261050391677977 19 17 22
1.6077419314259471 3.034725428287055 0.0796886865058325 23 23 26
1.5946318612002586 3.02438349377436 0.08315300034148052 31 33 35
1.5886255489457746 3.011454478614924 0.08563007983535995 27 28 30
1.5761844071167121 3.0008195146724757 0.08900679923855442 24 24 26
1.56805506983691 2.9886193267097645 0.0917837411270955 23 23 25
1.5505272312603406 2.9797314048418686 0.09587883422548371 24 24 26
1.5765844179895956 2.9103372902848554 0.09876604537354133 15 15 17
1.603727609956849 2.885966573500139 0.09656768157148041 19 19 21
1.5870546258253635 2.876745137985364 0.10054638326878138 22 22 24
1.572450047153139 2.8667716234071294 0.10423750067559162 25 25 27
1.526526064988518 2.8673951900428216 0.11236907870462057 28 28 30
1.5228552563233775 2.853595244940248 0.11452379871077661 30 30 32
1.5232387817653932 2.838434127680653 0.11610254058854441 31 31 33
1.5197843342894934 2.8245712095036972 0.11822547305420708 32 32 34
1.5212479195322417 2.8090753511076096 0.11964774844007073 32 32 34
1.5166396562091256 2.7956062874312697 0.12193389337989233 32 32 34
1.5097401234204004 2.7828882692010697 0.12454752533704302 26 26 28
1.512607527835622 2.7669656854238083 0.12576552367078564 14 14 16
1.4923370198988788 2.7585927670087145 0.13029434267042106 11 11 12
1.5224702012547684 2.7338584695261074 0.12760164443152985 11 11 12
1.518638309818321 2.7201712298717764 0.12977287920169034 13 13 14
1.4786872884085422 2.718038311623006 0.13713752222291983 14 14 15
1.4644809182197038 2.707587692294963 0.14080937919697814 20 20 21
1.454949130688862 2.695621926591886 0.14381124697591485 20 20 22
1.4557703821202665 2.680379849426889 0.14532063278011303 15 15 17
1.4427206292239054 2.6694932250353833 0.14883335665829922 17 17 19
1.468741368622902 2.6464235440376327 0.14669404274023878 29 29 31
1.234366507984829 2.430437339610599 0.21200598669986265 81 80 83
1.099129946062256 2.4221285530125054 0.2370540253936346 91 89 90
1.0796677018382737 2.4121407029407558 0.24161399418397767 86 86 86
1.0599938959817405 2.4021563977185356 0.246211350321943 71 71 71
1.069097141998848 2.384429344738215 0.24651204446922034 60 58 59
0.9862694050689853 2.3450121160415414 0.2655827974731276 59 57 59
0.99772460104344 2.3266992548375494 0.265527218024008 54 52 55
0.9949892590240373 2.3120844871079616 0.26760344702496097 45 43 48
0.986823611030541 2.2988597308071146 0.2704981886310038 44 44 45
0.9674726005410722 2.288455151578541 0.27508357417481305 60 60 60
0.9453105679641314 2.2787056290985355 0.2800996729679082 77 77 78
0.7478308342984583 2.2813772058390707 0.31506769909132715 93 93 92
1.462228164766072 3.4787982805537387 0.07233167268855194 57 57 58
1.4380348615614125 3.472935798861207 0.07732373738121603 56 56 56
1.6358153281782863 3.23908959310467 0.06699861044088476 65 65 67
1.6270137122695243 3.2272582389455646 0.06986403432901683 57 57 59
1.6228303846423038 3.213628911922425 0.07209211609577154 47 47 49
1.6160845999039355 3.200981720044766 0.07467550082997906 38 38 40
1.62347791211245 3.182926547511253 0.07529718349235731 44 44 44
1.6364789454350477 3.1627826925746083 0.07513475520290117 56 56 56
1.6360316229314207 3.1477857360061723 0.0768378563838304 74 74 74
1.6419294963814437 3.1304143049712265 0.07765492949819897 78 78 78
1.636853875894702 3.117187561329325 0.08000017915057839 71 71 71
1.6465958697348246 3.0984359957092495 0.08027415042586183 59 58 60
1.6325078646718614 3.088569355823232 0.08387921776216764 39 37 41
1.6273145661776196 3.07538418836302 0.08624116592909897 32 30 36
1.6244606555709282 3.0613356851468074 0.08827513834084832 27 25 30
1.560995194331888 3.0694300502506504 0.09883107268038921 16 14 17
1.555331921851964 3.025945925157626 0.10455573257099202 27 26 29
1.5394754060276379 3.016466770084778 0.10843742938942172 25 23 26
1.524479550912138 3.0066378619680982 0.11220194030078086 23 22 25
1.552311800203953 2.9815933125043124 0.10989825901577785 23 23 25
1.574004879504667 2.9136794318114343 0.1133384434664517 15 15 17
1.582959519955326 2.865599266553273 0.1169273107131297 22 22 24
1.5696091393272331 2.8551743931612448 0.12045990955268793 24 24 26
1.45749229521439 2.878105780415922 0.13817391262608184 29 29 31
1.4688059073001236 2.8591416450128877 0.13818779539542791 33 33 35
1.488625166493067 2.8373875735939036 0.13697144947027648 34 34 36
1.5115086022465163 2.814699572508597 0.1353042133750626 34 34 36
1.5144624316655444 2.798702356917654 0.1365029031612824 35 35 37
1.518470434982652 2.782382989831078 0.13754656440200955 36 36 38
1.5175168773345766 2.7677160779601535 0.13930514311282632 32 32 34
1.5125394028618009 2.7543697401948903 0.1416456532325945 25 25 27
1.5219139242448014 2.7363735645277556 0.14190408921861372 19 18 23
1.5225453446257782 2.721239755691061 0.1434276887764779 15 15 19
1.467083872030014 2.72408101642654 0.1531102465719373 14 14 18
1.4680693148896697 2.708767164591242 0.15458955703714866 13 12 15
1.456474487480714 2.6974538413501183 0.15790205999722837 13 13 15
1.4850344672030427 2.673471822282676 0.1553523411808931 14 14 16
1.4908723519125955 2.656718399167686 0.1561133571627619 17 17 19
1.4544822158601856 2.6531439843708196 0.16305481999064175 25 26 30
1.2497826378037384 2.4283140606509512 0.22425062583401328 77 76 78
1.239391177020204 2.416138053826777 0.2274397074359883 82 80 83
1.0246679736650792 2.3371333622387866 0.2746641128189705 49 47 50
1.0212347834098927 2.3074408112407396 0.27849496418385145 60 59 60
1.0297960116983103 2.289982640713018 0.27884168694193323 53 52 55
1.0057354231242195 2.280841328908557 0.28416458463647487 49 49 52
0.9827471572035061 2.27136125766657 0.28933098157573134 63 63 66
0.8108352977599004 2.267933498451666 0.3206673238462728 80 80 79
1.4804086762448596 3.4898988054556797 0.08275739412155973 50 50 53
1.447965216755858 3.4874796339152976 0.08891327968337509 47 49 52
1.4366447137106004 3.476335301244959 0.09217092651993503 56 55 59
1.6407246651337744 3.239840313456693 0.08056612067092331 72 70 74
1.6400374763573782 3.2248653992104868 0.08230428106768584 71 69 72
1.637283744884467 3.2106997629522493 0.08433076445707241 59 57 61
1.63318123469321 3.197056385099003 0.086546068307807 38 36 40
1.6357362898693013 3.1808687680195242 0.08782573264896598 36 34 37
1.6474273410187321 3.1612313078402967 0.08781696831898272 39 37 40
1.6447113001610265 3.1471029763983407 0.08983258403406699 55 53 56
1.6504694684737058 3.1297881408037034 0.09065165325136834 70 69 71
1.6465047351794466 3.116152308004978 0.09284110898090484 72 72 72
1.645154890887471 3.101541327162097 0.09466047206294628 69 69 69
1.6385094545301777 3.0889047857778054 0.09722937839447543 54 54 54
1.6281222709048335 3.0776398675379073 0.10033042395375161 36 35 40
1.6183067485860327 3.0661413365265555 0.10335276144287764 23 22 25
1.5365927643380013 3.035219519552296 0.121532208268825 24 24 26
1.5176190866577022 3.0268178031163053 0.12588503379995963 26 25 27
1.5168298359255297 3.0118796193337847 0.1276377826663927 22 22 24
1.536424373282693 2.9897241986808165 0.12646415299969102 16 16 18
1.5695348282986334 2.962885669804793 0.12333908782581562 14 14 16
1.617825618712927 2.9158730648648645 0.11962903601557948 13 13 15
1.5694476169737128 2.917712970117516 0.12822152454568783 19 19 21
1.543901870933347 2.8663313002102155 0.1383989110785697 20 20 22
1.4537803634102837 2.8666203015608667 0.1547436440467475 26 26 28
1.4561820676875354 2.8506543788184726 0.15602728979843766 32 32 34
1.4854177645513849 2.825776614916777 0.153395063089588 35 35 37
1.5135591732101994 2.8013805104993357 0.15090978752769818 36 36 38
1.5143896154203034 2.786095214243193 0.1524056194498595 37 37 39
1.5114115660573806 2.7720746849274596 0.15445723056261612 37 37 39
1.5022775106309518 2.760063263247889 0.15741099478478265 36 36 38
1.5299981985008326 2.7360920489532274 0.15495639319829685 36 35 38
1.524780481263098 2.7228475142735915 0.1573313713809938 30 30 32
1.5017664183581827 2.715301054488198 0.1623262309768776 25 25 27
1.481901740368838 2.706683020584044 0.166864263600884 19 19 21
1.449976937677151 2.7018298334558843 0.17318812843427767 15 15 17
1.419614167804697 2.696384923390985 0.17929190628792274 15 15 17
1.429561705778853 2.6782163006216573 0.17944171135123876 19 19 21
1.2818098462355842 2.466646837641002 0.22908252868036946 39 39 40
1.284835791237458 2.4507537439689653 0.2302448983271882 58 57 58
1.2400105002877806 2.4181186841359352 0.2419059189675632 78 75 78
1.211623654537658 2.4108564804953043 0.2478464365434137 72 70 73
1.0654457140493019 2.2829591141235794 0.28818701447664047 49 49 51
1.0423637389511113 2.273626831475144 0.29338660633634317 48 48 50
1.01911174907694 2.264272038883227 0.2986195164345792 51 51 53
0.9814864323895109 2.2584505380435784 0.30608353395717003 72 72 74
0.7492041278740877 2.2695810522431326 0.34709214144520917 84 82 83
1.4695309188549448 3.4972244281773133 0.09888182730551448 42 43 46
1.4464682247178398 3.490936723647386 0.1037836152788563 44 44 48
1.64389923770183 3.271802413311458 0.09110316172851113 55 53 58
1.6382450326547942 3.2587418388482927 0.09354062242494796 56 54 59
1.643388291749433 3.2414663295834485 0.09445112037101969 57 55 59
1.6388786431016777 3.2279691935313837 0.09672562188492037 65 63 67
1.6363786525213864 3.2136941212877876 0.0987152164715398 69 67 70
1.6421013846645112 3.1962649464553046 0.09953598444566306 59 57 61
1.6451508798678263 3.179893715198026 0.10073325216294701 38 35 41
1.654731194646538 3.161062980005429 0.10099729737797436 34 32 38
1.6575322374211554 3.144849445287185 0.10222318825388862 36 34 40
1.656314214268761 3.130175391049776 0.10402060556463921 44 43 46
1.6559638139752126 3.115185953323145 0.10569282481130546 55 55 55
1.654355586073239 3.100679109968135 0.10754382710620491 63 63 63
1.6446401701298066 3.089191528519189 0.11055694413668532 53 53 53
1.6243746515085218 3.0815813694824286 0.11508789048129361 34 33 38
1.5058590054076633 3.0488302554275633 0.14032458107020931 20 20 22
1.4877286786683874 3.0400658165762935 0.14458798306027898 25 25 27
1.4909632111939037 3.02362789347316 0.14575848875151082 20 20 22
1.5149703422102747 2.9998433168235294 0.1439095957421167 15 15 17
1.5579086247600078 2.9694755051759123 0.13929693610203156 14 14 16
1.5968453808841532 2.9406837631048206 0.13524866289864354 14 14 16
1.6005342788018302 2.9243664428887928 0.1363229480511905 23 23 25
1.5712817016186356 2.8894525677193763 0.1454301838514209 28 28 30
1.548468185044131 2.882243399100411 0.15038514895383728 25 25 27
1.5280857321206112 2.874138473776125 0.1549906048369622 24 24 26
1.4585243861407897 2.8674510628136156 0.16845823697348494 19 19 21
1.474488472634142 2.846938985447224 0.1677325354680715 19 19 21
1.4852915149055415 2.828218584206516 0.16776062489226806 23 23 25
1.5161196054910326 2.8029138704734846 0.1648245575754302 28 28 30
1.5122964029944808 2.7891572527184034 0.16700107292452104 34 34 36
1.5125663572546424 2.7740591016592284 0.16857124657471317 38 38 40
1.537654179515051 2.7508835324078977 0.16645893707596332 38 38 40
1.5324035598816144 2.7376503176521134 0.1688409426210527 36 36 38
1.5276430912314103 2.7242543537320687 0.1711505649162823 34 34 36
1.489677144172863 2.721504987170781 0.17840446773281365 33 33 35
1.4802209708352851 2.709541556876415 0.18142111362437593 33 33 35
1.472096177479342 2.697136287491601 0.18424112266820747 31 31 33
1.4563946065647317 2.687105669045888 0.18819517558520998 30 30 32
1.445284854293639 2.675593343680481 0.19146652175517445 20 20 22
1.406003295804498 2.6728399356136667 0.19896200298708994 14 14 16
1.2965878296519469 2.4796766222994666 0.23973890349495952 25 24 27
1.3034834603770635 2.4626822364478085 0.24029804313434522 31 31 33
1.3053409943743937 2.4471460005574714 0.24162421709045867 47 47 49
1.3011216584580916 2.4333324079538063 0.24387945365387903 56 55 57
1.2728897651969795 2.426202094120813 0.24981912040617693 59 59 61
1.2546887707866632 2.416212600679671 0.25422689321045755 56 55 57
1.2322219362986084 2.4073462103169936 0.25929609179838287 46 45 47
1.2170546017420585 2.396421902667583 0.2632480924695107 34 33 35
1.0118057807007714 2.2529235617601695 0.3162629456362872 56 56 57
0.8094608654551037 2.256885533504028 0.35292671548019255 78 76 77
1.4876206654226367 3.508354041716937 0.1093006326699889 40 41 43
1.4580764372703048 3.5047986544068244 0.1151426217785318 42 41 45
1.6420052815023491 3.2752351713109924 0.10565857674878512 48 46 51
1.639228255045147 3.261034907328931 0.10768882537320454 51 49 54
1.6426768204379476 3.244410402553425 0.10882701950588253 51 48 54
1.6365374340485592 3.2315359179004455 0.1113372947588217 53 51 56
1.642747496963998 3.21388147354505 0.11207495067220408 62 60 63
1.6446255371239091 3.1979305332352235 0.11343155973476482 70 69 70
1.6557628933708923 3.1784574750560504 0.11345250295195419 59 56 61
1.6618140826085976 3.160977238272735 0.11420092357850606 38 36 41
1.66313717313732 3.1453259158089546 0.11562812901152034 34 32 37
1.6603163891732748 3.131256987756884 0.11765243877427592 35 34 38
1.6576629292837033 3.117129370762692 0.11965208217885148 35 34 37
1.6547967173123128 3.103085943457899 0.1216820668864936 37 36 39
1.4668060850382463 3.065463358973703 0.16045698753329748 20 20 22
1.4490096145147178 3.056503287480102 0.1647043306187777 21 21 23
1.4677925210154044 3.034432101188314 0.16358926776480529 17 17 19
1.487566496634706 3.0120918342274465 0.16231971574449938 14 14 16
1.558796016302213 2.9716526389436315 0.15347019448347077 14 14 16
1.5866731554042373 2.946729529072672 0.15097839894156548 14 14 16
1.5886297782364214 2.9309886737840443 0.15229803885429272 22 22 24
1.5985823506653867 2.9124868203236107 0.15243428717922028 30 30 32
1.5333828845128237 2.9049403894429995 0.1652946202987325 30 30 32
1.525799384675441 2.892442474477826 0.16803166312683518 28 28 30
1.4911483332958873 2.843768026176856 0.17963728223192127 18 18 20
1.5088501930101883 2.8077094902816495 0.18021616802289375 16 16 18
1.5311650315397913 2.7853069629280274 0.17848350503786353 19 19 21
1.5323681279288008 2.7699265642747077 0.1799039561279815 25 25 27
1.5262028715134737 2.756969374318302 0.1824278486030247 31 31 33
1.537080280483773 2.7384727279399277 0.18239255451490494 36 36 38
1.546779933549284 2.7204092836037144 0.18252873384088414 36 36 38
1.5133954684904378 2.7162243199401663 0.18914796527887287 36 36 38
1.514573388412848 2.7009016170300093 0.19056690819409314 37 37 39
1.504064319386558 2.689306947587278 0.19374835627750545 36 36 38
1.4753695307883334 2.6834290852324183 0.19968137778105627 31 31 33
1.4559495905460245 2.6745520995390093 0.2042199972670381 16 16 18
1.4072478285629462 2.6747585126318296 0.2132020586409738 11 11 13
1.4181218647363694 2.6563191833896207 0.21316126569973642 11 11 13
1.3194216977303372 2.4453427361316775 0.25394500997125924 35 35 39
1.3070638261870795 2.433826917118494 0.25745984698313007 42 42 46
1.3048684493185572 2.419450564869202 0.25940136786259205 46 46 50
1.2917406475339983 2.408107286295188 0.26304012140834476 37 37 41
1.2409339445258665 2.4070982740349414 0.2725411774788319 27 27 29
1.2345495544741716 2.3937822738702192 0.27514391086204093 25 25 27
1.0088864269395046 2.240457703127996 0.33324272038751646 71 71 71
0.8537149125132424 2.248096827218155 0.3611152520508604 73 71 72
0.74286063747689 2.259655927207228 0.3803755773358927 83 82 80
1.5148380152999037 3.5156413919050555 0.11839383884945426 64 65 66
1.4691473561094872 3.5030855736087827 0.1282492747144123 39 38 42
1.6496394533000847 3.2749169086953525 0.11886007617262626 40 38 43
1.6577658682639105 3.241189069320763 0.12093194631815365 43 41 47
1.6589753706217827 3.225478644058497 0.12237733424962957 45 43 49
1.6709646307975694 3.144958791280628 0.12870558749860464 39 36 39
1.6638087278644234 3.132531563146161 0.1313616953279819 32 31 34
1.662967209888114 3.117720424311219 0.13309389491571036 30 29 33
1.4700541312167115 3.0208429629743887 0.179370447783526 14 14 16
1.5499017128517742 2.9772921152392695 0.1691130850336 14 14 16
1.5735460279098241 2.9538240738636103 0.1672000924543787 14 14 16
1.582261892352902 2.9356825456910807 0.16750432109401997 17 17 19
1.5909500145843043 2.9175966498182015 0.16780780594942854 27 27 29
1.5959676464437553 2.9008282382536397 0.1686556096058452 29 29 31
1.5536470857168074 2.90040739319296 0.17659196760227336 30 30 32
1.5596711274753954 2.883273179443281 0.17729100994792737 31 31 33
1.5219291111236997 2.8811007857572606 0.18455988865901002 29 29 31
1.500226936638965 2.873365217758315 0.18942947360185286 25 25 27
1.4913116983728232 2.8612510456654774 0.1923803521858128 20 20 22
1.4831523446286123 2.848865390586964 0.1952191538345779 16 16 18
1.5102344741621443 2.794591564441795 0.1959415406289847 14 14 16
1.5082506899761752 2.78021014216213 0.19784103712823062 13 13 15
1.5075760887662049 2.765408189825112 0.19954113436396234 17 17 19
1.5354632839275917 2.7413397326200135 0.19690082252651253 25 25 27
1.5586645417485947 2.7188991228600496 0.19496117233583352 32 32 34
1.524516922895922 2.7149801691334274 0.20174555698214855 32 32 34
1.5047319628457314 2.706364607555468 0.2063512293720777 30 30 32
1.5115558800670914 2.6892388654967596 0.20690021634325736 29 29 31
1.5239250745079147 2.67039971669961 0.20659739877526495 21 21 23
1.3775110562292538 2.4460109902600924 0.25776499790366 22 21 25
1.3187435946336201 2.447702048380854 0.26854362434850887 27 27 31
1.3265710848612822 2.43051446712249 0.26891205017669273 30 30 35
1.2348463890069803 2.4109237422295844 0.28809976017636246 29 29 32
0.7895723397996733 2.2503405851292486 0.38821015486085386 75 73 73
1.5407059493988458 3.5234129919618815 0.1276247057293837 93 93 93
1.517568585710524 3.5173654956555307 0.1326164059110317 57 57 58
1.4962431842117527 3.5104942636804473 0.13735457559385084 47 47 49
1.666283793001873 3.271042610578205 0.13073381192593866 44 42 45
1.653797489224423 3.260680605538732 0.13417934287043168 37 35 38
1.6526776512181052 3.2458454547633044 0.13596096269914176 33 32 36
1.6607328354689617 3.2274526648125903 0.13639384986885897 33 32 37
1.665299131532541 3.2104547500347116 0.13733515228820736 35 34 40
1.680445747788228 3.1439619325831067 0.14152812383688199 42 40 43
1.6701879424359016 3.1327162651792486 0.14464813541896143 33 32 35
1.5764751765984413 2.970383574267544 0.17946281375580195 14 14 16
1.5848036235836689 2.9523410330796875 0.1798072195351642 15 15 17
1.5897361885520516 2.935533000772092 0.18065953210066077 17 17 19
1.5910437976812666 2.9200207713779562 0.18205634079323688 25 25 27
1.580010118702556 2.9088070163965605 0.18531888593684323 28 28 30
1.5640795084070858 2.899256753249605 0.18932620089881458 29 29 31
1.5700877330899694 2.882135161921178 0.19000942720936695 29 29 31
1.4827299621695857 2.8060635999747645 0.2144940447494617 11 11 13
1.4861724656513153 2.789839789544489 0.2155647143819128 10 10 12
1.4967557558815425 2.771308127142836 0.21553686500937916 11 11 13
1.537289494557541 2.7430908635924505 0.21090213806731697 12 12 14
1.5544579947579529 2.7225879137502913 0.2098446113949578 15 15 17
1.53410418208113 2.7142258366605576 0.21455793949872687 16 16 18
1.5076196943902396 2.7077654291484117 0.22022283616928007 18 18 20
1.5127070482218232 2.6762462497028454 0.22260392675130866 14 14 16
1.4948222364759485 2.666944336478778 0.2269524546123686 12 12 14
1.404907936619734 2.604809458740078 0.2504419867649243 11 11 13
1.238752303597904 2.427098774229909 0.3005089863297981 23 24 29
0.9198672887256967 2.235968856283772 0.38071979158711455 71 71 73
0.8288024170002846 2.242835157696057 0.3971185839190815 68 66 69
0.7051236387122739 2.257320085079268 0.4188440409788455 89 87 89
1.525810299719751 3.5325237154149383 0.14438522442700225 55 55 56
1.5030891445750616 3.5262717568001665 0.1493536132655806 53 53 55
1.6253056834421398 3.459748906497987 0.1331886650699447 52 52 54
1.6168039754422683 3.4477494742242745 0.1360662646176387 48 48 50
1.6929758552210616 3.278433427969144 0.13947231625791282 68 66 67
1.6759853805931517 3.26990155432382 0.14359424166421655 62 60 61
1.6669184975619504 3.2582077457908634 0.14654680515936297 46 44 45
1.6602693464300795 3.245549433969897 0.14914252863099578 35 33 37
1.6568729103955437 3.2316151036763516 0.15125589873330963 26 25 30
1.675288488987455 3.2092335068010214 0.15012317051100252 29 28 33
1.6873818521402495 3.174209895097578 0.15152244229658557 35 35 37
1.6892313849509561 3.1583560630229273 0.1528432756666702 41 41 43
1.5787286200116504 2.9720790413511997 0.19344153080593224 15 15 17
1.5926614945592865 2.952052556258203 0.1929106518514003 17 17 19
1.6021753806210741 2.9336407861124503 0.19304760463661122 18 18 20
1.5720884669905018 2.9290932739041966 0.19923323498541576 23 23 25
1.5660004054420478 2.916122077206688 0.2017555349416446 27 27 29
1.5744990987258916 2.898107255103872 0.20204317086961684 28 28 30
1.5134420899010221 2.8284326688794765 0.2209693614985019 12 12 14
1.4684934404797463 2.8283070351141135 0.22950736369447738 10 10 12
1.4800073669436962 2.7942492689141782 0.23091469130933653 9 9 11
1.5582003615049158 2.753571427058906 0.2203739835576774 8 8 10
1.5663547882529723 2.735979769049607 0.22068229363585234 9 9 11
1.5610219336022313 2.722796216608015 0.22308375501330308 11 11 13
1.5381595915589297 2.7152491605419677 0.22821547409525325 13 13 15
1.5214638185087521 2.705660849012017 0.23239289717501918 14 14 16
1.496759783856786 2.683598266480197 0.2394044013868845 16 16 18
1.473013655696946 2.6761075695105756 0.24469779287740284 13 13 15
1.4593845309913178 2.66538072489647 0.2484136548787767 12 12 14
1.4555783031309457 2.6515633713344724 0.25059241035341007 12 12 14
1.4373103927328932 2.5972250444706892 0.25978638089866674 11 11 13
1.4225040262875868 2.5867300104865394 0.2637010713814897 11 11 13
0.7385891768753358 2.251285471269688 0.42877807118919575 79 77 79
1.5507555525313939 3.540647386263223 0.15370072648431832 71 71 73
1.5154184821641152 3.5397589077866756 0.1605521974428957 46 46 48
1.630069835130822 3.4450729658678827 0.14856515715037574 55 55 57
1.6347096349572472 3.4276603703159423 0.14950574456368493 46 46 49
1.6970947793410747 3.310020713595731 0.14992423997497134 59 57 61
1.693879913092411 3.280768325193416 0.15360995200451044 69 67 68
1.6810495576636912 3.2705896575347007 0.15713229278306057 71 69 70
1.668814093587729 3.260144018467737 0.16056888708312453 63 61 62
1.6716463911198993 3.2437700251484767 0.16174612770527624 47 46 48
1.6706912490300523 3.228896636273003 0.16349018344577998 32 32 34
1.5794332306344077 2.974325311466507 0.20766774263923543 16 16 18
1.5995505453122187 2.952104069424443 0.20615306606061862 17 17 19
1.6069969798026054 2.934417655134211 0.20658563083786585 19 19 21
1.5730017224145654 2.9312425398558886 0.2134205282003305 22 22 24
1.571485326947713 2.9166768868921094 0.2152396177764506 25 25 27
1.578789393847087 2.8990723419029223 0.21569081578389201 25 25 27
1.4516163334738112 2.80598367314484 0.24978491375773143 9 9 11
1.5111729890961296 2.7713260219253772 0.2420330346635877 8 8 10
1.556295866913326 2.74159751682308 0.2365241554261894 8 8 10
1.5726244249138523 2.7213715547323387 0.2355246155872681 9 9 11
1.5143018202795104 2.725263975674319 0.2462701689430371 12 12 14
1.5159778219732796 2.709743050598841 0.24757899688218019 14 14 16
1.4933903153004742 2.6869778070882253 0.2542887078840279 17 17 19
1.4880566814884628 2.6736787109967595 0.2567048815215969 16 16 18
1.4712564152472147 2.663965794824596 0.26093757220999025 14 14 16
1.4526582564745096 2.65476699730721 0.26546013771388627 13 13 15
1.4095749449281263 2.6229681184335565 0.2770379997737378 12 12 14
1.4068627219687513 2.6087502063576533 0.27904928555848924 12 12 14
1.4092519864018365 2.592993577555074 0.2802464461086623 12 12 14
1.4044199050762336 2.579431301529729 0.28259432626366604 12 12 14
1.3975200689799945 2.536482334798656 0.2884226327064706 12 12 14
1.3956344303622428 2.5220562679535434 0.29029768634666553 12 12 14
1.4109457797705476 2.5026176869021017 0.28941002918780023 11 11 13
1.3633788715951738 2.501490941910559 0.2986254643401918 11 11 13
1.2646721795077749 2.4393141339588253 0.3240303022918147 14 14 16
1.2194804843169975 2.4064960137090647 0.33611839021184303 20 20 22
0.772044989143416 2.245240295733685 0.43861861511250566 69 67 69
1.5854486791980638 3.544570862847675 0.16151835633508949 115 115 115
1.5389235943652169 3.5485186103013744 0.17007789246601335 46 46 50
1.520654125213793 3.5404441706872984 0.17444499653385281 45 44 50
1.6488082804633817 3.4401242401265937 0.16021627655244797 53 53 55
1.6433041653987388 3.426916854720399 0.16265812543509617 59 59 61
1.7167923386049226 3.320097398305317 0.1596508009602285 49 47 51
1.705340985508887 3.309429893074232 0.162974084462629 52 52 54
1.7038467139343605 3.2947597432225004 0.16479553854011403 54 54 55
1.6967066749123527 3.282341893742525 0.16747034722894186 54 55 54
1.690472226101135 3.269554048104185 0.17000918822577787 60 61 61
1.687894308029119 3.255318539142539 0.17199419079949058 70 71 72
1.6877687589712607 3.2401274790695025 0.17360613747403447 66 67 68
1.6858689033100664 3.2256423900054076 0.1754864644184801 52 53 54
1.5980024690018892 2.970233553716713 0.21912584862951345 17 17 19
1.6157293029901143 2.94887417205691 0.21793974542534764 16 16 18
1.6166003574965926 2.9335147939130337 0.21937709397090654 20 20 22
1.5762091522420254 2.932592420630072 0.22726275398498547 23 23 25
1.5727014390173575 2.918715336721824 0.22938960144652915 23 23 25
1.5220406510885816 2.8908291500223906 0.2420738991943322 16 16 18
1.4916697016711882 2.886030032622486 0.24843238807627738 13 13 15
1.4698699726920048 2.6817193674435544 0.27399045124989163 18 18 20
1.4650460945129722 2.6682148731528708 0.2763321727663823 18 18 20
1.3852545579509996 2.632698329306445 0.2954317072091316 14 14 16
1.3886812202957055 2.6165585975814416 0.2964577794812754 14 14 16
1.3985690262930124 2.5984889508854665 0.29643956065129073 13 13 15
1.3926825475442324 2.5852166914116763 0.2989619270783746 12 12 14
1.3815256994270964 2.5735148114641113 0.30233652716635273 12 12 14
1.402875119383787 2.5521181203594856 0.30045572464317094 12 12 14
1.3729189442491352 2.5459819743936065 0.30687396942957823 13 13 15
1.4032696782134308 2.522028021055799 0.303524584704314 12 12 14
1.4053910212503196 2.506442978363783 0.3047444068813839 11 11 13
1.3851172369355012 2.497383103673852 0.3096010292232358 11 11 13
1.265738352661487 2.4411881140402363 0.3384960633634948 14 14 16
1.2460770104203833 2.4315618988048553 0.3432937717348453 13 13 15
1.2401071510210466 2.4180971920214787 0.34585233188776904 12 12 14
0.7947878118848672 2.2417900402427136 0.4501573139961122 66 66 66
0.7063200792976128 2.2475631447527302 0.4666145120559248 80 80 80
1.586595446171576 3.562663969368077 0.17429225098972995 159 159 159
1.565892190063155 3.55574532023514 0.17903777898432122 78 78 79
1.6557967692681435 3.424562401062842 0.17520693118403796 53 52 54
1.6749426002952787 3.401239409576539 0.17391107398531022 57 55 58
1.7115612880152773 3.309649956137484 0.1763213198121049 40 40 42
1.6941886948755283 3.255520290701046 0.18533184023481233 50 51 56
1.67021771791981 3.2496794340701474 0.19060060135510593 64 65 67
1.529284612940259 3.027654224214893 0.2411071939539726 15 15 17
1.5717730036136917 2.9972193816210724 0.23601258090283625 18 18 20
1.6516113363023832 2.9536867001808584 0.225018459854858 24 24 26
1.628651210624122 2.93174860300205 0.2317656916576922 20 20 22
1.5845884969016792 2.932134362371169 0.24029322433283756 22 22 24
1.5787982683255577 2.919057744813446 0.2427797998003096 22 22 24
1.514462131846043 2.9110487730335497 0.25612287851308546 18 18 20
1.4879247751526892 2.9049623857204847 0.2619162025405198 16 16 18
1.474936904232646 2.8485677292623333 0.2703098328478467 10 10 12
1.4862499416901698 2.829620704653286 0.27008165723356997 11 11 13
1.5169038027327015 2.714106934694836 0.276141202004328 20 20 22
1.3848314683336276 2.5898400945776054 0.31475248349822055 14 14 16
1.3812077626963197 2.575861363776494 0.3169116651676597 14 14 16
1.345552813128088 2.5714205917958215 0.32430660160508895 15 15 17
1.3944021650129277 2.54185797504799 0.317884385204089 13 13 15
1.392133705710478 2.527520687287576 0.31981735930429406 12 12 14
1.396955467965968 2.51111611454222 0.3205868060575163 11 11 13
1.3814561041689333 2.500649241230328 0.32468969110162244 12 12 14
1.2471149921175393 2.448579385461909 0.3562295506315638 13 13 15
1.2481207841714324 2.4331628479536045 0.35763817343216886 12 12 14
1.249076128603596 2.417777948883074 0.3590533132183166 14 14 16
0.7427312988146437 2.2408473266913798 0.4759191645491913 72 72 72
1.5547021499684242 3.563387133467174 0.19537089909233693 53 53 55
1.6724332413264644 3.42049152388319 0.18709395349192737 54 53 55
1.6903289354339728 3.3976966950366725 0.18594707941698027 61 59 62
1.7260280878679726 3.306556413062465 0.18839022599155922 31 31 34
1.5824667644939732 3.0110924860600394 0.24714278933177283 14 14 16
1.6239820994944145 2.981079571093161 0.24211323773444654 14 14 16
1.6593618245760302 2.9384059908686595 0.2395981019509223 17 17 19
1.637420299239569 2.9311328624598625 0.24465301486697882 19 19 21
1.5845551914310296 2.934619088008257 0.25465562509561906 21 21 23
1.5797187717505747 2.9212019915215386 0.256993707873056 21 21 23
1.4973455892271121 2.828329672339027 0.2827633855755146 10 10 12
1.5657228509155543 2.7755105936463105 0.27483037868964566 12 12 14
1.499792763685711 2.7520297012908146 0.29018792571227253 16 16 18
1.508444983700492 2.734181763107441 0.2903406853072442 20 20 22
1.5247244586377435 2.7139295969454778 0.2892472506777222 23 23 25
1.479753318628169 2.683231597516992 0.30124362565601476 26 26 28
1.3744412171870377 2.5801437396897833 0.33256856571801274 17 17 19
1.3377306367005115 2.576005228350366 0.34019409890408525 17 17 19
1.3652999247217832 2.55270981112947 0.33720265546958483 14 14 16
1.3755120030267776 2.5346370274026295 0.3370729106515724 12 12 14
1.400775996485723 2.4972341058008443 0.3359948666727059 13 13 15
1.3877113443111444 2.4860510665237885 0.3397145891624508 13 14 16
1.3072906138236335 2.4790967694785033 0.3562008353809819 19 20 22
1.3048253112254549 2.464713511896869 0.35817416971053323 18 19 21
1.2971879650738296 2.451794885399715 0.3610097119141236 13 13 15
1.2584769521109505 2.4475756352566034 0.3690357774061013 12 12 14
1.251736910614426 2.434327175154041 0.37172957956404906 13 13 15
1.2615403079127012 2.416488999686808 0.37165564904333204 15 15 17
1.2589333394805964 2.402113539520648 0.3736559480108237 20 20 22
0.7703758850345587 2.2362402658773775 0.4866172066665253 65 65 65
1.5901869287669215 3.5669309847199187 0.20295972692649641 97 97 99
1.5510453714669548 3.5678413828314377 0.2106018624988847 48 48 50
1.5423365591613643 3.555754054013157 0.21356969220296973 42 42 44
1.6886702310086532 3.416577745982341 0.19900161003211536 53 53 55
1.7004978302686393 3.3962933955775987 0.1987559578280065 57 56 58
1.701245361074145 3.380606177792818 0.2002260807227711 68 67 69
1.710748868298798 3.361367196896611 0.2003319555392777 64 62 64
1.729248340955405 3.307978029182674 0.20218185123224958 29 29 33
1.608912221293679 3.019266360816521 0.2557409999720629 16 16 18
1.6612112959580756 2.985312148800739 0.2489062832439077 14 14 16
1.6755989913643323 2.96512285924164 0.24814484385446697 15 15 17
1.648830361677449 2.9295846706002067 0.2571006101329386 18 18 20
1.584839292479071 2.936995518485045 0.26898365088207515 20 20 22
1.448078913415803 2.8776986909279376 0.30212873448398697 9 9 11
1.473729335328077 2.853826693183198 0.29952111189094366 9 9 11
1.496943377334512 2.8308757136118428 0.2973000338523448 10 10 12
1.567865920690663 2.7771747984191824 0.2888210645832101 14 14 16
1.5718799909556698 2.7608717865385257 0.28970908966666153 14 14 16
1.4942454573151334 2.7712820253742505 0.3039793205603968 15 15 17
1.5102390585370795 2.7509958687787393 0.30291047641750257 18 18 20
1.5182487360455998 2.7333621060626268 0.30314604454107663 21 21 23
1.5331063101259348 2.7135702108648134 0.30225075285812525 25 25 27
1.4563609083178797 2.723125817377315 0.3164333943095768 27 27 29
1.3782217066349784 2.5812678849113233 0.3465072109339624 23 23 25
1.3447991952725729 2.5610293043474552 0.3552001743699251 16 16 18
1.3623480114492497 2.5407455893066015 0.3538237021595211 15 15 17
1.3579861087898366 2.5269568443620027 0.35610787043547104 16 16 18
1.3860906805355895 2.503713192813654 0.3529504009218639 17 17 19
1.295117081328362 2.484775193373596 0.3728837612544 23 24 26
1.2953447263301692 2.4695962967366323 0.3744042109956478 22 23 25
1.2808710137222667 2.458583702129299 0.3784005885218317 16 16 18
1.2536721249005782 2.451105377849174 0.3845474999889632 14 14 16
1.2592703020760334 2.4343997785011786 0.38516395850705776 14 14 16
1.2550932205653185 2.420436846209402 0.3874295627336244 14 14 16
1.2558793753669768 2.4051067532990418 0.3888552206067073 21 21 23
1.2547935527673415 2.390305751901684 0.39059629371581533 19 19 21
1.248230138642911 2.3770042411925476 0.3932653239565954 24 24 26
0.6998872595051742 2.239621433731365 0.5158097454738175 73 73 74
1.6210987231000624 3.572316601556165 0.2111753241641272 143 143 145
1.5717837497767502 3.577690067957182 0.22044936773946133 61 61 62
1.5497993042744211 3.5712771532665513 0.2254880635034261 51 51 51
1.6900619664217709 3.4342379611963296 0.21161133895173567 49 49 51
1.7020947590515898 3.4138195681445898 0.21131023166464677 50 50 52
1.714056263292108 3.3934908194069573 0.21101412439802605 54 54 56
1.7090254117686436 3.3801867973231134 0.2133824208244191 59 58 61
1.7153387646615657 3.3622503502951653 0.2139660586713351 64 62 65
1.7246555255464004 3.343132742184806 0.21407255397548572 67 66 69
1.7145649743865146 3.2860378748535144 0.22194498331775608 27 25 28
1.70831651334052 3.2732558224785375 0.2245022910354688 23 21 24
1.6658465538932967 3.001209723555398 0.2608952292227333 27 27 29
1.6772585220414147 2.982044414670397 0.2605891633960298 27 27 29
1.5942387879826003 2.951296466136165 0.2802872894773799 18 18 20
1.5851233213929616 2.939374699014215 0.2833275066867027 20 20 22
1.4535207040491223 2.8783084699179917 0.31581829071180884 9 9 11
1.460378204430056 2.8607456676676892 0.3162551479606868 10 10 12
1.4939747206247873 2.8342828059508767 0.31227817366896865 10 10 12
1.5652696768332386 2.7954205529441074 0.30206303969603326 13 13 15
1.5606587256909954 2.781932754608707 0.3043665416167819 16 16 18
1.5329468635822079 2.7760406320248476 0.31049292395485917 17 17 19
1.507986506584984 2.7691629147185717 0.3161722751803035 18 18 20
1.4913586795379905 2.759499034749201 0.3204774713363381 21 21 23
1.5142339265730516 2.737010094321072 0.31822864789495753 22 22 24
1.543403820709751 2.712592554635621 0.31492366016943096 26 26 28
1.4824470593140986 2.71712713275962 0.3266033951386583 28 28 30
1.5041487264454387 2.6951615558509237 0.3245346672252054 30 30 32
1.4702560219423222 2.690874440706956 0.33172776212355026 32 32 34
1.4793497430018934 2.672959032722769 0.3317552667478071 31 31 33
1.4019575861169442 2.6518569483633807 0.3493417859386163 31 31 33
1.3517657675529025 2.606624483796577 0.3639862578952222 29 29 31
1.381568265478539 2.5825229339660654 0.36052278458109954 27 27 29
1.3766385167470634 2.568909708332654 0.3629026828241797 20 20 22
1.3470401455546528 2.562613609262948 0.3694464181241034 18 18 20
1.3552197814769522 2.5450832031493764 0.3696165209844599 19 19 21
1.3604774233861971 2.528452720094531 0.37027641986599363 21 21 23
1.33617099936566 2.5053770827844355 0.3774885224394434 25 25 27
1.359824922349868 2.483486846936859 0.3750230829496329 27 27 29
1.2985090542844717 2.486008309245031 0.3869810549891047 28 28 30
1.297513942643418 2.4711733506194724 0.38870243391505704 27 27 29
1.284861871951189 2.4596437009351146 0.39240704135381066 24 24 26
1.2647424958338493 2.4501811274139103 0.3973872413758328 21 21 23
1.2590379635348357 2.4366386350984333 0.3999142487992593 16 16 18
1.2575391347703635 2.421923804570962 0.40172365702753143 13 13 15
1.2599111814456667 2.4061510360496428 0.40287043323104216 19 19 21
1.2596924973452146 2.391110230984164 0.4044582475171725 22 22 24
1.2504847480716603 2.3785288289414765 0.4075845764047061 20 20 22
0.7218469209503413 2.2364234218964767 0.5275027626507278 67 67 70
0.6575744803000547 2.236050311317517 0.54034700201365 87 87 89
1.565832589078971 3.5831457795977957 0.23606419867321374 49 49 50
1.5490602126556114 3.5745016315184217 0.24031639709016672 50 50 50
1.6991417777756523 3.433270108972122 0.2246076322517586 35 35 37
1.7040499100943143 3.4158036644514045 0.22540703763715592 35 35 38
1.7118415112962702 3.3971824312118057 0.22574533066548566 38 37 42
1.7156997026561436 3.3802190361284663 0.22670419972891745 43 41 46
1.7166001086057927 3.364492847834937 0.2281306837856541 52 50 55
1.718770906705072 3.3482685788359428 0.2293529190609728 60 60 62
1.7141654585489303 3.3348088819591806 0.23165359330298999 68 68 70
1.7240572247436463 3.3155086260039224 0.23163947259296375 63 63 65
1.5929677295652682 2.954233760989437 0.29489346452777465 20 20 22
1.5849636616946245 2.941912321997631 0.29776040790370495 20 20 22
1.5624768445565995 2.9194753953583668 0.3045700632502826 19 19 21
1.5116332094347544 2.9218986054282516 0.31453425529538726 17 17 19
1.4508664281489059 2.8969434858977317 0.3292897565816349 12 12 14
1.4659527325752475 2.8765536520228494 0.3283436839811865 10 10 12
1.4589229920017395 2.8636732179593776 0.3310720686048276 10 10 12
1.5150867293976251 2.8296368483448178 0.32327043409171236 12 12 14
1.5506053946145857 2.8026886776683204 0.3188908640497262 14 14 16
1.5516409907225273 2.7872968726643457 0.3202560190147081 15 15 17
1.5328670049308548 2.7784442456727643 0.32493154545871694 20 20 22
1.561652698301284 2.7539677317994737 0.32165166083320285 21 21 23
1.5326413228448814 2.7484272214595675 0.32804482829794546 23 23 25
1.512974601537429 2.7397708703886847 0.3328795984138325 25 25 27
1.4891346971446973 2.732401828530498 0.3384209733440382 27 27 29
1.4916181507326935 2.7165327868342954 0.3395441054969134 30 30 32
1.5425850319475989 2.6852496359599174 0.33250485241804073 33 33 35
1.4781787497608216 2.6906919236643483 0.34488450871543297 34 34 36
1.4708514884563602 2.677948055131765 0.3476586919185168 34 34 36
1.4294199771497578 2.66075869248036 0.3577370196573132 34 34 36
1.4397368802178325 2.642471003984945 0.35753401924738876 33 33 35
1.3576537950543341 2.6222894557943324 0.3760829723262967 32 32 34
1.3630458889011967 2.6054935467576725 0.3767166412942056 32 32 34
1.379284753695123 2.585470991168343 0.3755015403447106 28 28 30
1.3320001546660782 2.5845002847921594 0.3850977883547253 26 26 28
1.3419866974351562 2.566365854660325 0.38494547617099906 27 27 29
1.3554474320399263 2.547255378564608 0.3841951370949966 26 26 28
1.3721159058577406 2.5272654305200426 0.3828904171465799 26 26 28
1.3707752058162617 2.512601968650716 0.38465840544371194 27 27 29
1.388052108373646 2.4925500227945907 0.38323782019241925 28 28 30
1.3490740180182699 2.488784262694888 0.39145139395424655 30 30 32
1.3012245337610073 2.487435969690958 0.4011996903031566 31 31 33
1.3042963048797371 2.4714387041708425 0.40221776522976316 32 32 34
1.2908428816099873 2.460141195914988 0.4060745497226079 31 31 33
1.2714683598517242 2.4504751345534026 0.4109538316606598 28 28 30
1.2673053557135132 2.436505529186225 0.4132177580422114 23 23 25
1.2682040219147601 2.4211303039325895 0.4146087205871135 17 17 19
1.2687933941782772 2.405857730874401 0.4160513125267901 19 19 21
1.2611862521814612 2.3928481280278318 0.4189088692630268 25 25 27
1.2544807638675777 2.379580459027189 0.4216117065326111 21 21 23
1.2413704877598115 2.3680366784422047 0.4254247412723729 23 23 25
0.7281460110737122 2.2369940817753005 0.5418985356200398 60 59 65
0.6883055367463892 2.2307870890419887 0.5505348292685941 76 76 79
1.559638753480445 3.5887129052110645 0.2517561682685979 43 43 44
1.7084396635852068 3.4167810340305125 0.23912382714086247 29 29 32
1.7177677024740028 3.397521213531771 0.23919489416222414 29 29 32
1.715130631990036 3.3832238447271146 0.2411834456809767 32 31 34
1.7194321352828508 3.366095870535875 0.2420552523562123 40 38 41
1.7208413131832034 3.3501755683806835 0.24338974847865483 49 49 51
1.727332022858819 3.332217844818431 0.2439027636253197 55 55 57
1.7302172176038613 3.3157525105543404 0.24499388801272434 64 64 66
1.7348454045518 3.2986135885634953 0.24580067019399013 67 66 69
1.6528312748501266 2.935589577048626 0.2993401334026252 20 20 22
1.5045047750485647 2.835595711154075 0.33954314468168034 13 13 15
1.5669825740580055 2.7996284835770795 0.3305537107869758 15 15 17
1.57086400320634 2.783313301375627 0.3314278666674648 15 15 17
1.571045407416351 2.768245497303417 0.3329241940334371 18 18 20
1.5413983748500821 2.7629665779498005 0.3394634463659879 23 23 25
1.543412227806702 2.747277720550708 0.3406519756628617 24 24 26
1.5273977517619766 2.737452852623577 0.3448937858598529 26 26 28
1.4849942631446433 2.720997960441191 0.3551527160459286 31 31 33
1.495636436307982 2.702529658775919 0.35487719951352714 34 34 36
1.5147812167405583 2.681419436240349 0.3531490960878617 35 35 37
1.4688050183704293 2.6809115032792836 0.3625088333129897 35 35 37
1.3951049869717551 2.688939297809662 0.37661291116480833 36 36 38
1.41694979206268 2.6669537135758707 0.37442723984963927 36 36 38
1.4507916729094894 2.641344642157499 0.37018138118672494 35 35 37
1.4645797855064768 2.622046200128216 0.3693534186192257 34 34 36
1.3669550323038266 2.6217486733647735 0.38914819701593617 33 33 35
1.3856753489854623 2.6009248423541473 0.3874768893915885 32 32 34
1.3758092657548002 2.5887814554614046 0.3907098283812105 29 29 31
1.3631192853889345 2.5774617700899016 0.39443066981476427 30 30 32
1.3364156572900536 2.5702772336027793 0.40056790302482037 31 31 33
1.3664635607307798 2.5462419810062027 0.3969300236192522 30 30 32
1.3829677682629415 2.5263056743514394 0.39561707585441463 29 29 31
1.377278150344091 2.5129217656685414 0.39813068858268624 29 29 31
1.3747455599121827 2.4986157497689025 0.40009896749985213 31 31 33
1.3365059584852435 2.4946138837258878 0.4082478863999135 33 33 35
1.3009419845306727 2.48972419997687 0.41594544403431666 35 35 37
1.3102995011727974 2.4719250964088686 0.41586192450257126 36 36 38
1.2980844876281763 2.460281232940813 0.4195195901375147 35 35 37
1.2853148710177018 2.448764623365552 0.4232765900219979 35 35 37
1.2722070988841057 2.4373118597097343 0.4270955548766111 32 32 34
1.2821863359087207 2.4194121236458286 0.42689640437828913 26 26 28
1.2841634743155341 2.403771072383183 0.42808750270635043 24 24 26
1.265538385089956 2.3938035199612195 0.43287235882819547 26 26 28
1.2546487512267501 2.3816761110206413 0.43631089392678857 22 22 24
0.7484088067793078 2.234193916630799 0.5538064950537557 56 54 59
0.700757039510358 2.2298928420788102 0.5638913857109065 66 65 70
0.6368635010832904 2.2293068444561417 0.5768864999585482 97 97 100
1.5531604052222536 3.59440961747388 0.26753335838423753 40 40 42
1.7299325933232614 3.395284057317195 0.25162842690005893 30 29 32
1.7286399915577235 3.3804475713716857 0.2533948306899887 28 27 30
1.7283080576997507 3.3652282260393194 0.2550039755435043 31 30 33
1.7311830360327907 3.348716907908854 0.2560895654175064 35 35 37
1.7348362416805008 3.3166171013727426 0.25859514628751057 45 45 47
1.7420072204238781 3.298453976232104 0.2589713846930418 55 54 56
1.7297494017622421 3.288096825818486 0.26252169546970816 62 62 63
1.642239753989923 2.9418094757666835 0.31545086219065854 19 19 21
1.4889953952068344 2.858424289886789 0.3551672747065776 14 14 16
