ply
format ascii 1.0
element vertex 708
property float x
property float y
property float z
property uchar diffuse_red
property uchar diffuse_green
property uchar diffuse_blue
end_header
0.96298618840778 2.5905119409901243 -0.07593940741395735 48 49 53
0.9648074205752695 2.573109221897007 -0.07381359874706492 51 51 56
0.9334491691937108 2.5749479460742406 -0.06815498205322182 69 67 73
0.923483955188042 2.564347792893468 -0.06476957318433868 85 81 88
0.8328571931525972 2.5178921096320352 -0.041069322629005645 46 47 52
0.8405403603828511 2.49722882133978 -0.03958737634585133 50 52 57
0.7827372946542056 2.513288534468737 -0.030954817603880302 51 50 56
0.7743369341482952 2.501583518667214 -0.027708018544524038 55 54 60
0.7940139886843302 2.4742724061173393 -0.02754679072797253 61 60 66
0.7550549622608794 2.479532861349816 -0.02093893832323812 72 71 75
0.7440674357471634 2.4692353656088026 -0.017403495715683698 68 68 70
0.7316646494052087 2.4597000618649854 -0.013709054233048662 65 65 67
0.710883029711739 2.4547298441738805 -0.009080754270089336 74 74 76
0.6929282318865375 2.448162437448034 -0.004759422315946116 86 86 86
0.6732329780962928 2.4424966050323826 -0.00023748330884107438 126 126 126
0.7259620888705461 2.3975845141104415 -0.003817805890388909 163 163 163
0.6675600296529003 2.4128338023356006 0.005042832570876399 170 170 170
1.267689236583579 3.2581825100169195 -0.2134311957741513 173 171 172
1.261841544388834 3.244929129612375 -0.21044931627380553 173 170 170
1.2532299568561447 3.2335975444886484 -0.20721287892796955 168 166 166
1.2509335071425491 3.217898083188744 -0.20456134199585957 154 154 154
1.2417480775815513 3.2069633309526235 -0.20127174679138948 120 121 123
1.2375841065381523 3.1925749185653864 -0.1984499755153927 78 80 81
1.2226121768791542 3.1855895105644234 -0.1946169790994944 64 63 65
1.28325212700621 3.1270524858577375 -0.19789222948206162 57 58 60
1.2914862630959347 3.104413539604068 -0.19626455362867212 54 55 57
1.230073419146471 3.1289750898266715 -0.18804928266005475 52 52 54
1.199969872724898 3.1321718345746508 -0.1827747979451703 44 44 46
1.1897746728050165 3.121883169530035 -0.1793842977761204 42 42 44
1.1818508677750614 3.1100595394544923 -0.1762092570242027 41 40 45
1.3298642316487717 2.9107515777462147 -0.17624326850989086 52 52 56
1.3193392293452892 2.9010501471263788 -0.1728728854307514 59 59 62
1.3067366186779883 2.8926866325947507 -0.16929610133003553 60 60 62
1.2599843204374044 2.9064709388514185 -0.1623487733248682 56 56 58
1.2485399113098365 2.89723093336282 -0.15886862088731146 53 53 55
1.2307583910997788 2.89205739390937 -0.15475686805934347 64 64 66
1.1967091215624066 2.897288439713154 -0.14901892262595845 78 78 79
1.1832041602067926 2.8892443383463977 -0.1453155790558516 75 75 77
1.1734161626974382 2.878800107868088 -0.14198057951771217 62 62 63
1.1680247446557226 2.8655486219517083 -0.13908574705400673 52 51 55
1.1653157008373587 2.8506054225223965 -0.1364624260833625 48 47 52
1.1940807004947416 2.8158103065724913 -0.1370246525457746 58 58 59
1.1872018377117717 2.803599826507978 -0.13399377754722427 51 52 53
1.176642571149902 2.7936976965032603 -0.13058856440911595 53 53 55
1.1478954260857157 2.7951425482327297 -0.125324911814681 53 53 55
1.133386248163082 2.787628578114834 -0.12150536131468759 45 44 46
1.1297158955206994 2.773358698453537 -0.11879419416574694 38 38 40
1.1239832995701615 2.760378743055157 -0.1158727779577216 47 47 49
1.1193187070472703 2.746747136914698 -0.11306255732174025 51 51 53
1.1214241713109583 2.7289714306942114 -0.11095532789525964 51 51 53
1.1030960688995948 2.723731870996837 -0.10673030573318751 50 50 52
1.0670106958308903 2.729263722898206 -0.10064754495158804 53 52 56
1.0860066891356654 2.701225703215577 -0.10030502667091235 50 48 52
1.0891338169065397 2.682902008803642 -0.09831480331336878 51 48 51
1.0515552795444005 2.6891611718156776 -0.09205065832355544 53 50 53
1.046900697012338 2.6755123735549526 -0.08923991616550411 56 53 57
1.0381382211549464 2.6643329232267683 -0.08599624315288865 54 53 56
1.043622638180362 2.644650582759202 -0.08426268949626178 44 44 46
1.0429979451046179 2.6286526019318304 -0.08188699455600223 45 45 47
1.035386868610231 2.6168187879799425 -0.07876999565575968 46 46 48
1.037990050291924 2.598957693262606 -0.0767453821779639 45 45 47
1.0213784215409232 2.5924316579118862 -0.07266533289785032 38 38 40
1.0018914774899916 2.5875488390882544 -0.06827023462540566 50 50 52
0.9948112532017575 2.575374349925726 -0.0652061395879858 49 49 51
0.9701154958255658 2.5734407179856595 -0.06023641640894156 64 64 66
0.9373790544700227 2.5760897011707318 -0.05438390130000123 75 75 77
0.9194929088217281 2.570060168210955 -0.050131491957145335 80 79 82
0.9198183001818492 2.5535141887291957 -0.04785918783022006 87 86 88
0.8471962571991024 2.513168455975442 -0.028355349521080986 36 37 40
0.8593348348016144 2.490013363277952 -0.027397453578810405 47 49 51
0.8277007119401194 2.491462935320548 -0.021585386294375508 48 49 52
0.8025795680508798 2.489175211326624 -0.016484805097887162 54 54 56
0.7729691638422636 2.4893093088368876 -0.010872055331151986 72 71 74
0.776915226599174 2.4707600739943105 -0.009005769337349312 82 80 84
0.7631272691173664 2.462045219910975 -0.005153977017047839 69 68 72
0.7488456913979396 2.453574703852502 -0.0012427714870252848 55 55 57
0.7315457421240207 2.446728557855256 0.003013349943681465 54 55 57
0.7115526216648915 2.4413107006596744 0.007580198480329425 74 74 74
0.6941023154478175 2.43445800368389 0.011865840791939336 82 82 82
0.7361126308639644 2.395359448956322 0.009391557893449004 140 140 140
0.6794769541963285 2.4096877845043045 0.018141879334088395 167 167 167
1.2913957677144563 3.262951605642813 -0.20385401806363454 173 171 172
1.2793040895565029 3.2540813921295757 -0.20029315999003022 172 170 171
1.27359149521841 3.2407493647059566 -0.1973289156233988 165 163 163
1.2648209519419167 3.229545160675102 -0.19407712340791564 127 127 127
1.254165804859565 3.2196362989669365 -0.19064586867417266 77 77 79
1.2452903316085404 3.208485521424973 -0.18738146273969558 65 66 69
1.2929551129822086 3.141405496750177 -0.18710765527811923 54 52 55
1.2870980789153936 3.1283256442910363 -0.18415109828962115 50 50 52
1.2630519852709436 3.1276118560612605 -0.17944343338530958 51 53 54
1.2465347326664642 3.121721323231074 -0.17545243255595483 50 50 52
1.2565922871206274 3.0978522614292947 -0.1740322952073569 44 44 46
1.2088859565556889 3.1129146174770996 -0.16700338511090815 40 40 42
1.3469678602031057 2.8866761513460872 -0.16173499322169305 48 48 50
1.3322235730462892 2.8797639923749476 -0.15794044834435794 53 53 55
1.2790671862578535 2.8977766534392515 -0.15028097100412036 58 58 60
1.2712062481083821 2.886250944009527 -0.14715838511256318 55 55 57
1.2405853634767265 2.8894082205228244 -0.14173376191317877 53 53 55
1.2361970683990071 2.8755913148340735 -0.13895527425729529 57 57 59
1.2192497519365706 2.8698342459645776 -0.13490058367915167 59 59 61
1.1937485388079563 2.8694951377518145 -0.12996664131454086 55 55 57
1.1848707488982388 2.8584961480739803 -0.12672307761755822 51 50 54
1.1876986021485236 2.8400670432579562 -0.12468050743181555 48 48 52
1.2199624394788442 2.8030830748865383 -0.1256762191142202 56 56 58
1.1794249468432685 2.8121121173862966 -0.11917486958132681 51 51 53
1.1959428575069002 2.7851954839512376 -0.11856524671336752 46 46 48
1.168030524910761 2.786161205821281 -0.11335228463286093 33 33 35
1.1605853854719093 2.7742840933145443 -0.1102600921528063 30 30 32
1.1513442160929266 2.763520459597708 -0.10697990530249957 30 30 32
1.13766975306311 2.755489807576251 -0.10323350048004623 36 36 38
1.1257701658895134 2.746336326207166 -0.09966972532516585 42 42 44
1.1515040271006924 2.7140477885283367 -0.10007267174893472 47 47 49
1.1259964310009751 2.7132629502616106 -0.09507499886378212 49 49 51
1.0957084973722746 2.715312780571122 -0.08955886974612526 48 47 51
1.108641099594974 2.6909991952552166 -0.08862729328633259 41 40 44
1.1064045925458303 2.675957240110411 -0.0860893219612347 40 39 41
1.0841920264514289 2.6729877680522813 -0.08141665808499751 36 35 37
1.0739863125300197 2.6627352672200866 -0.07802333037793868 34 33 35
1.0485321599614361 2.6616025366860274 -0.07298711095406787 28 28 31
1.0520824864535858 2.6430809498489216 -0.07107000737063676 25 24 28
1.049397171370067 2.628313430336128 -0.06848452397240942 31 30 34
1.046145853077877 2.613900412956689 -0.06584030049123399 36 35 39
1.0435936888763877 2.599091327610936 -0.06327450162281417 38 38 40
1.0280773669568548 2.5919272811460132 -0.05929670042089058 40 40 42
1.0163801980938443 2.5824890857702987 -0.0557317842415089 54 54 56
1.007706820446084 2.5712657415137556 -0.05249592616097665 52 52 54
0.9660367058028604 2.57923281189767 -0.04562862364541251 59 59 61
0.9290837125346563 2.5843185894424225 -0.03926112586209843 72 72 74
0.9137831570699827 2.576772864160715 -0.03527114335677725 78 78 80
0.9098338915650636 2.5626611126205163 -0.03253543183473692 80 80 82
0.9113359634182349 2.5454379127366966 -0.030407934924314567 76 76 78
0.9258421905219514 2.5208237321393145 -0.029735732563260314 56 56 58
0.8733066247504847 2.4854998890938074 -0.014715508635651853 48 49 51
0.8329003803292011 2.4918976039561733 -0.007870300901045707 48 49 51
0.8109771839536762 2.487832105893995 -0.0030993818508449067 60 60 62
0.75653629923623 2.4526612572179025 0.01226447235163669 56 57 59
0.74215491586765 2.444225366645205 0.01620316202703667 48 49 51
0.7216892880309218 2.4390828961464424 0.02084582110985908 57 57 57
0.695657780679731 2.4369142567000246 0.026137941590012564 71 71 71
0.7462490559922711 2.3931375852615755 0.022583020205439203 108 108 108
0.6989686541695918 2.402445809914088 0.030337253506248524 163 163 163
1.2979937852308554 3.2796879069258256 -0.19268955105583307 173 171 172
1.284514228744925 3.271792172176698 -0.18898684627799658 172 170 171
1.2793593961295215 3.2580500534771466 -0.18607614243730092 166 164 165
1.2742007230963823 3.244320393216419 -0.1831664339427136 126 125 126
1.269403895382412 3.2303493315926812 -0.18029292392469262 66 67 68
1.2552187499015666 3.2228836275168447 -0.17651396013052453 60 62 65
1.2453503215170705 3.2124095732594844 -0.173148922106612 56 59 63
1.2957121745489444 3.160543088338398 -0.17564050240245435 58 60 62
1.2916344068644576 3.1462199310959584 -0.17285671583942444 53 52 54
1.293920241223899 3.127568831683966 -0.17069803003608114 46 45 48
1.2913537829088972 3.1122614887100406 -0.16806878779200538 44 46 48
1.2707671487921335 3.109188445813308 -0.16366643146589405 47 47 49
1.2669946048148966 3.094696642026319 -0.16091805523830674 43 43 45
1.2169745070905722 3.0771886288984787 -0.14882174256565756 36 36 38
1.2684634069418763 3.008973554801207 -0.14925191494750314 57 56 60
1.3519377896447733 2.870587339796106 -0.14607470902139919 47 46 50
1.3166164610681879 2.8770593514501224 -0.14015858062336406 50 49 53
1.2844744418527605 2.881343227228531 -0.13455115308630347 55 55 58
1.2588089595281966 2.8813315648009494 -0.12959514395922275 56 56 58
1.2348906507188655 2.8801118819384346 -0.12480800738773837 54 54 56
1.2410706437688672 2.8595151496513576 -0.12312981925954039 51 51 53
1.227367640330998 2.851684008730406 -0.11939298527530257 49 48 52
1.2083252869497265 2.847223411714158 -0.11509530899182985 47 47 49
1.2340083812102345 2.8143280919533806 -0.11546753259956927 46 46 48
1.2407697225909595 2.7935439502275425 -0.11387544150932963 52 51 55
1.2095637305002387 2.796745224755588 -0.10829778864949871 45 45 47
1.22101652531263 2.773054039134928 -0.1072060831930043 42 42 44
1.1897917795553181 2.77614752325605 -0.1016097843594373 32 32 34
1.181737799434119 2.7646879393493378 -0.09845762028603197 21 21 23
1.1632959797306943 2.7596776854226417 -0.09419924775048985 22 22 24
1.1543317215357638 2.7487502875392837 -0.09094555243606514 29 29 31
1.1507537208345202 2.7344921706889873 -0.08826730584396136 36 36 38
1.1238369553603045 2.7181253325513937 -0.0807898653668159 43 43 45
1.1275340236092564 2.699430523337416 -0.07889750660024722 42 41 46
1.1354275201614206 2.6782310671201293 -0.07746606892398986 38 38 41
1.131562443376238 2.6642217818524285 -0.0747670928333877 35 35 37
1.1052920086444151 2.663753778994543 -0.06963069242034081 32 32 34
1.0922031681896227 2.655272747610094 -0.06592182073098823 27 27 29
1.075529124300294 2.648914832406787 -0.06181683202409949 19 18 23
1.0718689578555796 2.6347430230024496 -0.059134755549125534 17 16 22
1.0595189404595484 2.625757439742455 -0.055498170127716046 22 21 27
1.0540049439516643 2.612695981818233 -0.05261301754531003 26 26 30
1.0525050237212012 2.5972699794191976 -0.05017311548375153 28 28 30
1.0353397983952843 2.5910894018658626 -0.045998031277854734 39 39 41
1.0239277711186432 2.581491526872571 -0.0424571599239599 53 53 55
1.0058265512317124 2.5757842608621195 -0.038167373231188045 49 49 51
0.9652799799590808 2.5830985461041993 -0.03135999224469235 49 49 51
0.9513623582959132 2.5748230748167025 -0.02751979003377855 50 50 52
0.9281109491390488 2.571913621574673 -0.022625838134742865 47 47 49
0.9048629367080108 2.5689340079968166 -0.01772276168052228 45 45 47
0.8981221492112018 2.556415630240859 -0.01467649783453101 45 45 47
0.9166433017626742 2.5294589954987114 -0.014494046924126508 41 41 43
0.9112518750828544 2.4836973365847768 -0.007074194558558983 38 39 41
0.897554699523347 2.4751908204498463 -0.00324433925074169 47 48 50
0.8508711047490828 2.485165938483217 0.0043767971047085075 47 48 50
0.7429568328480509 2.4470977777907508 0.030514872308180174 54 55 57
0.7863531583353185 2.407048504929165 0.02772059327577145 56 56 56
0.7788678430091118 2.3949129895350274 0.030857207961099364 63 63 63
0.7608230002935684 2.388504225700392 0.03523389955578399 82 82 82
0.7104857572975563 2.3995009801593805 0.043417909963385126 152 152 152
1.31371635555149 3.2900101160739195 -0.1823890543227889 172 171 172
1.302069292554965 3.2808513257011924 -0.17885511107869437 173 171 172
1.2929390050002365 3.269905712442948 -0.17556299974057146 169 168 169
1.2831672453126055 3.259399702725429 -0.17220705870148809 140 139 140
1.2802714333768845 3.2440895952000903 -0.1695225639696294 68 68 69
1.2678897668096099 3.235388657724221 -0.16590920923225708 57 58 60
1.2565788195874368 3.2259223448079957 -0.16239801697857545 52 54 58
1.2452551141474157 3.2164457425147073 -0.15888291805104396 53 56 59
1.3199407046085512 3.1478129062341837 -0.16389656555336599 52 54 56
1.2987412316795748 3.145265964787288 -0.15942119108260155 51 51 53
1.3098823112300035 3.1205680764522077 -0.15816555028587506 40 41 43
1.29947537720301 3.1106205253262136 -0.15476347280682978 39 41 42
1.284713335381578 3.086589518832797 -0.14856308977419708 43 43 45
1.2567540522894571 3.088434885392327 -0.14338179552218525 37 37 39
1.274256077160465 3.0089209757069377 -0.1357677883148529 53 53 55
1.3074474684211739 2.953353162015819 -0.13452272733498274 65 63 66
1.3308489087112265 2.9046331010775193 -0.13232272956713836 78 76 80
1.3342159053710803 2.885843419112669 -0.13037397581560892 70 68 72
1.323365701470755 2.8763534105224355 -0.1269490968667322 59 56 61
1.3126940842913681 2.8667303737238075 -0.1235405136385989 51 49 53
1.2671425905302476 2.8796330280784397 -0.11647032202344887 52 52 54
1.2533078439656347 2.8719359131079227 -0.11271348987326726 56 56 58
1.2439171362190151 2.844760893835602 -0.10712198634911482 47 47 50
1.240364987494297 2.8304609442858863 -0.1044498274889039 42 42 44
1.2178879836718497 2.828195214374189 -0.09976498789062987 42 42 43
1.2223673789367222 2.8088020423517 -0.09794893249104861 44 44 47
1.2343522765532722 2.784727447793511 -0.09694374510028925 36 36 38
1.2335149037326163 2.7687948897364323 -0.0945732894872576 35 35 37
1.216917170794835 2.762758534739989 -0.0905092797107357 30 30 32
1.1985090065324462 2.7578095988589486 -0.08624388481088878 27 27 30
1.1882273578774445 2.7477580097537087 -0.08285175491523969 30 30 33
1.178895578875188 2.7371038505440692 -0.07956084530625981 32 32 35
1.1725808464774383 2.7245772961226993 -0.07659719388480643 30 30 32
1.1822806389245366 2.7022030350113115 -0.0753832414103536 34 34 36
1.179166216975755 2.687756799353172 -0.07277593387379827 38 38 40
1.1496806478318067 2.6894342164781015 -0.06727456547190569 38 38 42
1.1498135447630955 2.672988771688966 -0.06502172371908554 36 35 39
1.1410869218651423 2.6619471621596356 -0.06179480812527753 34 34 36
1.1233536904000245 2.656340333315865 -0.05756950348104689 32 32 35
1.1071523897753868 2.649764968579678 -0.053507898981451335 22 22 25
1.102128654195567 2.636444991163119 -0.05068535913367256 16 15 21
1.1033476789633712 2.6194026581942316 -0.04856102185211711 16 14 21
1.073053656846557 2.6211639003347935 -0.04291405573372706 18 16 22
1.0729192884092509 2.6049285295350684 -0.040638349209248775 21 20 26
1.0643989305236632 2.5936813719792804 -0.037423063318540145 23 22 25
1.057596802349447 2.5814159586435297 -0.03440081622734853 33 33 35
1.0368202631179488 2.577354187596476 -0.029797790669594704 43 43 44
1.016838210262151 2.5727693174165265 -0.02527678093710012 41 41 43
0.9692330884226792 2.5842248602995688 -0.017606726723901206 34 33 37
0.9571136516115781 2.5749068243465065 -0.013958860111584315 22 22 25
0.9419145357662737 2.5673490884247316 -0.00995602381331287 23 23 25
0.9171127362909168 2.5652912602217484 -0.004847909160756253 24 24 27
0.9126876661217993 2.5514589573022777 -0.002070798404540969 26 26 29
0.9307978036477305 2.5247469488734424 -0.0018912902396885922 28 28 31
0.9377038131721551 2.504527602010487 -0.0004326415547064033 31 32 35
0.9297371367301046 2.476587827233778 0.004987908208480635 33 34 36
0.9171486689867174 2.4674881298519447 0.008696729972805128 44 45 47
0.7885939792176309 2.409107782365962 0.04178479270040497 54 55 56
0.7765009838635992 2.399477941021378 0.045470721316316964 55 55 57
0.7708100399625729 2.386352713007155 0.04839602260038964 66 67 68
0.7219837260202684 2.3965609396032947 0.0564763794505424 129 129 129
0.6702292080727429 2.40817581176824 0.06493125246116785 168 167 168
1.312942785696589 3.294601471057428 -0.16808301531090727 173 171 172
1.3008890860201672 3.285718509257189 -0.1644984884154719 172 170 171
1.2900384325914298 3.275967933575571 -0.1610301328690556 162 162 162
1.284113143819925 3.262753302470842 -0.15804951449055618 103 104 104
1.2764903088297008 3.2507288709661593 -0.1549002859262771 61 63 62
1.264231134784995 3.2419254896383514 -0.15128646934857368 48 49 52
1.2564333115219477 3.2300077729125722 -0.1481176598802899 46 47 51
1.2595336412721458 3.210562919764819 -0.14604700209904187 48 49 50
1.2988015982295753 3.16627941327613 -0.14764027479293443 49 50 52
1.316429145103099 3.1370532808807954 -0.14706820909397283 52 53 55
1.3289675990870082 3.111420841102688 -0.1459941879143359 46 47 49
1.3356193106359404 3.0898895502534724 -0.14433185019278302 37 37 39
1.3245940050713076 2.9792462052156834 -0.1269342028198722 51 51 52
1.329706692470852 2.9591099312161733 -0.12516251489872604 49 49 51
1.3357964874251471 2.93838414962452 -0.12350104119102089 46 46 48
1.345789893803726 2.898546372100436 -0.11997210306227214 67 64 67
1.3408628877585436 2.8851954761133767 -0.11716826798194989 80 75 79
1.3366057816467534 2.871417875704259 -0.11443689082152092 88 83 87
1.3328411629335586 2.857333237319295 -0.11175969951737949 72 68 72
1.3128145422471393 2.853781272691759 -0.1073475786166452 51 49 52
1.274725855458267 2.861812159661581 -0.10099255210941491 50 48 51
1.2802360906371988 2.8251730354977007 -0.09702594492762451 51 51 53
1.252692604481429 2.826243632460668 -0.09177799839115702 45 45 47
1.2519107581721634 2.8102142380181143 -0.08941725695394838 42 42 44
1.2465988516128366 2.7970819282861243 -0.08656812912689725 45 45 47
1.2535832602580914 2.776197395249035 -0.08506003449977206 50 50 52
1.2426300540300164 2.766655727478658 -0.08160036133088983 46 46 48
1.2255580918849036 2.7609310612060853 -0.07746779022290819 52 52 54
1.210753724251473 2.7537460873004678 -0.07357829430901733 51 50 54
1.1946753801113488 2.7473196078739783 -0.069543704720746 50 49 54
1.182693311548723 2.738313664598209 -0.06595627221188999 41 41 45
1.1694542132025931 2.730062762104548 -0.06222659001136302 36 36 38
1.1954104272899966 2.697655783410337 -0.06284792561057544 37 37 39
1.1906233040524592 2.6842523346618647 -0.060064254017549445 38 38 40
1.1880762179352584 2.6694897035237246 -0.057532186600762494 46 46 50
1.1816381258477069 2.6571166005212103 -0.05456701341346233 52 52 54
1.172877355682924 2.6461557470392263 -0.05134135629432765 41 41 42
1.159548541681898 2.6379496862230996 -0.04760027568222813 31 31 34
1.1341100534664446 2.637012524169399 -0.04248815820817481 25 24 29
1.1198164378184945 2.6293049727056195 -0.038626741548160703 23 22 27
1.1243792880325088 2.6102868175717866 -0.03690133682197008 20 19 25
1.077777758329706 2.6218134657355643 -0.029360202005268843 21 18 25
1.0748470718567684 2.6072355927177577 -0.02677843767139712 21 18 26
1.07249643897557 2.5923325353099416 -0.024265513060814425 23 21 27
1.0697759799824431 2.577667983184552 -0.021712991845437513 29 29 32
1.047326659968802 2.5746110559937403 -0.016894474615346405 36 36 36
1.0334372028678853 2.56647865311893 -0.013053715987807524 34 33 36
1.0135349267089697 2.5618235319313394 -0.00851402435411891 26 24 30
0.9813892518893903 2.5642272025849175 -0.0025481648856820194 17 16 22
0.9855031722409803 2.5455350792133062 -0.0007797224743777698 17 17 21
0.9716780623550221 2.537236973787366 0.0030712521828811234 18 18 23
0.9952625128283757 2.5074144574419286 0.0025585770636487593 18 18 23
0.9764755022935444 2.501979681627349 0.006987178506597386 20 21 26
0.9483723937527633 2.5018093753186212 0.012515646148279658 22 22 28
0.9632216402115189 2.4771418965279537 0.013004119182836421 26 26 30
0.9313694895732527 2.4628034066974154 0.021218232825627653 39 39 41
0.8494869262932936 2.4926443538397307 0.03314816894584119 39 38 41
0.8374140081071373 2.4830876652678926 0.036829246986848446 30 29 35
0.8281553197045444 2.471940970457344 0.04017803375058454 22 21 25
0.8253218570997675 2.4572153136273887 0.04276110623811344 23 22 27
0.8045407013127707 2.452444101644315 0.0474889464868663 27 26 32
0.7855013610429438 2.414088648349197 0.05650085322083745 46 47 50
0.7719842128541619 2.405221234818619 0.060369908245464066 45 46 51
0.7739090689654701 2.3879388519291402 0.062373007021671006 59 60 64
0.732662435496289 2.3940587312446797 0.06960981828753462 99 100 101
0.6821987090667162 2.4050081303052178 0.07798700385546567 164 162 165
1.3068409336753635 3.3029686594188985 -0.1532201451633907 170 168 169
1.2996345628137749 3.290644633348711 -0.15011130411154225 163 161 162
1.2931813714940756 3.2777914697849324 -0.1470786458290969 131 130 130
1.287051344047387 3.2647156869938763 -0.14407927943564522 71 73 72
1.275825623032713 3.2552020793752043 -0.14056206376918273 57 59 60
1.2673964729399656 3.2437241931744487 -0.13732777371622665 45 46 48
1.2650596027779444 3.2280168026825 -0.13471662709271623 43 44 46
1.2897985679340929 3.1764162746610136 -0.13253477943548153 45 46 48
1.3201583410925957 3.1384066476244556 -0.13332233286098005 48 49 51
1.3437506325903066 3.105200923927468 -0.13343214157839428 49 50 52
1.3625193676833254 3.075426282734471 -0.13305985298963047 38 39 41
1.3637428104438571 3.0576908485271788 -0.13087359975719112 39 39 41
1.336078022400824 3.05955147763168 -0.12566966965059972 39 39 41
1.3128891554727287 3.0244892925175044 -0.11629484308742274 47 47 49
1.339918705663639 2.9895849058808706 -0.11685035118344445 54 54 54
1.3440578236596292 2.9700704698459037 -0.11499588533982946 53 53 54
1.3443090231545762 2.9531859111171412 -0.11273426526909561 53 53 55
1.3578630888481542 2.9275429480437896 -0.1118986064151207 34 34 36
1.3608560745638585 2.9089498825181623 -0.1099441126807811 35 35 37
1.3543672925318269 2.896625875480819 -0.10697686367341347 46 44 47
1.3527721466291576 2.8811035934698843 -0.10453740665747446 62 60 63
1.3461708538142978 2.868869038796951 -0.10156020221620787 74 72 75
1.3372445245799218 2.8581466478184376 -0.09833122574348371 89 87 90
1.3146028402382903 2.856293344614127 -0.09361004924692522 83 81 84
1.2858331835315504 2.8252318897422426 -0.08368168784130771 52 52 54
1.2768589920496642 2.814462314144303 -0.08043680883110475 49 49 51
1.2636222872188485 2.8063952977151954 -0.07672081205455263 46 46 48
1.25503167212589 2.7953559596006823 -0.0735146920466228 42 42 44
1.2635451879197006 2.77350725167248 -0.0722038319409933 51 51 53
1.2624804013499025 2.7577560214047403 -0.06983768279652575 61 61 63
1.247775891520741 2.75058527139768 -0.06595475170748649 61 61 63
1.223540463349508 2.7493365529289684 -0.061001865711153444 62 61 65
1.2197146021323801 2.735302770847584 -0.05832600828887584 61 60 66
1.1972715206336075 2.7328351297177598 -0.05355992712835825 59 58 62
1.1668871575914892 2.7352096750852044 -0.04788973581303449 59 59 61
1.186846292725699 2.706465791584102 -0.04789342008612697 56 55 59
1.1846102218563552 2.6914661782970914 -0.04539904410653611 54 53 58
1.1926219936734073 2.670219227655989 -0.04407155299066255 59 58 63
1.178962567149696 2.64595039643606 -0.03805441795085544 62 62 65
1.14971730554204 2.6473821475658412 -0.03247993473698832 55 55 57
1.1280200165238865 2.644166168228357 -0.027758574246065232 47 47 50
1.1127752926497254 2.6206925881164143 -0.021537495017427133 32 32 36
1.0821045139879817 2.62269999852817 -0.0157605362331871 31 29 34
1.0792105845249051 2.60809759633427 -0.013190727231387395 29 27 33
1.0836218158010906 2.589187629657935 -0.011472693528616157 30 28 33
1.0755976979986102 2.577664123595549 -0.008312077000172863 29 28 31
1.0573201323092691 2.57216419774555 -0.003952841401117124 33 33 35
1.0622363695476957 2.5530315043373513 -0.002303964638157907 31 30 33
1.031654192951462 2.5546661721702013 0.003506533417258928 25 22 28
0.9917518408326156 2.561619678132731 0.01042797019254249 17 16 21
0.9828043589189899 2.5505011342742128 0.013715346387896121 17 16 20
0.9495663183146781 2.553394970118254 0.019877523429247645 17 16 20
0.9346405970063891 2.5456474526217727 0.02388305120839454 16 15 20
0.9755767800717666 2.5058617753226056 0.02125174560571433 18 17 22
0.9809901409057211 2.470383646489083 0.02503992242886982 21 20 25
0.966163449134628 2.4626413188344185 0.02902520002207698 27 26 30
0.9556354876016082 2.452439963639014 0.03249887880219171 34 34 36
0.9176243682074187 2.457680875796795 0.03928157374296454 29 29 31
0.8663494387602467 2.4702241485730623 0.04768182917814495 24 23 29
0.8581996492794666 2.4585098964740917 0.05089335195077735 20 20 24
0.8481362278756464 2.447855919336902 0.054337326634356836 23 22 25
0.8262136492257364 2.44376048661639 0.05922352060786934 26 25 29
0.7939952310243614 2.445286733623852 0.06537171083876955 28 27 32
0.7907885967975115 2.4144855176377717 0.07022053957744886 37 38 42
0.7834509486430729 2.4022493966785694 0.07334325072574113 40 41 46
0.7922370473134498 2.381246733020103 0.07448451887961602 55 56 60
0.74933020735732 2.3883078638559523 0.08198404760880817 74 74 75
0.6989322954064249 2.3992640348381324 0.09042850128126162 159 157 160
1.3386430655325914 3.319303402043556 -0.14693032221803182 171 169 170
1.3148938605342795 3.318761603375805 -0.14213668697037965 166 164 165
1.2846186350404687 3.322761893123383 -0.13666397833373728 143 141 142
1.3045699925817957 3.2912093182171436 -0.1363366713466367 103 101 102
1.2947012485477867 3.280758286960713 -0.13295358190439052 68 67 67
1.2874198808520276 3.268481235164644 -0.12983629489313983 62 63 63
1.2793969761814366 3.2567220189578348 -0.12664208143092984 52 54 56
1.3061044343807295 3.1863097085513257 -0.12237096111721857 37 38 42
1.3077759471529085 3.167973647157692 -0.12020869906599041 42 43 45
1.3344307391768686 3.1325196031665654 -0.1206828754132715 48 49 51
1.3627532051004412 3.096081972597192 -0.121354677794619 52 53 55
1.376094336305437 3.0700294789994036 -0.12046188878628694 45 45 47
1.3956450370190154 3.03985052472117 -0.12024182403146517 34 34 36
1.3794589274853526 3.034008001044117 -0.11623016513453185 37 37 39
1.3355103578414151 3.0468689133733458 -0.10924541905170218 37 37 39
1.3512089198435309 3.0026090138461274 -0.10634419010759921 48 48 49
1.3617597932562404 2.978776960667473 -0.10519893525437021 56 56 56
1.3780273732507922 2.9512186411418933 -0.10468289574814207 54 54 54
1.3859266509778554 2.9293214448205966 -0.10327388170051034 69 69 71
1.3837582744426231 2.914151588386209 -0.1007792124539784 45 45 47
1.3805432749543871 2.8996938266152683 -0.0981734110560424 29 29 31
1.3718926192589032 2.8888238887999167 -0.09497541653123512 29 27 30
1.3652994505488047 2.8765997738135933 -0.09200210410010767 34 32 35
1.355164642204533 2.866687871156744 -0.0886394805969904 50 48 51
1.3417942062138979 2.8588651735103108 -0.084918024812977 69 67 70
1.3352945551892699 2.846563044655629 -0.08195268503309008 85 83 86
1.325217336839036 2.836572735353841 -0.0785908404609066 82 81 84
1.275226732013318 2.802637578645762 -0.06403910531240002 47 47 49
1.268929404200904 2.790159911631777 -0.06109009492708564 45 45 47
1.247894212005952 2.7870009369090907 -0.05647980017770764 45 45 47
1.261611756600947 2.7618911250196643 -0.055790063271093815 51 51 53
1.2601355750467442 2.746409556927338 -0.05339055556550998 57 57 59
1.2404370075660403 2.742348924120094 -0.048923239625669676 59 58 62
1.2390879683791374 2.7267971930026254 -0.04653945519453945 58 57 62
1.2204108245629037 2.722030928121311 -0.04217914246572653 58 57 61
1.2012560950067939 2.71750888279034 -0.03775713803337484 57 57 59
1.1670283597095148 2.722227004235584 -0.03159656038043335 57 56 61
1.1609950124758468 2.7095041973374667 -0.028666664503831568 56 55 61
1.091027097480091 2.6208434894801664 -0.0026997010500963703 47 45 49
1.0836100199405294 2.6089385254200455 0.0003939377482198303 43 41 45
1.0885977353954526 2.5896810707697426 0.002022483516840007 43 41 44
1.080927113562045 2.5779499071317202 0.005142867815714103 43 43 45
1.0693784999422786 2.568497750531937 0.008723927260388814 41 40 44
1.0779235084932042 2.547248414826084 0.00991647273836882 34 33 35
1.0838713261042012 2.527582910831273 0.011409718858238299 28 26 30
1.071860128644709 2.5184232007199574 0.015042927672442766 21 20 24
1.0116034890465433 2.5209704519515594 0.02667182990271247 17 15 18
0.9999807266842987 2.5114472856941195 0.03027728594091736 17 15 18
0.9422503683289157 2.4471523120215446 0.050497408500557256 28 28 31
0.9124854324242901 2.4476949159826003 0.05633908957054487 25 24 30
0.9121497596528494 2.4317024425600087 0.058581436177329194 20 19 23
0.8424854402326706 2.4543234335047077 0.06934917008680824 20 20 21
0.8274173486441756 2.43014450994946 0.07563313890855103 25 24 28
0.8141432000850221 2.421211891240599 0.07948645344557073 29 28 33
0.8189639064100915 2.402333994490429 0.08109655518638814 33 34 38
0.802830320062264 2.3787517215094907 0.08751111190059768 52 53 56
0.7638533045427407 2.38370961582404 0.09458294478631993 63 63 65
0.7245596961569996 2.3887076696264926 0.10171223414534619 149 147 150
0.6776370518023506 2.397677779956985 0.10981735852077604 169 167 170
1.3468364005988769 3.334979893686472 -0.13587668541237846 171 169 173
1.3222749740208304 3.3350570623738194 -0.1309706729992066 163 163 164
1.2983921853619704 3.334569009465673 -0.12612408512237527 126 125 125
1.2702243594841036 3.3370380929550443 -0.12081956902585397 76 75 76
1.3068028606992745 3.2936824272378282 -0.12227977614941712 66 66 68
1.3276573673116057 3.2616022505305633 -0.1221169678356275 61 61 63
1.3271323840975802 3.244652481681185 -0.11972027237823352 55 55 56
1.3218674095664453 3.23104815331439 -0.1168270795581206 49 50 52
1.3119480372128716 3.2206959948085707 -0.11344191237805115 46 47 49
1.3345472447912323 3.1534515062344073 -0.10887412244706385 39 40 42
1.3585384885654133 3.1198617678473415 -0.10913510003744095 51 51 53
1.380326102912104 3.0879271349398993 -0.10917874885546155 58 58 60
1.3925507394102197 3.0626560444933326 -0.10820909367949968 56 55 57
1.4105369191271828 3.033554862392008 -0.10787489440986622 33 33 35
1.4004370858296842 3.0236140650685837 -0.10450922053342704 33 33 35
1.3519881676469632 3.0395732304708782 -0.09696891067009383 35 35 37
1.3760023935367232 2.9897714134176003 -0.09504261444796833 47 47 49
1.3709290294381593 2.976426301187839 -0.0922228222092837 54 54 54
1.3928961256343153 2.9450674636231495 -0.09238024536767658 51 51 51
1.3932717525519336 2.9281834044199564 -0.09017270843402678 71 69 70
1.39582263660851 2.909893443305059 -0.08821051334839973 69 67 68
1.3909948120936666 2.896514623396683 -0.08543531333648124 36 34 35
1.3856985117326464 2.8834537789540597 -0.08260932910748167 27 25 27
1.3748432174932868 2.874042407406301 -0.07916401348033324 25 24 27
1.3663825481024823 2.86305035548893 -0.0759843203411867 27 26 30
1.3570724967832062 2.8526043412554283 -0.07270843127641828 38 38 42
1.3518030632491316 2.8395285220634188 -0.06988580037648835 66 65 67
1.35083637414558 2.82368098012631 -0.06754971007617198 84 82 85
1.2910464765132177 2.7797372570249657 -0.04964040878067269 47 46 49
1.2802844661810604 2.753714202910137 -0.043967865133005046 46 45 50
1.2849635999559146 2.7343950056970665 -0.04229252769234332 56 55 60
1.2707386951103543 2.7269594824354044 -0.03843985400775503 67 67 72
1.246738665904733 2.7255884170577143 -0.03345041481751462 65 66 70
1.2229283434270064 2.7240243867735874 -0.028472860237754832 63 63 67
1.210189922506915 2.715530170070978 -0.02477459970007323 61 62 66
1.2089804451408348 2.699897178933712 -0.02241891790543786 59 60 65
1.0933167214736352 2.6229455209523698 0.011137287742090995 47 45 50
0.7703168107267979 2.3834751679592823 0.10816838872954349 54 54 55
0.6673411042701051 2.4229028918315985 0.12345034151865641 131 129 130
0.6987701088020976 2.389582820933871 0.12166409287733912 167 165 166
1.376324833459404 3.3528318360187956 -0.12939300550279823 173 171 172
1.353106854486116 3.352060840602299 -0.12460868312578482 172 170 173
1.329785761707711 3.3512869789037745 -0.11980318794933723 166 165 168
1.3063621275773567 3.3505093299372395 -0.11497651163765377 126 126 127
1.2812646273718697 3.3508454471611397 -0.10996202845627956 67 67 66
1.3108627607265415 3.29486703311428 -0.10840783510220797 59 59 61
1.3496527780382985 3.2501359074014573 -0.11021788692102621 58 58 60
1.3497532759463304 3.232784236212319 -0.10790680698940172 51 51 53
1.3327490292189785 3.227434700825796 -0.10376000523991721 47 48 50
1.320243946155208 3.2189015409818698 -0.1000924863757382 47 48 50
1.3236301525587053 3.16492009633935 -0.0935222911743584 40 41 43
1.3674058504566926 3.117667128686753 -0.09599862338731907 59 59 61
1.389141599515852 3.0857623532972496 -0.09609386942601608 64 63 66
1.4062980919537496 3.0571209953038387 -0.09570440671977232 65 64 66
1.4208365685553677 3.030375243457362 -0.09504184368321648 45 45 47
1.416160041244118 3.016769001362989 -0.09227094720828208 29 29 31
1.3708193946754585 3.0306735998518866 -0.08499849345614022 33 33 35
1.3549141400682165 3.0245629102471163 -0.08097098060795566 34 34 36
1.4005512214052533 2.977077107211561 -0.08379128342190624 44 44 46
1.3720937212046145 2.9794286726746106 -0.07837021805469409 52 52 52
1.4077534021951115 2.9389133391505013 -0.08011562214081099 51 50 51
1.4189388331620587 2.914863253607991 -0.07913927182603511 63 61 62
1.4064044372995688 2.9066097639857214 -0.07550341951941227 87 85 86
1.4014284871680083 2.8933412413022523 -0.07271753494651576 60 58 59
1.391843911074423 2.883113934040566 -0.06941116611500316 30 28 30
1.3815289509453001 2.8733537502882167 -0.06602031413207209 22 21 23
1.377580002574863 2.859419524874832 -0.06335202993602798 22 22 25
1.3683156259507843 2.848959853807388 -0.060078993159652774 23 24 28
1.3686231600835312 2.8322799055909416 -0.05789990315218607 31 31 35
1.3605606578600937 2.8210445118092164 -0.05476493889495328 60 60 62
1.3505663615733392 2.811048966158631 -0.05140710976601956 75 73 75
1.2688902723807582 2.764490154387159 -0.028685690938344444 45 45 48
1.2890449516345093 2.7354018834270657 -0.028840614726409586 47 47 49
1.2993363214260891 2.71261257748912 -0.027853418279756556 65 64 67
1.1992388673165635 2.709453317797311 -0.0072493497099133525 68 69 70
1.0942229247907371 2.5283190411738445 0.03825869630204991 52 51 56
1.0978995274162904 2.5100234301431668 0.03997566144716601 54 54 57
1.0519689904443539 2.4882427511136633 0.05216164841477447 34 34 36
1.0271926121715178 2.4863485410733412 0.05741105645634856 29 29 31
0.8746207096101075 2.4268481547386687 0.09616384265379554 18 18 20
0.8050838842807924 2.36787436549443 0.11810604675370684 59 58 59
0.780398172378293 2.3650643589136204 0.12346022132596637 93 91 92
0.7121472696926995 2.3856528199600446 0.13445333897625122 156 154 155
0.6869083512718088 2.382906553838593 0.13991047564499853 169 167 168
0.6585878573401104 2.381734177823767 0.1457773912449143 171 171 171
1.346314921499543 3.3610568361182382 -0.10958584143828332 171 169 172
1.318437637241077 3.363530534021255 -0.1042561715893138 150 150 150
1.2907860491181782 3.3657441369494694 -0.09893759823674622 75 75 74
1.334049991889881 3.299925070588335 -0.0989336303656374 48 47 52
1.3190304238587713 3.2931468792596594 -0.09497920019926898 50 50 52
1.3674172392708641 3.2416331651469825 -0.09792532288680703 56 56 58
1.3716526555627429 3.2214032725964787 -0.09608423390791654 53 53 55
1.331964606735135 3.231983248053165 -0.08943893062923758 49 49 51
1.3275646982700977 3.21778372907366 -0.08664975447507775 45 46 48
1.3472099003803315 3.1868742486126895 -0.08651143368292491 40 41 43
1.3442661597989518 3.154608964693713 -0.08160584059729076 43 43 45
1.3668419566472356 3.121960920688804 -0.08183039522359384 66 65 68
1.407317837505949 3.0771706799533347 -0.08406804399082865 75 72 75
1.42017435200774 3.0514881233681264 -0.08324928707276065 78 75 78
1.4289414723441165 3.0286852145285916 -0.0819847354515126 62 62 64
1.4343011387072435 3.0082700303653382 -0.08034716452295179 30 30 32
1.39635828664817 3.0172193509071485 -0.07383847185956843 34 34 36
1.424867325727126 2.981205230043207 -0.07481823320430986 33 33 35
1.4286675504671433 2.961964048770666 -0.07302079544677154 38 38 40
1.3946549111482085 2.9681020901766764 -0.06693470703892587 47 47 47
1.422569606418925 2.9327760224829436 -0.06788566420645721 48 47 48
1.4411868833061177 2.903795878087561 -0.06779623965077909 53 51 52
1.416490590025564 2.9036485418189057 -0.06276245965652169 89 87 88
1.411638968194316 2.890309353087075 -0.05999643939895767 81 79 80
1.4030803753457997 2.8794206512107494 -0.05680496838621098 51 49 51
1.3919018971348294 2.870243799018891 -0.05331013880883373 27 26 29
1.3915872220078758 2.853944926406887 -0.051070094123065 19 19 22
1.379038196105771 2.84564785139422 -0.04741446524175452 19 20 24
1.3776502493042755 2.830078907876854 -0.04505397036374288 22 23 27
1.3761585911253276 2.8146025380953716 -0.04268477893167265 30 30 34
1.3647925417138747 2.8055177472568857 -0.0391641582618039 57 57 59
1.309790336800487 2.7259264343262424 -0.017370323794955497 43 43 43
1.3236670573806084 2.700917137826718 -0.01684859095194252 54 53 55
1.3208892921524726 2.6864034303774407 -0.014346810739426105 76 75 77
1.2777624507719554 2.6970220474626583 -0.007008485908836834 80 79 81
1.2586440753630792 2.6925908055166805 -0.0025352262542314152 79 79 81
1.2243910160189229 2.6974592327327724 0.0037691882952513023 77 79 78
1.0525375153538177 2.491278300592428 0.06618914124161585 46 45 49
1.0032284634590418 2.4710951087845356 0.07889517137010896 50 48 51
1.0014846416562455 2.455937968267858 0.08127293765587118 55 53 58
0.8179308599431527 2.3480109831917777 0.13294996020221767 77 75 76
0.7333520977721306 2.3774954093502356 0.1461854194966284 116 114 115
0.709193842063245 2.3742098470347885 0.15152896384444003 160 158 159
0.6835828453141174 2.3716322523040057 0.15707293456208735 168 168 168
1.3370413187808774 3.3718523105671285 -0.09424720779217455 166 164 167
1.3072703062252362 3.3756625206325075 -0.08866563782928233 122 121 122
1.282618744873862 3.3757041344869436 -0.083630818760184 64 64 63
1.3295926990722324 3.307155802561805 -0.08414079053328308 43 42 48
1.3278154577603662 3.290985929778009 -0.08163211235597276 45 46 47
1.3597426678033537 3.251063399693588 -0.082863433680225 52 52 54
1.364425480494077 3.2304832003182784 -0.08109047051926804 54 55 56
1.36929495829803 3.2098284920571283 -0.07934578824665492 51 52 53
1.3715933297807756 3.1910264504619796 -0.07732120696524392 37 38 40
1.386634544025684 3.16339963834771 -0.07673126521909573 38 39 41
1.3801693116351719 3.116689522037825 -0.06921221422742546 55 52 55
1.4150562634321482 3.0757315843643416 -0.07091132405989843 73 68 72
1.4296986644754313 3.048823474913145 -0.07033519172460126 80 77 80
1.4357879729075456 3.0278497040179975 -0.06879758923366322 71 70 73
1.442596639277064 3.0064482711301737 -0.06735033006746106 40 40 43
1.4107570020901372 3.011288560221765 -0.061482465408214754 33 33 35
1.435316448155146 2.9779443200405487 -0.06208010744269066 32 32 34
1.4478205068139214 2.9528559633343927 -0.06130819367765747 33 33 35
1.417758519067098 2.956393204438597 -0.05563091448536596 41 41 41
1.4348205682219013 2.928341886706209 -0.055397839131102466 43 43 44
1.4385808336170451 2.9092574135913214 -0.053634690635841295 46 45 46
1.45381523283289 2.8826096072495093 -0.05321413527791222 70 68 69
1.421851128624866 2.887270608581152 -0.047297035122152095 87 86 87
1.4116355343913065 2.877487298016098 -0.04391034449294741 72 70 73
1.4011590104020415 2.8513630492871296 -0.038302310109352866 22 23 26
1.3915894595036469 2.8411372569862015 -0.03498900648544252 21 22 26
1.389387186968312 2.8261126303180677 -0.03254536768327028 23 24 29
1.3852243744844288 2.8123792697530905 -0.029872185881455654 18 19 23
1.3796336498852886 2.7995801279694614 -0.027030993572886144 30 30 33
1.3743421265308913 2.786594954236274 -0.024226295619598395 58 57 59
1.3620461800765042 2.778105584764769 -0.020585919673428515 72 70 73
1.3292623508844161 2.749892738527451 -0.01013976014003068 37 37 37
1.3179240196516264 2.7407126274439007 -0.006603538962043562 40 40 40
1.3237129011603 2.7207306487498446 -0.005136093739991729 41 41 41
1.3467188670029886 2.6900048851617613 -0.005763505897541599 49 48 50
1.344871944559737 2.674948263687745 -0.0033882783240259673 70 69 72
1.3126142460139256 2.678856978936646 0.0026886587834565323 85 83 86
1.2802854390105263 2.6826978652554 0.008789133996307943 88 86 89
1.2602681224841605 2.6788125425173055 0.013397416493895128 82 82 86
1.0722699124093689 2.499390120087561 0.07564057685420456 48 48 53
1.0437496561494917 2.467417114444259 0.08571386187500438 46 44 48
0.8358671147459313 2.325452013655901 0.1470530819701881 89 86 87
0.7084509982938477 2.3615816847712674 0.16831159024460668 155 155 155
1.3503538160519555 3.383959708518198 -0.0836745985626744 167 165 167
1.3233507973206993 3.385845680964989 -0.07836338191172959 148 146 148
1.2891880517132543 3.3927774625478553 -0.07224318044934605 81 81 83
1.3278416387349783 3.312473146824705 -0.06961543700699896 44 43 48
1.3217486320920964 3.299342149428198 -0.06662986441923532 44 45 46
1.352022898183008 3.2605392599342533 -0.0677479170361169 48 50 49
1.3727628559088443 3.228623803657322 -0.06781084419557928 52 54 52
1.3993578556044883 3.1927347161658313 -0.06855546907961063 51 52 52
1.4020994126287913 3.1736777165267944 -0.06660769065105365 40 41 43
1.426938681623148 3.1392746009217256 -0.06718670931757673 36 37 39
1.387952421643272 3.1152317100838 -0.0559900139024479 52 49 52
1.399620527224762 3.0902139744405153 -0.055094390147935324 60 55 59
1.432500947149221 3.050757131088905 -0.05666283233261825 73 69 71
1.4455881899083336 3.0249959227079963 -0.055961393781743654 75 73 77
1.456608397642162 3.0007345762274777 -0.0550320834743796 55 53 59
1.4220288658710174 3.0074670106655867 -0.048799787325604124 29 29 31
1.444268707175139 2.9756884621752286 -0.04918958443474475 30 30 32
1.4622088287992956 2.946940257145665 -0.04909356780797719 31 31 33
1.4330409928381818 2.9499122397545134 -0.04347978885313021 35 35 37
1.4457860741448105 2.9247592584324167 -0.04278808197139747 39 39 41
1.4388177091245697 2.9128322082152147 -0.03978099031143588 38 38 38
1.453515814633557 2.8865189704411667 -0.03933845039381184 44 44 44
1.4632722584138027 2.8635751931425886 -0.03832262808040009 81 81 81
1.4244181469025714 2.872762287983692 -0.03153380296370703 78 77 78
1.4164634586554103 2.861498927073392 -0.028411123477288552 68 67 69
1.415207018477849 2.845844908551792 -0.026088779366137335 46 46 50
1.4102026654665567 2.8326628020522326 -0.023320619701580364 19 20 24
1.4032226155856184 2.820774525383389 -0.02031623362459195 18 18 24
1.396987954478637 2.808403274554638 -0.017401651101252497 21 21 25
1.3896255499346246 2.796763712493661 -0.014351327019794843 24 24 26
1.3841863567121688 2.7838848799326676 -0.011533615209911252 33 32 35
1.371737186324101 2.775508210926006 -0.00786608359430399 49 47 50
1.35723853271691 2.7520591955104794 -0.0017896036506088592 62 60 63
1.358648703848826 2.7348384066572695 0.00019023816292156048 40 40 40
1.3499604317212752 2.724040252449865 0.003402632868675648 37 37 37
1.3367402607203946 2.7160898093257613 0.007172722483757776 39 39 39
1.3602360847959205 2.6850606900527545 0.006425526058593534 45 45 47
1.3645329121274201 2.666177958434695 0.008030105427721992 66 66 68
1.3190444128849075 2.662155876125708 0.0179262782217839 93 91 94
1.2905766488510417 2.6635826316882345 0.02359961950113426 90 88 91
0.7306461601311851 2.352947003226032 0.17983830012944593 112 111 109
0.7060270714920661 2.3498566495805813 0.18531469455180133 152 151 150
1.376701376207131 3.43947267350855 -0.08149520020053971 171 171 169
1.3437352472351412 3.4281949899683295 -0.07318307253600473 171 170 168
1.36223541285831 3.3970980864752005 -0.07294555421276666 166 164 164
1.3350743878254268 3.3991567625800605 -0.0675838587854729 133 131 133
1.3058746680835212 3.4025893185905853 -0.061979432931750955 76 74 77
1.317502354329978 3.306419644988367 -0.05179354375868189 38 39 42
1.3652494911238588 3.2552279764270726 -0.054987766656593634 42 43 45
1.390807159472922 3.219924490138085 -0.055662499610256044 50 52 52
1.4073060191738171 3.191134527206047 -0.05531221868847311 53 55 55
1.408073242969791 3.105256791526971 -0.04422268673424959 55 53 56
1.4035355584309421 3.0914101325098824 -0.04146819005138172 52 51 54
1.4462468458310824 3.0451922928759174 -0.04426981194606154 68 66 69
1.4516207884091137 3.024710068226307 -0.042701160098551585 75 73 77
1.4654762631248532 2.998512399597441 -0.04214236981004843 68 67 71
1.485550388106478 2.9681934265821264 -0.04233307996356048 35 35 38
1.4846538995523457 2.9355861628038427 -0.03787618217704235 31 31 33
1.4530533873060572 2.9402443576354207 -0.031934534249385124 31 31 33
1.456186236746829 2.9215482937268153 -0.03013519046782233 35 35 37
1.4632358899280367 2.9002872247997544 -0.02881195093204214 35 35 36
1.4520076947239433 2.8912365854092212 -0.025298498903282243 37 37 38
1.4631742107110293 2.8673364026518855 -0.024483135191579894 55 55 56
1.4739945384773063 2.843747887852966 -0.02363681908254836 84 83 83
1.4795999639996844 2.8236702585815117 -0.022169156536745394 70 69 70
1.432079835712444 2.838465913649447 -0.014254707445211345 69 68 71
1.4232450674469421 2.827812292521908 -0.011027524520913212 40 39 43
1.4153922390221276 2.816511203827745 -0.007919121283875397 18 17 23
1.4090597244772864 2.804220204695908 -0.00499626537764368 20 19 24
1.4024270032612873 2.7921261773310784 -0.002036967163333181 21 21 23
1.3989335788163968 2.7780120182151475 0.000536059225002522 22 22 24
1.383289778578587 2.7717111076803134 0.00460483710404283 35 34 37
1.3872822559598965 2.7528138348158353 0.006252307666144652 55 54 56
1.3818325553231616 2.7399829539399754 0.00906284384802021 65 65 67
1.3868358137523644 2.720521235826132 0.010574680430401481 51 51 52
1.3779750667771045 2.7098858611650067 0.013804859578229633 39 39 40
1.369772064369026 2.698827288985702 0.016954099315348484 39 39 40
1.3749198753496399 2.6793748543330156 0.018434749548104964 41 41 43
1.3824487766777873 2.658485620753612 0.0196099211711582 62 62 64
1.3435763471278133 2.650425129309211 0.028725213367819316 94 92 95
