ply
format ascii 1.0
element vertex 732
property float x
property float y
property float z
property uchar diffuse_red
property uchar diffuse_green
property uchar diffuse_blue
end_header
0.5004783360125242 3.460662560071023 1.3392027446555765 19 20 22
0.51540321051263 3.4744668576765556 1.3382886330704975 18 19 21
0.53985947319268 3.489269167302784 1.337594152937949 13 14 16
0.5271813529684252 3.587033565169778 1.327118649529372 13 14 16
0.48614946400581094 3.5947155537555417 1.3249421755239474 14 15 17
0.48138715298217966 3.606469724424918 1.3235732538208316 15 16 18
0.5244884848687723 3.6238366227549017 1.3232454870439982 19 20 22
0.7292977219069109 3.7241092188814795 1.3198640515247997 40 39 43
1.1145415507083014 2.571445085261807 1.4648917626489284 149 149 149
1.0653413030393524 2.585729437080142 1.4616787863461491 99 99 99
1.022339368066746 2.599752400096842 1.4587124510632556 84 84 84
0.9926268782767129 2.6134424941585155 1.4562515299877679 70 69 73
1.0249808524978945 2.666036156981357 1.4519917137123002 20 20 22
0.8860925887693393 2.7192567082617156 1.4415958512519533 24 22 26
0.9620348675767724 2.732314135269105 1.4429460883890814 36 34 40
0.9745027290462613 2.7454928537032455 1.4420332947249763 52 49 57
0.9427018372838509 2.7585509632317984 1.439563298917502 60 58 64
0.9547242440306613 2.771734444421819 1.4386342214824726 67 66 71
0.9552887414010066 2.7848772373805084 1.4373030731982508 71 70 75
0.9409938011716721 2.797894122240218 1.4354580099673417 67 67 70
0.9543106106325054 2.8111438607083308 1.434568015454138 60 60 61
0.9686238541329316 2.8244478719547828 1.433707771110841 46 45 49
0.960018862418466 2.8374897926516653 1.4320618779550789 35 35 36
0.9704564133793337 2.8507894771664053 1.431064661120231 28 28 29
1.0103190835694515 2.8910578174525536 1.42833819664955 31 31 33
0.7031651166231997 3.050187557945618 1.4010881304130316 14 14 16
0.7037937403675293 3.0629201291598553 1.3998014292261824 15 15 17
0.6015582917682923 3.0710794765646408 1.3953377161865765 16 16 18
0.5890723854022376 3.0830416710468147 1.3936652233310283 16 16 18
0.64919880532002 3.098428168222186 1.3942152469880467 15 15 17
0.6178950907542239 3.1094964452514255 1.3919674467050152 18 17 20
0.5893367514808158 3.1206015782139676 1.3898131979556687 34 33 38
0.5810263763639862 3.132678161063566 1.388276993690783 46 45 50
0.5846791647555045 3.1453757750981906 1.3871011116946346 50 49 54
0.5909824573401548 3.1582324723794795 1.3860028517141472 51 50 55
0.869081416806043 3.3293174763398583 1.3782745492973696 38 37 42
0.9624827081600495 3.362579315432778 1.3781666737296685 36 36 39
0.9408147524550117 3.3870127698097323 1.3748864950330995 15 16 18
0.5196755257486954 3.4391415965703516 1.3545953238887523 12 13 15
0.5171857419848244 3.451280157757306 1.353259123871448 13 14 16
0.5100934497446159 3.4629648735045597 1.3518063946351115 17 18 20
0.526680948821385 3.476952417211711 1.350956515228478 14 15 17
0.5349908781060667 3.5893084522506427 1.3397002343631843 13 14 16
0.5064790773077633 3.5984311730324148 1.33775144034804 13 14 16
0.4664445794673159 3.6061216212852827 1.335541342129733 14 15 17
0.9525051931722455 4.014999640848667 1.3107399249432796 67 66 70
1.1036640325767872 2.5596205257034943 1.479257233533249 144 142 143
1.0530165204764217 2.573989771075452 1.4758999184273274 101 101 102
0.9985682169867118 2.667603294736567 1.4642516045121496 20 20 22
0.9715654428070798 2.6809864597342234 1.461873144649977 21 21 23
0.9382173933187795 2.7205463896424713 1.4565670412154945 30 28 34
0.9840292739278506 2.73368786820388 1.4569155423533544 43 41 47
0.9971490538975215 2.746907701651964 1.456042802395284 58 56 62
0.9538480272417985 2.759955460252868 1.4530940201668663 66 64 70
0.9552368500224911 2.7731031086718416 1.4517933759485953 71 70 75
0.956037049451888 2.7862501135045648 1.450470954490474 70 69 74
0.9683220702844078 2.825818964701516 1.446857347126054 40 39 44
0.9806144216845394 2.8391448218373343 1.445942997723412 32 32 34
0.9823089023393377 2.852348342019503 1.4446479500850935 29 29 30
1.024215167962452 2.879481789691941 1.4434124988868355 25 25 27
1.0043458224214963 2.8923274381317254 1.4413540373329996 33 33 35
0.9921832866529086 2.9052749342888475 1.4395710958558479 35 35 37
0.6326252779453768 3.0989883483260567 1.4063054896652256 15 15 17
0.6011286803642444 3.1100160732473308 1.4040025144335058 28 28 31
0.5842806940913066 3.1216896186807905 1.402176719618341 44 43 48
0.5833195322467402 3.1341460954315483 1.4008599532116282 48 47 52
0.5821027482820659 3.1465845421614653 1.3995355551489441 51 50 55
0.5995359709045393 3.160063712183308 1.3987962125259634 51 50 55
0.8445498852999258 3.3417984652959434 1.38919783445613 38 37 42
0.9717289915579224 3.3647484106038004 1.3915570592847388 33 33 36
0.946364514035481 3.3889076240134153 1.3881311224982644 14 15 17
0.5129466393548838 3.4398859799177366 1.3668043488162565 11 12 14
0.4977644126552786 3.4508064588900336 1.3651178190999735 11 12 14
0.49113943746122046 3.462505018899112 1.3636688209352774 12 13 15
0.5309415956055008 3.47875161110094 1.3634749567827709 12 13 15
0.538195635279374 3.5910657748394326 1.3521930914403124 13 14 16
0.5197669618650343 3.6013467548482945 1.3504518580809906 13 14 16
0.5171999528057019 3.6134122971452776 1.3491157057569398 14 15 17
1.0134359318504809 3.9474266602082864 1.3331786725279011 52 52 57
1.094384632623848 2.5477884424122075 1.493653936267098 150 148 149
0.9642932548697527 2.7218787001846536 1.4706998432321083 40 37 44
1.0088088799011348 2.735071322259512 1.471068069744227 51 49 54
0.9196777466624821 2.74809768817258 1.4662728604636341 63 61 66
0.9493377780487147 2.761302056424637 1.466064031992881 70 68 73
0.9515648821689828 2.7744488688128004 1.4647977442999742 72 71 76
1.0006219789400004 2.8275860828285864 1.4612322909891018 36 34 43
0.9951369114961783 2.840723588561348 1.4596680143800291 29 28 35
1.0137499823382765 2.854213477081787 1.4590015973460262 26 25 29
1.0318606425125432 2.867754629858147 1.4583104310476507 25 25 27
1.0082494273072529 2.8805746066581643 1.4560762008108505 29 29 31
0.985353989800043 2.893330893785163 1.4538762689672702 32 32 34
0.981626967625838 2.9064320258732894 1.4523838816816494 31 31 33
1.0125814795086212 2.920337849134501 1.4521530615073057 26 26 28
0.647315303371415 3.088431736529191 1.420699841853838 14 14 16
0.6137919743050165 3.0994344035782393 1.4182683638330584 21 21 23
0.5841752717069293 3.110520863152591 1.4159796970974108 40 40 43
0.5810765243564325 3.1228713158655705 1.4145888976377987 48 47 52
0.5793504239905153 3.135283398950091 1.4132449651360026 51 50 55
0.5943500010775682 3.148602302704063 1.4124560703225375 51 50 55
0.5074142169387083 3.440740435808924 1.3790293964102118 11 12 14
0.4793979659423042 3.4504266806836252 1.3769468297175604 11 12 14
0.48720709884729785 3.4634957299017803 1.3759049185714312 11 12 14
0.5196406183756374 3.479017895227037 1.375565130866242 11 12 14
0.553216776858118 3.594163168111171 1.3650198587273619 14 15 17
0.5370790178102355 3.604729964021142 1.3633071413320201 14 15 17
0.5403990695136104 3.617510750164299 1.362120878304827 14 15 17
1.0439202988357557 3.9799304347189506 1.3443510987721512 43 42 47
1.1130087872554004 2.535318362786068 1.5092178666016953 165 165 167
0.9833400303679056 2.7232256434675013 1.4846366710468386 48 46 51
0.9119875338114403 2.7494358950643654 1.4790551268261045 65 63 68
0.9421100037915077 2.762636237513268 1.4789139387503267 71 69 74
1.0034725324333327 2.82900204556167 1.4745633172379733 34 31 38
1.0226009963958362 2.8424881591358067 1.473948371825541 27 25 31
1.0565689371808735 2.8562670159464765 1.4739030623354559 24 23 29
1.030984806726551 2.8691306424134315 1.4715450393024698 27 26 30
0.9905890618464664 2.8816303479589287 1.4686258324319472 31 31 33
0.9750060560511986 2.8945052541367087 1.466670863497147 32 32 33
0.9785447582988265 2.9077511712396884 1.4654505495453811 27 27 29
1.0248925568119374 2.922024582743743 1.4658546941815986 25 25 27
0.6245835364767873 3.0887248393741764 1.4325177770873225 16 16 18
0.594275235426916 3.0998412165280476 1.4301486532729588 30 30 32
0.5832534737005056 3.1118198897862657 1.4284702808374492 47 47 50
0.5938538407796307 3.124875661745256 1.4275549486274806 51 50 55
0.5934153282265879 3.1373782727798925 1.4262503926034675 51 50 55
0.8114804492441398 3.2133605027111054 1.4272434423022093 36 35 39
0.5456994415602415 3.4332856872154776 1.3938655568017557 10 11 13
0.5297564854425583 3.4442112978129256 1.3920966712407667 10 11 13
0.5004465888098074 3.453806765421835 1.3899244396885497 12 13 15
0.5213055665853076 3.616681825146756 1.3740035619134225 13 14 16
1.1218270399945687 2.57678492134788 1.518881834014058 60 60 62
0.9604289674441746 2.6324643316364553 1.5063585743862395 28 29 33
0.9968060427891816 2.724582772590144 1.4984040610800058 51 49 52
0.9206015260294321 2.750815296186842 1.4924970050438155 69 67 70
0.9355742889183556 2.7639712854900704 1.491772327780171 71 69 73
0.9586074043619178 2.8035254953869986 1.4886686758869223 43 44 48
0.9935061542589569 2.817053654445696 1.488743992756625 35 36 41
1.0735674957004147 2.8445942693769606 1.4892765753651167 26 24 30
1.0581929861423365 2.857686648870936 1.4872816949511078 26 25 30
1.0182601762279395 2.8703006806185614 1.4843028650088441 29 28 33
0.9898271167600392 2.8830018372676243 1.4817988750585311 30 30 34
0.9739866271370563 2.895869118132453 1.4798075674180866 29 29 32
0.9856282463362099 2.9092962327810294 1.478914827881376 25 25 27
0.9924055133045232 2.9226439859988766 1.4778256095861748 24 24 26
0.6414516825009997 3.0782545616111405 1.4470380875969455 16 15 19
0.6057938988245273 3.089194821020522 1.4444114535407788 20 19 24
0.5842473417503886 3.10070111536636 1.4423202171437446 40 40 44
0.5883680896775344 3.1134211607940396 1.4411838670808044 49 48 53
0.5953157936546463 3.1262998359730436 1.4401501177951181 52 51 56
0.8186624342951996 3.2151984456178093 1.440393207792054 36 35 39
0.5150274270592476 3.4318274968770544 1.4053137061790677 10 11 13
0.5060504777242678 3.4433572924733764 1.4037488711755663 14 15 17
0.4733766382002528 3.452588306271009 1.4014237678495651 14 15 17
0.9669855583370129 3.9318958094086756 1.3728388368800897 34 34 36
0.9539915549621812 3.9430082220783365 1.3711479744371478 37 37 39
1.1637147488486117 2.5233532170783874 1.5397961906734572 129 128 129
1.1319685829335084 2.564514907722713 1.5341682165836725 61 61 63
1.0595850068101536 2.579304323630983 1.5294797767363952 48 49 52
1.0419094370792963 2.592935716866083 1.527302797132048 42 43 46
0.985688628789323 2.633514214596786 1.5206647087754093 27 28 33
1.0091400995344677 2.712704111908566 1.5135332540910205 47 46 49
1.013180289082691 2.7259435355091144 1.5123461989392848 53 51 54
0.9752788429568428 2.8050530446294206 1.5025402882947838 38 40 44
0.999792485502685 2.818501642607276 1.5022269157087778 31 32 37
1.0639090144535057 2.845851944820014 1.5022132955020207 26 24 30
1.0363402598528668 2.8587333466169715 1.4996809758406204 27 26 33
1.0047515571506416 2.871452938762307 1.4969895457984281 30 29 35
0.9923220886765449 2.897636149106511 1.4937490675372196 28 27 31
0.9904210395426657 2.910792624200942 1.4923107680308523 25 25 27
0.9973169691666914 2.9241538595077774 1.4912360367067357 24 24 26
0.6858412992448597 3.0435630734040346 1.4653166930741288 16 16 18
0.6216504309918972 3.0787078204806884 1.4588898031961997 17 16 22
0.589216190251744 3.089762470963 1.4563328970698621 34 33 39
0.587057224345523 3.1021818815986704 1.454959240633159 47 46 52
0.5864102032744125 3.114669225765822 1.4536446985092355 50 49 55
0.6021729213660435 3.128004744663712 1.452960327973569 52 51 56
0.48801094909129716 3.430697269320925 1.4167898118862694 10 11 13
0.4804547150190699 3.442316881036927 1.415262535598093 14 15 17
0.42621873714913777 3.449433675249051 1.4121579362601904 21 22 24
0.5729679686676136 3.513377240448192 1.4119882748745656 11 12 14
0.4987057233262837 3.6044930274757765 1.3993557424870449 12 13 15
1.0581209827473244 2.5806919902730634 1.5427498387477159 37 38 43
1.0318174952023322 2.5944632831430625 1.5401370956582818 29 30 35
1.0440824315692814 2.607568534128088 1.5393432819121693 29 30 35
1.0569754142154744 2.6207045305964236 1.5385748017918843 24 25 31
0.9504969283462263 2.674737996517901 1.528174814617373 36 35 39
1.00700265807457 2.700836573299152 1.5280498367058257 45 44 48
0.9853108013305734 2.806523214667476 1.5161750586658695 34 33 37
1.0137220913962 2.8200376379248726 1.5160718299810672 26 25 31
1.0454759172304622 2.846979789214836 1.5147366452062458 24 22 29
1.0245145765925865 2.859934296275826 1.5124505022430115 27 25 32
0.9765485989520988 2.8723403646479038 1.508995358229194 31 29 36
1.0048370848385728 2.899287596928849 1.507502387129078 26 24 30
1.0052786130519071 2.9125188607629404 1.50615902304244 24 22 27
1.0041461937164005 2.925712329219108 1.5047481252415251 22 21 25
0.6831703060864048 3.019439539250244 1.4805236981103291 15 15 17
0.6516152822492296 3.056159220247446 1.475307939788101 16 15 19
0.6254982722435125 3.0676438444722156 1.4729392866643127 17 16 20
0.5995586214080318 3.0790502271343034 1.4705867447056793 23 22 28
0.576963170847253 3.090528570695427 1.4683785528583364 44 43 49
0.6273846033480857 3.105494280049539 1.4691246340013242 50 49 54
0.5937681180821388 3.1163866334402175 1.4664766724104294 52 51 55
0.8720288986693707 3.247251517833277 1.4656197676724245 33 33 34
0.5943319559815538 3.4169195098241776 1.435534173195631 11 12 14
0.4985969041164197 3.4330484670204817 1.4295275698649013 11 12 14
0.4763543468618835 3.4432981215695637 1.4274620018275368 12 13 15
0.4275670462884322 3.450923502091056 1.4244622056829583 27 28 30
0.43082808229972225 3.463475320906282 1.423316808124934 15 16 18
0.48658404654431625 3.4935797522693597 1.422745025658886 11 12 14
0.5454640738046397 3.511947961416715 1.4235243646496276 12 13 15
0.5891356880624756 3.541413213461726 1.4224700382825621 13 14 16
0.5050716241006705 3.6066206774880154 1.4119358413910763 13 13 15
0.520540345760437 3.6207825028310725 1.4111785470609548 12 13 15
1.0314994213167434 2.5958267589189754 1.5534180290420236 21 22 27
1.0291073256924648 2.609152685875935 1.551931827288476 23 24 29
1.0534848261786907 2.622116336307673 1.5517421419727455 23 24 30
0.9817404428564106 2.67588456967387 1.5428248537858145 40 39 45
1.0453864788925231 2.702074170910576 1.5431188795888886 51 50 55
1.0193947770384248 2.71542414432405 1.5405201353746583 55 54 58
0.9928113883001461 2.8079725475901984 1.5297295045575223 31 28 33
1.0393978535145156 2.8482824388939356 1.5277655232214347 23 20 27
1.007922649907036 2.8610540114551033 1.5249684730591633 27 24 31
0.9823289341245095 2.873826857570261 1.522447941397331 30 27 34
0.9919268603093943 2.8872025324015835 1.5215205906788287 29 26 33
1.0236489064726482 2.9010770346790604 1.5215824797148159 23 20 27
1.0172174819803437 2.914183993742907 1.5199288504983202 23 20 27
0.670533666012649 3.0203166978011544 1.4926812160365714 16 16 18
0.5840137409135969 3.0295949520474568 1.4876551099932993 16 16 18
0.5900683176444501 3.0423657624290894 1.4866234409709362 16 16 18
0.5863007752434919 3.054738663770522 1.4851707830659489 16 15 20
0.587598978456216 3.067321469675362 1.4839347668594955 19 18 24
0.5957585192086563 3.0802210573476256 1.4829888350114218 37 36 42
0.6209608401256562 3.0939529136177706 1.482758757704479 49 48 53
0.6326362052059245 3.1071038320584163 1.4819522929568794 52 51 55
0.6432492699302216 3.1202381596788364 1.4810975706234626 53 53 55
0.5078720364722997 3.4229135107369055 1.443528930837679 11 12 14
0.47676405245122877 3.4323883548438254 1.441088992191158 11 12 14
0.45162055458959316 3.4423253432418646 1.4388819678782658 12 13 15
0.4557806752825562 3.455000654282004 1.4377710330167284 15 16 18
0.4485093385756149 3.466569357736054 1.436236465376578 12 13 15
0.4422406964976904 3.478213207136265 1.4347413155547881 11 12 14
0.4634296892332535 3.492613415860099 1.434253565658903 10 11 13
0.5090283526616259 3.5095908813913907 1.434648309962651 13 14 16
0.5165050366548705 3.5227351395592814 1.433645036818161 13 14 16
0.5373997481207193 3.53732580249376 1.4331238120062093 13 14 16
0.47181900283634554 3.641045002166956 1.419347322340726 20 20 22
0.9191969633954447 3.9292611781552527 1.4106804636474515 63 64 64
1.0424056596814366 2.5171258659484543 1.5755043654474867 119 117 120
1.1536410033816085 2.541213626144086 1.5784368049329789 74 73 76
1.1148585349152507 2.5555333302078713 1.5750716546281 46 45 50
1.0907192432151451 2.5694380040716465 1.5724623321107292 32 31 37
1.0338145340549436 2.597147523841456 1.5668339447946242 18 19 24
1.034908165285305 2.610427334988736 1.5655177412074137 18 19 24
1.03956061213657 2.623663303794347 1.5643793502194188 20 21 25
1.0247875862604205 2.7167868699042512 1.5540568002947297 58 58 62
1.0298629166349746 2.849532189994328 1.5406148163044895 20 17 24
1.0017171686829671 2.8623391250572716 1.5379236074486673 26 23 30
1.02613965268454 2.902524904586625 1.5349687398827692 22 19 26
0.6841507163091033 3.0094884982206396 1.5072856514381445 16 16 18
0.6505415309380305 3.0209125117585085 1.504471019579765 16 16 18
0.5972280001467268 3.031450647964279 1.5007882672895625 16 16 18
0.598746395398469 3.0440598148744065 1.4995619059473817 16 16 19
0.5934560769918131 3.0563829049090034 1.498033505188386 16 15 20
0.6012143395295764 3.0692649264305043 1.4970828476243605 27 26 32
0.600963514229587 3.081803951395096 1.4957775698781701 46 46 50
0.6262821941951606 3.0955557947123937 1.4955922929363021 53 52 57
0.6304074361384086 3.108348012189555 1.4944739915087184 53 52 57
0.860927718486902 3.262309341373778 1.489821864668415 45 44 49
0.5355855360482215 3.414406311060784 1.458295068699992 10 11 13
0.48027570607041226 3.4217578078140365 1.4548437258793316 11 12 14
0.45500478732270944 3.4317275483057204 1.452585083255642 11 12 14
0.45828750370601745 3.444321608481952 1.451446190862387 11 12 14
0.4648758433181494 3.457244262089757 1.4504343754644673 12 13 15
0.4584804825437986 3.468913893538606 1.448919552977003 11 12 14
0.4914280821010031 3.5091604854705545 1.4463735325532525 26 27 29
0.5206111521982555 3.61120976696278 1.4372709136813726 14 14 16
0.5433498793861494 3.6262608135681726 1.4368260316499282 15 15 17
0.9208053011661558 3.931005518527938 1.4237794396367283 64 65 66
0.9793287468979577 3.952895892013831 1.424371750143032 70 71 71
0.9524428194399948 3.9618714420593126 1.4221369910631196 63 65 65
1.1573726908876683 2.5289963254067467 1.5935324827532382 84 83 85
1.1150321896767634 2.5568975524110797 1.5885222608680922 50 49 54
1.0861219108561093 2.570892788344588 1.5856228346347836 25 24 29
1.0506146318418657 2.584909504432013 1.5823890322150238 17 18 23
1.0325621997289658 2.5985269996663396 1.580075269457824 16 17 22
1.021986662516195 2.6119758308813865 1.5781553696591364 17 18 23
1.019808247109838 2.6252809242362853 1.5766730949682426 18 19 24
1.0471786708966035 2.8378804614380195 1.5561188316404468 19 16 23
1.0100999917920142 2.8506258772210225 1.552937059857239 22 19 26
0.9906270122846951 2.863541327202929 1.5506241972380395 26 23 30
0.6745630737388812 3.010491700840825 1.5195505008370969 15 15 17
0.606581121700116 3.020593975910319 1.5150854171673234 16 16 18
0.5953562814805464 3.0327152931367314 1.5132697749339428 16 16 18
0.5950758633167041 3.0452491992545716 1.511962622626685 15 15 18
0.5954913145073777 3.0578109726671054 1.5106876326068122 20 19 24
0.5996035198725123 3.0705372943342337 1.509581799609878 39 38 44
0.593207793032868 3.0827922459375667 1.5079955180670264 53 52 55
0.6273968724682033 3.096960318418388 1.5082553263937173 54 53 57
0.6299521992278485 3.1096792093756123 1.5070718708315505 54 53 59
0.8687283485481049 3.251269721587306 1.5044874184054922 39 38 43
0.8670935866333738 3.2641357533177016 1.5030778116115975 48 47 52
0.5470122882759941 3.404373926390693 1.4724942899598374 11 12 14
0.5022310326349698 3.41277554334213 1.4693728105322388 11 12 14
0.4506517987271757 3.4204064496298217 1.4659885602783262 30 31 33
0.44504842434973796 3.432161349528081 1.4644937605828234 17 18 20
0.46622813403751856 3.4464416456638918 1.4640869673221968 11 12 14
0.47399521129322086 3.4594938536224316 1.4631315384790122 11 12 14
0.4645744414772383 3.470881389204596 1.461482430528069 11 12 14
0.4328024921013121 3.4800043938141294 1.4589415517910838 11 12 14
0.4818760565641157 3.497231011519391 1.4596352686374265 11 12 14
0.4887076763046378 3.5102590099182107 1.4586352368544413 23 24 26
0.5555285876847329 3.616663441776842 1.4510227005577594 16 16 18
0.5937082227879145 3.6335962891097626 1.4511982121405493 19 19 21
0.954884609816985 3.9376332875262556 1.438018196423332 46 47 51
0.9216145387467995 3.945640041430311 1.4355170425492079 46 47 51
0.9432362443749213 4.027171960018657 1.4281946363226679 70 68 71
1.1227988920514973 2.5581035333791853 1.602388118357115 56 54 59
1.076628133159273 2.572440659756902 1.5985072771067712 29 27 32
1.030415528172528 2.5999206887391577 1.5932678793743296 16 16 21
1.0028681414713083 2.613609180952462 1.5904225291575163 16 17 22
0.9892051431366367 2.6270300340702004 1.5883268888196542 17 18 23
0.9522450222163132 2.640662704180941 1.5849977691587587 20 21 23
0.9017091650447897 2.654301089369312 1.5809620229756938 29 29 31
1.0363726640393427 2.6929268635465684 1.5839792254612608 57 56 62
0.9605415760838256 2.70644026223451 1.578640842798934 62 62 65
0.9351922272314531 2.719642168388447 1.5759600233759805 66 66 68
0.9828425723971856 2.8120056996004377 1.568906041045567 22 21 27
1.0090513393516904 2.8519965693937666 1.5661419298887116 22 21 27
1.0112099504100083 2.8652716001150225 1.5648841771826214 24 21 28
0.667809122333347 3.0115950880091833 1.5319238971326603 16 16 18
0.6090605435252783 3.0220273287472414 1.5277919119484866 16 16 20
0.6016528402529044 3.0343037515934084 1.526139700351626 15 14 20
0.5974426349226057 3.0466870782969018 1.5246427490867653 37 36 40
0.5980709087425484 3.059263472530649 1.5233775087691985 33 33 35
0.6039669981800018 3.0720758029376944 1.5223618838575994 47 46 51
0.595789462200074 3.084255950554262 1.520679571221239 54 54 57
0.6309269048163542 3.098481159017153 1.5210388961573675 55 55 57
0.8639801584037891 3.2523689404202663 1.5172777538938722 41 40 45
0.8566062084348176 3.2648413877488487 1.5156070675002054 48 47 52
0.8969769406149938 3.280587258644345 1.5160816252973373 45 43 48
0.44259442062144383 3.4332938084181484 1.4766907447926796 13 14 16
0.4617032965212988 3.4473783195063517 1.4762309883675293 11 12 14
0.46369300670030134 3.4598666976558508 1.4750456360897624 12 13 15
0.4941274661305331 3.475161003189995 1.4750500383303575 11 12 14
0.4658441945825181 3.4846770600053043 1.4725970224591614 12 13 15
0.5098881597680125 3.5014564005048174 1.473155958375097 15 16 18
0.586497207431515 3.6091832904458285 1.4660225017640804 16 16 18
0.6136068918208882 3.624825649168109 1.4658180716440323 16 16 18
0.6618873088599443 3.655661862565337 1.4651466295861315 29 29 31
0.9015358370057824 3.9181325306616785 1.4505224659055556 56 60 63
0.9308094174659293 3.9485449035069604 1.448906271939372 53 54 58
0.9522434451005456 3.9648664017337993 1.4483365776352561 50 51 55
0.9207236951072005 4.025045701534496 1.4404866689500206 62 62 63
1.0639462984111019 2.574046553668022 1.6111865967247125 44 42 47
1.0406776323913047 2.6011178449556067 1.6071429914984885 15 15 20
1.0156095473067772 2.614785043668002 1.6043866882285427 16 17 22
0.9887164826845756 2.62839188364701 1.6015386794683795 18 18 24
0.9449860777826606 2.642092894562782 1.5977773767810457 21 22 26
0.9432670020549715 2.7078474903668623 1.5908964772841387 65 65 68
0.9378528945682802 2.720997306955942 1.5892483152877075 68 68 70
0.9601032919930226 2.734144372910492 1.5890850457835353 68 68 70
0.9663047812409324 2.7473277209338227 1.5880567699284585 65 65 67
0.9819984182989032 2.773770335156227 1.586168972604556 40 39 44
0.9700708084244926 2.8132501971776276 1.581452894725301 22 21 27
0.68350043924374 3.0008220216998716 1.5467088517246652 16 16 18
0.5769927617017369 3.009621013223318 1.5400847179291735 16 16 18
0.6122624001036157 3.023489497271761 1.5405456418754573 16 15 20
0.6119738425948524 3.036055143113379 1.539232852237792 17 16 21
0.6060394409807232 3.0483846113647655 1.5376414633162636 35 35 38
0.6002447477118309 3.0606997165749066 1.5360590546782351 44 44 46
0.5980404712752088 3.073155599869236 1.5346547906003036 52 52 56
0.5883601602934591 3.0852564470641797 1.532885981749112 55 55 58
0.6308498339304823 3.099830336021991 1.5336615395031101 55 55 57
0.4769880205001966 3.425555746917197 1.491775993795938 10 11 13
0.45958830448922505 3.4362487782132503 1.4897382710056717 11 12 14
0.4747932403429906 3.4499936421746447 1.4891351906754338 11 12 14
0.4595683665753314 3.4608353849063507 1.4871988269443155 11 12 14
0.4890840043933442 3.4760393729082 1.4872130836379909 11 12 14
0.4610037938661422 3.485563933776642 1.4847228302654452 12 13 15
0.6520387924465729 3.618123837585245 1.481288904854487 14 14 16
0.7133311430950776 3.663252021234623 1.4799190123852588 20 20 22
0.6540656774588574 3.681342290594132 1.4748708682041574 35 35 37
0.9034900584395872 3.919922974727412 1.4636245807765986 58 62 65
0.9532066584792522 3.9534651933223937 1.462829638564958 52 53 57
0.9341803842505173 4.0287426469742185 1.4540367924269342 57 57 58
1.0621788229413758 2.5887930530018797 1.6230739091271194 39 38 43
1.054147867559121 2.6022686110820654 1.6212378350279995 21 20 25
1.0224013486685943 2.6160488283771954 1.6180582869297486 18 19 23
0.9683975334669301 2.7091420112292446 1.6054558180436111 64 64 67
0.9645864826113274 2.722332275650108 1.6038826659700196 68 68 70
0.9669795702183528 2.7355136634196833 1.6026536601837813 68 68 70
0.9520657608162703 2.74866054910985 1.60047075412287 62 62 64
0.9342783605672789 2.761745975355729 1.5981352209939237 51 51 53
0.9601222074893249 2.8276855923365547 1.5927546076087822 23 22 28
0.5567168941490998 2.9727363063189443 1.5554560471371393 16 16 18
0.6627014349203827 2.9887773223238794 1.5596626492710204 16 16 18
0.6482959973763369 3.000935493007871 1.5576099839871174 16 16 18
0.5782485049117527 3.011000179839607 1.5526952706195483 16 16 18
0.6104163932246955 3.0247593100779078 1.5530538159427942 16 15 20
0.6073392962875894 3.037211804785655 1.5515974663598968 18 17 22
0.605213111883387 3.049692871473339 1.5501907728288675 36 36 39
0.600483413599961 3.062053268289876 1.5486525089690517 50 50 52
0.5920846843763001 3.074232347900513 1.546929991301517 55 54 59
0.6295140362678214 3.0885171891528858 1.5475253184333737 56 56 59
0.8783123442853465 3.2171448781054868 1.5480046021743248 28 28 30
0.9239548219328457 3.324505379998432 1.539441277296736 32 33 37
0.4947286402390052 3.42856005878736 1.5049483828123171 11 12 14
0.47624968160331943 3.439179018670384 1.502829331974272 11 12 14
0.4890182163963466 3.45272251270378 1.5021369246095322 11 12 14
0.46898403231835656 3.463118812859053 1.499954831254022 11 12 14
0.5096076987282511 3.4794426490779777 1.5005162852664984 11 12 14
0.5127799428486237 3.554022189182289 1.4929890713103224 17 17 19
0.5936862474076314 3.6003237324758803 1.4926829160502642 14 14 16
0.5966260997950421 3.6131653642550434 1.491519249368823 13 13 15
0.6100150017918369 3.627235447306273 1.4908067752982959 13 13 15
0.7003708523656028 3.663132959525865 1.4920979414427025 14 14 16
0.9327809127084425 3.9518614867532413 1.475135076941022 46 47 52
0.9625855228340883 3.969488025316017 1.4749634464230164 44 45 50
0.9508490553523411 4.032966410889014 1.4677579902615876 61 61 61
1.1476122466014431 2.507722459801477 1.6498264938931995 170 168 169
1.0350140180995455 2.5906216662325394 1.6348452597966707 49 48 53
1.045720121802355 2.6037630620961845 1.6340975157220041 41 40 45
1.0489601214326527 2.6170418021395943 1.6329101547512856 27 27 30
1.089444522697115 2.643269135053842 1.6325071499095005 32 31 35
0.9286948668485919 2.763085886710553 1.610967821421408 53 53 56
0.9631021307385266 2.7764059118617115 1.6115521375797415 44 43 49
0.6546890779183108 2.9898527705378832 1.5719247927759938 17 17 19
0.5853394805419229 3.0125956381960104 1.5656233539567697 16 16 18
0.5884250428280345 3.0252518304562566 1.564491515564805 16 15 18
0.6065092787277828 3.0385201489280322 1.5641510712144981 30 29 33
0.6074997269648451 3.0511314289621265 1.5629044914685373 45 45 47
0.5957021896609663 3.0631890040145655 1.5609864487909606 55 55 57
0.5877535205152341 3.0753806379934883 1.5592738674082585 56 56 59
0.6371751468081196 3.0902270801378697 1.5605560056668106 56 56 59
0.8902801905823571 3.284383062108986 1.5549177019750564 39 38 43
0.9350341076660134 3.313675081602946 1.554441330488004 37 37 41
0.9242124794274423 3.3259552292033314 1.5525558995806614 29 30 34
0.4563194019821455 3.4632561627396816 1.5117087309900175 11 12 14
0.4564991781705584 3.4755644651253768 1.5104472624254028 11 12 14
0.4504938503435527 3.4872500077513537 1.5088977047526417 16 17 19
0.5360915750735249 3.557946973305499 1.5064706338499052 17 17 19
0.582284770527427 3.575460874050094 1.5072932069469378 16 16 18
0.5451442330996358 3.5837878464753925 1.5043165455597913 15 15 17
0.5563279898350109 3.597485689884526 1.5035385256450926 15 15 17
0.5667981675803967 3.611136737335849 1.502724680294783 13 13 15
0.577145925417542 3.624806618649611 1.5019019133890894 13 13 15
0.5896885531634368 3.6387694598767855 1.501173943367088 13 13 15
0.6254366545898101 3.6555611455565136 1.5014759646166473 13 13 15
0.616136030450816 3.6669807547311137 1.499766114217214 13 13 16
0.997819895259154 3.963304536265728 1.4908982325772744 40 41 45
1.0495491299010553 3.9844285454884725 1.4916632530185219 41 42 47
1.1292284315834857 2.5095833676075823 1.662212765489618 146 146 146
1.0166540031737874 2.5922923268556604 1.6470625229456195 48 47 53
1.0583939629160644 2.6583097211556668 1.6426865092453766 47 46 52
1.0230324041975642 2.6719028238321685 1.6392079141661011 53 53 60
0.9320066052350606 2.764463073919802 1.624303038140857 64 63 68
0.6836322191374701 2.9794737000613765 1.5875146499653114 16 16 18
0.5800854423109537 3.0012046982696594 1.579196542999752 16 16 18
0.5842212968141843 3.0138892817423026 1.5781279749157069 16 16 18
0.5916909476147729 3.0267155770423755 1.577240252553657 24 24 26
0.5991745061610587 3.0395658870543136 1.5763508635497503 40 40 42
0.6186790282266441 3.052944750355001 1.576111749822849 50 50 52
0.6284646325357695 3.0659621929329917 1.5753400773531112 57 57 59
0.617988978015567 3.078093114348001 1.5734719201327256 57 57 59
0.876629328881695 3.206860064904546 1.5753290372575537 28 28 30
0.8718621038835538 3.219567198798032 1.5737360633212147 34 34 37
0.9057184916674843 3.2868808469894524 1.5687637759827697 38 37 42
0.9450857512990275 3.328945484902187 1.5667244133875764 26 27 31
0.9737520449606576 3.344237177539679 1.5668248319832354 17 18 20
0.4359628163537251 3.5116684111098735 1.5179830718922607 15 15 17
0.48358861785808815 3.5536198042983536 1.5164396938490752 16 16 18
0.5505065060584744 3.573350065778584 1.5183244033751098 16 16 18
0.5358513086011062 3.5841432875064974 1.5163494247480114 15 15 17
0.5457365216612494 3.597681716561691 1.5155297435265456 15 15 17
0.5576891042335514 3.6114901376706547 1.5148033857844037 15 15 17
0.5534929200520954 3.6234453529016806 1.5133216168018027 15 15 17
0.9949135726717786 3.9643815591049916 1.5039668681783191 37 38 44
0.9414432004344848 4.008392315127199 1.4962823700872814 57 57 61
1.0021781481063066 2.5938920134543513 1.659463807798855 47 46 54
1.0957786283224735 2.632548458149962 1.6611107165030448 45 44 50
1.0648990483641168 2.6596259492594005 1.6564488696890607 53 54 59
0.6686944944050371 2.9676574338850212 1.6007073725451184 15 15 17
0.6615159143803104 2.9801056448961254 1.5989873545550062 16 16 18
0.5744681998248294 2.989813047795165 1.5927347053497127 16 16 18
0.582824776237896 3.0026353661586778 1.5919127595589455 16 16 18
0.5884180344884445 3.0153810254743787 1.5909321149118791 20 20 22
0.5958078686656301 3.028213922253076 1.5900507816607237 35 35 37
0.6019910803246751 3.0410210800846893 1.5890993516434855 48 48 50
0.6055320111869468 3.0537360053639455 1.5879981315232519 56 56 58
0.6234508465533868 3.0670916427739305 1.5876976352272614 57 57 59
0.6372543538100179 3.080317821224392 1.5871623747128942 57 57 59
0.881822239132543 3.2085811152705603 1.5886470450015577 30 30 32
0.8780190840892529 3.221357072184613 1.5870966727196028 37 36 40
0.9120243448753116 3.275690166108616 1.5835290661832002 39 38 43
0.9148773526722194 3.288945077373365 1.5823305299079313 37 36 41
0.9425147811450472 3.317086136740156 1.5810872294327856 30 30 35
0.9672680080513867 3.332041582377736 1.5810334188495498 22 23 27
1.0075511209323382 3.3482650422891 1.5817849318685004 16 17 19
1.0322181512430477 3.3633987416152418 1.5817074921176404 14 15 17
0.4504699145860201 3.5145519452319878 1.5309992441070392 15 16 18
0.46713665242499175 3.540903140355966 1.5292794949612292 17 17 19
0.4826302420708931 3.5548995546208575 1.5287665017289902 17 17 19
0.4568065339744539 3.5643686264390113 1.526230245865885 17 17 19
0.47057555448883576 3.578202943433152 1.5256300237519709 17 17 19
0.5225497912055694 3.5964379111707703 1.5268785087331165 17 17 19
0.49822895617855356 3.6060167010634405 1.5244215297455932 20 20 22
0.9273511062661474 3.9555577942465696 1.5141543208627533 38 38 44
0.9214538703482569 3.9676724187421972 1.512546059861316 44 44 50
0.9502425418346041 4.037434230313486 1.5070685544080105 91 91 93
0.9904271823559405 4.057103105542299 1.5074578705418928 113 113 114
1.1306773549264229 2.4988005601858565 1.690680784678053 129 129 130
0.9820838271438181 2.595580513630482 1.6714631403427576 48 47 55
1.0648149358966539 2.6610001283808185 1.669822007637728 57 60 65
1.0410385707486867 2.6745166825390263 1.66695069358187 63 67 70
0.6855626642250409 2.956812178831207 1.6157250368588023 16 16 19
0.6359118976200142 2.9679882285194386 1.6114926812711248 16 16 18
0.609710262990777 2.9797639529529123 1.6086511731498292 16 16 18
0.5485021221773174 2.990256280806005 1.603773462069068 16 16 18
0.5406716949898321 3.002459282302256 1.6020260126352868 18 18 20
0.5917839035649459 3.0168434497507373 1.6037049522788183 26 26 28
0.6025909511269293 3.029818270529111 1.6030324194491379 44 44 46
0.6056601391464462 3.0425123179449933 1.6019095021211738 54 54 56
0.6102258752239437 3.0552788225713736 1.6008718139755653 58 58 60
0.6663630326065144 3.082998831744636 1.6014826251170693 57 57 59
0.8777357309486928 3.1967373797609766 1.602813819634333 29 29 32
0.8689306762062562 3.2092129436476418 1.6009777894988633 34 34 36
0.9237216156058888 3.27791488731667 1.5972659934873998 36 35 40
0.9352583473455115 3.2918002294752924 1.5965444860481957 36 35 40
0.9436094813424182 3.3054935493881374 1.5956454659530703 36 35 40
0.9832216058942915 3.321508391882943 1.5964431970536495 27 28 32
1.0118382623332347 3.3368263339074087 1.5966317508499086 20 21 25
0.42378774348381915 3.4886604313477996 1.5444910784200785 12 13 15
0.4096208510510847 3.4994440521413934 1.5424978513478198 14 15 17
0.43673718194436384 3.514491902618329 1.5426213853341733 17 18 20
0.4627399284700905 3.5418098134304863 1.5414067002612644 17 17 19
0.45595041931427194 3.5533672525980773 1.5397905221516488 17 17 19
0.4161277023874785 3.561236299352185 1.5365091784155622 17 17 19
0.4040277539344034 3.572095783183051 1.534636169225956 17 17 19
0.43342185206813777 3.5876542422570217 1.5348480130788205 18 18 20
0.43900465730182997 3.6005490767709762 1.533860066711537 22 22 24
0.429788221747593 3.6239627944137416 1.5308670984087387 31 31 33
0.9268706350883634 3.9700211190200676 1.5258691965981186 63 64 67
0.636913203705395 2.9567254307702067 1.6255214908570157 16 16 18
0.6067195085756236 2.9684195855749587 1.6223904882232552 16 16 18
0.5568985711877512 2.9793716859148285 1.618087611642253 16 16 18
0.5409027343352943 2.9913218523153957 1.615833367839638 16 16 18
0.5544135685259166 3.0042807447515605 1.615351920324818 22 22 24
0.5944954961647884 3.018282766027676 1.6164529510978907 39 39 41
0.6163023706429667 3.0316973810336783 1.6164521295488836 52 52 54
0.6400625087018161 3.045262269553337 1.6165600219685299 57 57 59
0.6057484793598253 3.0564334838235716 1.6132210026051899 58 58 60
1.0190770376071592 3.3255884921696777 1.6116642209502554 25 25 28
1.0896182450304237 3.3441259323488546 1.6142337084081728 17 18 21
0.4401070886187704 3.5284826565782095 1.5538352742498343 18 18 20
0.4122953531522024 3.549966566790728 1.5498427616664854 16 16 18
0.392078648215554 3.5599376582079847 1.5475247866050035 17 17 19
0.49271577582879933 3.608164200910385 1.5489367020000269 21 21 23
0.5146712162859965 3.6230928162542293 1.5487886627432887 22 23 25
0.9522907403190439 3.9624042645795496 1.541517430018638 69 71 68
0.9326120863909455 3.972422612210877 1.5392287950378687 73 75 73
0.9415016985786145 4.039053321208089 1.5328993719232098 80 81 82
0.689842390509676 2.9087373590707672 1.646749501495775 22 23 25
0.7239452962473745 2.9223048496171113 1.6475712093106558 17 17 19
0.6133256511433941 2.957364493448879 1.636720652178454 17 17 19
0.5905945472445366 2.9692496024876225 1.6340064326643797 17 17 19
0.5493023789746934 2.992937585464308 1.6288587241227352 21 21 23
0.567379078250954 3.006079250969548 1.6286783329282286 35 35 37
0.5541111520789861 3.018094128850277 1.6265684298919543 50 50 52
0.555790973708165 3.0306541590100973 1.6253778720092975 56 56 58
0.6045834202801135 3.045153998332703 1.627061986773395 57 57 59
0.6190966597618873 3.0583483268221925 1.6266435235360186 58 58 60
0.8881293122472723 3.213194609148349 1.6281760998163932 39 38 43
0.8827975928553586 3.225888350863716 1.6265139912080004 44 43 48
0.9458333975455084 3.295404879500665 1.6234325701410657 35 35 37
1.0594619851850036 3.330015966322204 1.627267228209396 21 22 24
0.5494638949575334 3.6037121013038256 1.5656418297475596 28 28 30
0.6413988287558957 3.6394259487891496 1.56794618214066 29 30 32
0.6319793918634871 3.6508887624473627 1.5661446557542564 31 32 34
1.0001930147036635 3.9581289938858863 1.5583758654257034 68 69 71
0.9624802100671841 3.9654846727144064 1.5551525371759773 73 75 72
0.9527599210658859 3.977064138295588 1.5533192955386743 77 78 77
0.950844870521662 3.9898358918743675 1.5518721490813703 79 81 82
0.9413746106217126 4.00140238745087 1.5500565718392998 75 79 80
0.92622729389161 4.012027614120962 1.5479678402252528 69 72 74
0.935304012159929 4.0395622954906285 1.5457099696339616 77 78 79
0.6236473724306106 2.8833007853120405 1.657850871390776 94 93 96
0.6258658989230641 2.89596872405765 1.6566874904831523 89 89 92
0.618725705696742 2.908425421158409 1.6549195099455596 78 79 81
0.624167712549802 2.9211707882234794 1.6539638914107404 62 62 64
0.6095085917377594 2.9333999456991244 1.6517161553512785 44 44 46
0.5864973707037447 2.9453449384368082 1.6489387550071157 28 28 30
0.5897009830012887 2.957994610254403 1.6478432077882292 20 20 22
0.5609695593761652 2.9696500418189085 1.6447128821082142 22 22 24
0.5455034831383148 2.9941332235625695 1.6411421033044693 34 34 36
0.5651352571329805 3.0073298683298466 1.641089618208889 45 45 47
0.5599551671566922 3.0196474673771 1.6394672526020533 54 54 56
0.5567766193239195 3.032026421090452 1.6379725170061272 58 58 60
0.6362577554481146 3.0478039306744753 1.641659093970517 57 57 59
1.043696171028746 3.3170306112123975 1.6410520818664125 25 25 27
0.6178739578767658 3.625519267747856 1.580600364406558 26 26 28
0.6172675356175212 3.6380000777549517 1.5792672595220267 30 31 33
0.6726368641541604 3.6571760785194702 1.5809878369119152 33 34 36
0.6748563988698183 3.670084997209915 1.5797995676487937 34 35 37
0.5832545081285218 3.6839594424092756 1.5722308714657451 37 38 41
0.9993110740439184 3.959516979796263 1.571545138616825 56 57 61
0.9856831308559647 3.970571726451964 1.5694880517325704 59 60 61
0.968940803173349 3.9810967910691897 1.5672773407148197 57 58 59
0.9670907143027272 3.993906322038865 1.5658269420847386 54 56 59
0.9539327449949171 4.0049136159332495 1.5638062296076323 53 55 59
0.923213409997482 4.013060515518149 1.5609061755212594 62 63 66
0.9233896431964059 4.026111819232523 1.559566381609832 71 71 73
1.0608308014485666 4.101355076794879 1.5609745577773726 80 81 79
0.61529759562438 2.884459434575182 1.6699507241351526 84 84 89
0.6137128715507489 2.8970328044296334 1.6685394131400302 80 80 84
0.6195671082745371 2.90977417691376 1.667621022775263 80 80 84
0.6202923743357022 2.9224052433032206 1.6663622037789152 83 82 86
0.5634105967531036 2.9460190302909495 1.6600136359572966 89 89 91
0.5375078986390632 2.982708898643297 1.6544356099319637 59 59 61
0.5474045063100728 2.9955266864301673 1.6537866166429267 60 60 62
0.5598329860949326 3.0084683578270885 1.6532984798870376 56 56 57
0.5752965457937518 3.021565543304359 1.6530024436894821 61 60 62
0.574112224226367 3.034049943404646 1.6516278182335573 61 60 63
0.6349191669456946 3.0490976339044087 1.654240345347248 57 57 60
0.9509993032233807 3.232990007220063 1.6568728143940898 44 43 48
1.025134560518723 3.3038890878760308 1.6546135050010964 29 30 32
0.46647719814215133 3.5231094952851243 1.5935774912580283 16 16 18
0.7135439675609636 3.6889235887097347 1.5933484261042492 35 36 38
1.0184293347434528 3.977138172289882 1.5844051746002716 50 51 55
1.0040402066764988 3.98808135515523 1.5822843459728797 51 52 56
0.9613452171347158 3.994523659992172 1.578687975256777 52 54 58
0.9564716981140788 4.006837483240865 1.5770779361398988 55 57 59
0.9342316966279011 4.016345839887658 1.5745671713859417 60 62 61
0.9348000985893752 4.029480307947148 1.5732454390248307 67 68 69
0.9449010725358372 4.044177300507169 1.5724157807422559 76 77 80
0.981367873918711 4.063268484997528 1.5729396274801253 83 84 84
1.0554116123841828 4.101991059509595 1.5740075131133362 70 71 69
1.1466522230686205 2.4646546645885263 1.7635760406896115 139 139 141
0.9182164656099585 2.7608231179154172 1.7168306124268173 53 52 56
0.5943318694156849 2.897934381143419 1.679863194858627 87 87 89
0.6002294237106487 2.9106475808391665 1.678959990059864 85 83 86
0.6090635743197789 2.9234531974155105 1.6782535430081476 75 75 78
0.5548842695959086 2.9471004669111283 1.6719959227463184 72 72 74
0.5623888522646805 2.959832188410946 1.6712037139286984 78 78 80
0.5711975766811648 2.972628954659691 1.670496397584051 88 87 91
0.5758456444236281 2.985314558942891 1.6695082593562243 97 97 100
0.5766063479138824 2.9978781377094115 1.6682596276412764 89 88 91
0.5676729176594965 3.01008753739747 1.6663665582671652 72 70 71
0.5662643129693331 3.022555113534667 1.6649754528423701 67 65 68
0.5744390740109802 3.035400098798436 1.664218594571729 66 63 69
0.5721276689013455 3.047834616605288 1.6627674813006796 60 59 64
0.4590055854729539 3.5113971339785355 1.60677578840432 15 15 17
0.47581168540855634 3.525471662458652 1.6064979698268333 16 16 18
1.035583407076609 3.9945252287129063 1.5972171168685887 49 50 54
1.0211427804582494 4.005462662726569 1.5950689178821686 49 51 55
0.9883043571367195 4.013424329202838 1.5919364304962575 49 53 55
0.9795314953404466 4.025146888008719 1.5901050991224728 52 57 55
0.9400712109179848 4.031856544493166 1.5866370935929963 58 62 65
0.9195434592451028 4.04154199258794 1.584190946437967 69 71 74
0.9607830078481967 4.061391016231401 1.585031444399174 83 84 86
1.0636139318291034 4.104926025628066 1.587744772204263 86 86 85
0.5781090760260909 2.898899473362068 1.691346397383274 91 89 92
0.5823999363841648 2.9115504782027477 1.6903433757037414 103 100 103
0.6021668043248689 2.924607635978942 1.6904113696146255 99 98 97
0.5598905285035981 2.9360510910346314 1.6861841642722322 81 80 82
0.5445272335480656 2.9481267875189996 1.6838271480169167 73 72 74
0.5667868687236176 2.9612916657051715 1.6840632679984493 71 69 74
0.5686977844147658 2.9738783064618195 1.6828957399614102 70 68 74
0.5721941181245037 2.9865234782977423 1.681836176028907 78 76 83
0.5724838127130797 2.999066157427184 1.6805565981711588 89 87 93
0.5712495074945124 3.011552619574652 1.6791732338430132 89 87 89
0.5627623524019141 3.0237548012792357 1.6772976759929485 75 73 76
0.5697299556025929 3.0365485634925617 1.6764723803854893 67 65 69
0.5669063908374096 3.0489551097169563 1.6749829928101578 62 61 65
0.4671903817557306 3.51362379723178 1.6196343754003297 15 15 17
0.652155799382026 3.646393210100125 1.619172751767004 13 11 14
0.6839955536135366 3.6754956346453076 1.6184455387076684 11 11 16
0.6804092667374775 3.687714692331352 1.6169207303406077 11 11 16
0.6623214146561253 3.6981068042535123 1.6145423005928081 15 15 20
0.6642318969814995 3.710973493123216 1.6133457062334582 16 16 21
0.6365999312063898 3.732633741007971 1.6091125370517518 15 14 19
0.9283207693053974 4.03146781374963 1.5991119452102625 54 58 60
0.9543184122291212 4.048771626044992 1.5991878034241667 64 66 68
0.9777959840780526 4.06574112869952 1.5991170642954984 83 85 85
1.1388261350121693 2.4541276211098655 1.7914664724521898 133 132 134
0.5518271715678434 2.9246491044693634 1.6994680603819277 99 96 92
0.5465792168574702 2.937011863554986 1.697799618501162 96 93 92
0.552258570728265 2.949671687301028 1.6969044904920814 87 83 87
0.5375018071336027 2.961726094042418 1.6945682908626194 84 80 85
0.5471666208074983 2.9745157306298244 1.6939529831239555 75 71 76
0.5633686433872291 2.987556773226575 1.6937926637295577 75 71 76
0.5797699387945523 3.000656967170009 1.6936408734238904 77 73 77
0.5992086832408642 3.0139224105328344 1.6936954651795402 83 81 85
0.584052763667383 3.0259125092771177 1.691336562186732 87 85 88
0.533358331263669 3.0364192492335427 1.6865162829637657 77 75 78
0.5230500149847461 3.048453279776812 1.6845095516466597 66 64 67
0.5063696427226947 3.5438475145864734 1.6319002984119568 16 16 18
0.5836968168180019 3.5771645761342348 1.6341350846952534 16 16 18
0.5464459434687913 3.5979350837968838 1.6292395506951818 17 17 19
0.5995781090436831 3.641574438992604 1.6286232432673133 14 13 16
0.619544235770364 3.656506059234408 1.6285438302240167 13 13 15
0.6349359312221267 3.670943613259648 1.6281790353134005 12 13 17
0.5981761054210092 3.7040251998456237 1.622042744662843 12 11 18
0.6000525300663029 3.7418311423589077 1.6182596355399024 13 12 18
1.0456494303466042 3.999165128538764 1.624360067963742 44 45 49
1.0293797152734254 4.009827933791012 1.6220568678266236 44 46 50
0.9797500207124176 4.028237554314775 1.6164952626978104 46 49 54
0.9439191867025166 4.035526557725883 1.6131025147981841 56 59 63
0.9393491646125236 4.047837061707424 1.6114893808596449 65 68 68
1.0405384679924694 4.0909073452162765 1.614468553406231 109 109 107
1.2031658999406727 2.535006504030289 1.8015962971535282 58 58 60
1.2271635702006627 2.548089016407463 1.8020447382922324 53 53 56
0.6219046681633286 2.852021177319557 1.7249623373330396 41 41 46
0.6143132532743182 2.864515843151601 1.723094639334143 45 44 49
0.5227695902752625 2.9376808766512053 1.7086143079014136 90 85 88
0.5169104466047008 2.9499693286620245 1.7068983627993146 90 85 90
0.5124261857480401 2.9622797572354718 1.7052835997491727 100 95 99
0.503000507756761 2.974414909074606 1.7033151729972784 96 92 95
0.5055378349097824 2.9869241991781634 1.7022081629805097 85 81 84
0.5244217505804786 3.000022374317716 1.7022701600824572 78 74 77
0.5396611185945489 3.013045811427477 1.7020656533865108 74 72 76
0.5465036159228169 3.025791957682669 1.7012580389827958 78 76 79
0.47865919561947406 3.5052345482804577 1.6464062659592569 16 16 18
0.48333991133293824 3.518064195499902 1.6454273097900483 17 17 19
0.5282579460874627 3.5724281927591788 1.6431667293992966 17 17 19
0.57618173607367 3.7026533827550687 1.6332610749187002 19 18 23
1.0666617309927848 3.9907199818730117 1.6402811142330256 39 41 45
1.0424230561526633 4.000196372917814 1.6374738535082456 41 43 47
1.0264455929487566 4.010898659154028 1.635161065914551 43 45 49
0.9949395768823178 4.019067926190463 1.6319425507284233 45 49 53
0.9831715266508395 4.0303178970170865 1.629889701682818 54 58 61
0.9566350423552284 4.039121869705589 1.6269792961042264 64 68 69
0.9535042149420414 4.051690675708324 1.6254395723458361 69 72 71
0.5193065359296769 2.9389026682065778 1.7208606390898398 73 70 73
