ply
format ascii 1.0
element vertex 892
property float x
property float y
property float z
property float nx
property float ny
property float nz
property uchar diffuse_red
property uchar diffuse_green
property uchar diffuse_blue
property uchar class
property uchar detection
end_header
1.5000 3.1057 -0.0749 0.871 0.467 -0.152 22 22 23 0 0
1.4916 3.0506 -0.0653 0.864 -0.183 -0.469 52 51 52 0 0
1.4718 2.7595 -0.0187 0.927 0.245 -0.283 13 13 15 0 0
1.5261 3.2171 -0.0818 0.616 -0.530 -0.582 45 45 47 0 0
1.5018 3.1771 -0.0717 0.917 -0.151 -0.370 80 80 80 0 0
1.5021 3.1216 -0.0635 0.799 0.009 -0.601 62 62 62 0 0
1.5090 3.1074 -0.0625 0.968 0.038 -0.247 34 34 34 0 0
1.4988 3.0524 -0.0526 0.864 -0.183 -0.469 23 22 23 0 0
1.4945 3.0387 -0.0498 0.917 -0.393 -0.065 35 33 34 0 0
1.5187 2.9131 -0.0353 0.779 0.322 -0.538 15 15 17 0 0
1.5187 2.8993 -0.0333 0.897 0.042 -0.440 13 13 15 0 0
1.5205 2.8854 -0.0315 0.947 -0.241 -0.214 11 11 13 0 0
1.4782 2.7614 -0.0058 0.895 0.052 -0.444 11 11 13 0 0
1.4536 2.7478 0.0005 0.818 -0.047 -0.573 12 12 14 0 0
1.5309 3.2467 -0.0728 0.652 -0.199 -0.732 30 29 33 0 0
1.5273 3.1224 -0.0537 0.868 -0.380 -0.320 54 54 54 0 0
1.5177 3.1091 -0.0501 0.948 0.105 -0.299 66 66 66 0 0
1.5168 3.0676 -0.0438 0.808 -0.420 -0.414 26 25 25 0 0
1.5108 3.0540 -0.0407 0.734 -0.490 -0.471 22 21 23 0 0
1.5212 2.9151 -0.0219 0.861 0.264 -0.435 15 15 17 0 0
1.5191 2.9013 -0.0194 0.733 0.286 -0.617 14 14 16 0 0
1.5200 2.8875 -0.0175 0.994 0.101 0.040 12 12 14 0 0
1.4899 2.7772 0.0041 0.915 -0.196 -0.352 27 27 29 0 0
1.4860 2.7633 0.0068 0.900 -0.250 -0.356 14 14 16 0 0
1.4823 2.7495 0.0095 0.980 -0.052 -0.194 10 10 12 0 0
0.7575 2.3202 0.1992 0.788 -0.464 -0.405 164 164 164 0 0
1.5299 3.2352 -0.0567 0.722 0.260 -0.642 26 26 29 0 0
1.5143 2.9174 -0.0068 0.651 -0.119 -0.750 16 16 18 0 0
1.4960 2.8346 0.0087 0.719 -0.042 -0.694 15 15 17 0 0
1.4982 2.7652 0.0187 0.933 -0.215 -0.289 28 28 30 0 0
1.5449 3.2225 -0.0433 0.844 0.390 -0.369 27 27 29 0 0
1.5039 2.8226 0.0234 0.678 -0.142 -0.721 17 17 19 0 0
1.5090 2.8087 0.0246 0.666 -0.267 -0.696 26 26 28 0 0
1.4859 2.7534 0.0368 0.874 -0.291 -0.390 33 33 35 0 0
0.8298 2.3567 0.2120 0.434 -0.673 -0.599 70 70 72 0 0
1.4239 3.3452 -0.0257 0.223 -0.015 -0.975 46 46 48 0 0
1.4404 3.3158 -0.0243 0.588 -0.012 -0.809 58 57 59 0 0
1.4772 3.2991 -0.0284 0.980 0.198 -0.030 68 66 69 0 0
1.5470 3.0726 -0.0072 0.513 -0.401 -0.759 58 56 60 0 0
1.5137 2.7967 0.0397 0.879 -0.418 -0.231 28 28 30 0 0
0.8232 2.4034 0.2216 0.120 -0.586 -0.802 47 47 50 0 0
0.8094 2.3429 0.2331 0.502 -0.474 -0.723 69 69 69 0 0
1.5734 3.1837 -0.0143 0.740 0.080 -0.668 24 25 24 0 0
0.9531 2.4385 0.2084 0.015 -0.706 -0.708 44 44 46 0 0
0.8315 2.3456 0.2441 0.372 -0.546 -0.751 57 57 59 0 0
0.8599 2.3317 0.2411 0.271 -0.634 -0.724 66 66 68 0 0
1.5893 3.1849 -0.0032 0.909 0.075 -0.409 44 44 45 0 0
1.6049 3.1290 0.0023 0.541 -0.291 -0.789 27 29 28 0 0
1.5619 3.0623 0.0200 0.662 -0.607 -0.440 50 48 50 0 0
1.5709 2.9239 0.0390 0.523 -0.411 -0.747 16 16 18 0 0
1.5198 2.7174 0.0789 0.850 -0.526 -0.037 52 52 52 0 0
1.6392 3.1292 0.0101 0.895 0.414 -0.167 41 43 42 0 0
0.8863 2.3066 0.2707 0.276 -0.681 -0.678 59 59 59 0 0
0.8701 2.2911 0.2760 0.171 -0.707 -0.686 80 80 78 0 0
1.6013 3.1886 0.0224 0.947 0.216 -0.237 76 72 75 0 0
1.6120 2.9130 0.0614 0.786 -0.200 -0.585 13 13 15 0 0
1.1210 2.4337 0.2236 0.135 -0.555 -0.821 63 63 64 0 0
1.0149 2.3870 0.2503 0.014 -0.461 -0.887 48 47 49 0 0
1.6359 3.1474 0.0362 0.961 0.158 -0.228 80 78 79 0 0
1.6525 3.1328 0.0353 0.995 0.022 0.097 58 56 57 0 0
1.6517 3.1191 0.0375 0.958 -0.266 0.106 25 23 24 0 0
1.6218 2.9285 0.0714 0.814 0.051 -0.579 25 25 27 0 0
1.6214 2.9148 0.0735 0.786 -0.200 -0.585 16 16 18 0 0
1.0950 2.3913 0.2498 0.062 -0.673 -0.737 53 51 54 0 0
0.8829 2.2805 0.3059 0.774 -0.487 -0.404 61 61 61 0 0
0.8891 2.2658 0.3070 0.852 0.518 0.082 110 110 109 0 0
1.5407 3.3912 0.0321 0.171 0.330 -0.929 44 44 44 0 0
1.6516 3.1213 0.0512 0.754 -0.344 -0.559 59 57 56 0 0
1.1613 2.4096 0.2496 0.324 -0.816 -0.479 55 53 56 0 0
1.1330 2.3943 0.2572 0.260 -0.874 -0.411 53 51 54 0 0
0.8851 2.2675 0.3228 0.843 0.403 0.357 71 71 71 0 0
0.8972 2.2531 0.3227 0.778 0.551 0.302 144 142 143 0 0
1.5609 3.3779 0.0445 0.874 -0.135 -0.466 25 25 25 0 0
1.5692 3.3634 0.0451 0.789 -0.145 -0.597 28 26 29 0 0
1.6189 3.2354 0.0547 0.921 0.147 -0.362 36 36 38 0 0
1.6220 3.2214 0.0561 0.861 -0.210 -0.464 27 27 29 0 0
1.6626 3.1228 0.0631 0.790 0.018 -0.613 70 67 66 0 0
1.6170 2.9191 0.1020 0.970 -0.068 0.234 19 19 21 0 0
0.8838 2.2544 0.3405 0.688 0.608 0.397 111 109 110 0 0
1.5708 3.3794 0.0567 0.869 -0.096 -0.485 25 25 25 0 0
1.6669 3.1385 0.0740 0.922 0.212 -0.324 72 70 69 0 0
1.6687 3.1247 0.0757 0.909 0.011 -0.416 69 67 68 0 0
1.6027 3.0043 0.1063 0.819 -0.071 0.570 48 48 50 0 0
1.5293 2.8127 0.1489 0.950 0.223 0.218 30 30 32 0 0
1.2159 2.4437 0.2639 0.909 -0.252 -0.332 37 37 36 0 0
1.2205 2.4294 0.2652 0.687 -0.461 -0.562 39 39 40 0 0
1.1632 2.3990 0.2807 0.351 -0.931 -0.099 39 39 41 0 0
1.1264 2.3834 0.2901 0.360 -0.920 -0.155 34 34 36 0 0
0.8831 2.2563 0.3557 0.803 0.352 0.480 77 79 81 0 0
0.8889 2.2416 0.3568 0.803 0.352 0.480 152 151 153 0 0
1.5477 3.3976 0.0728 0.625 0.242 -0.743 42 42 42 0 0
1.5956 3.3796 0.0662 0.889 0.138 -0.436 32 32 32 0 0
1.5803 3.3532 0.0730 0.928 0.282 -0.243 27 27 27 0 0
1.5924 3.3384 0.0729 0.852 0.501 -0.156 27 27 27 0 0
1.6724 3.1266 0.0888 0.906 -0.036 -0.422 65 66 70 0 0
1.5626 3.0497 0.1215 0.698 0.558 0.449 21 21 23 0 0
1.5487 2.8560 0.1530 0.584 -0.738 -0.338 9 9 11 0 0
1.5378 2.8424 0.1572 0.505 -0.714 -0.484 10 10 12 0 0
1.5405 2.8284 0.1587 0.640 -0.550 -0.536 10 10 12 0 0
1.5491 2.8143 0.1591 0.723 -0.023 -0.691 12 12 14 0 0
1.5479 2.8005 0.1614 0.803 -0.211 -0.558 21 21 23 0 0
1.5226 2.7174 0.1787 0.707 -0.160 -0.689 35 35 37 0 0
0.8779 2.2430 0.3742 0.803 0.352 0.480 136 135 137 0 0
0.8837 2.2283 0.3752 0.803 0.352 0.480 170 168 168 0 0
1.6207 3.3659 0.0775 0.758 -0.312 -0.573 45 45 45 0 0
1.6046 3.3535 0.0825 0.936 -0.109 -0.335 29 29 29 0 0
1.5982 3.3402 0.0857 0.824 0.493 -0.280 26 26 26 0 0
1.5637 2.8715 0.1621 0.758 -0.640 0.122 10 10 12 0 0
1.5634 2.8022 0.1725 0.817 -0.005 -0.576 10 10 12 0 0
1.5281 2.7193 0.1917 0.936 0.020 -0.353 35 36 38 0 0
1.2990 2.4924 0.2702 0.346 -0.910 0.227 20 20 22 0 0
1.1977 2.4327 0.2989 0.810 -0.391 0.437 29 29 32 0 0
1.0504 2.3555 0.3392 0.854 -0.426 0.297 48 48 51 0 0
1.0417 2.3405 0.3431 0.889 -0.407 0.212 38 38 41 0 0
0.9339 2.2474 0.3780 0.978 0.198 0.057 117 116 118 0 0
1.5639 2.8736 0.1761 0.786 -0.589 -0.191 12 12 14 0 0
1.2131 2.4494 0.3083 0.447 -0.894 -0.022 22 22 24 0 0
1.0378 2.3570 0.3566 0.667 -0.689 0.283 30 29 34 0 0
1.0435 2.3424 0.3577 0.881 -0.172 0.440 31 30 35 0 0
1.0325 2.3273 0.3621 0.931 -0.313 0.188 33 32 36 0 0
0.9276 2.2341 0.3966 0.959 -0.269 0.093 166 165 164 0 0
1.6546 3.2303 0.1194 0.861 -0.031 -0.508 33 35 34 0 0
1.6900 3.1048 0.1310 0.986 0.036 -0.166 25 25 27 0 0
1.5112 2.9888 0.1838 0.543 0.732 -0.411 29 29 34 0 0
1.2130 2.4513 0.3230 0.651 -0.755 0.077 16 16 18 0 0
1.0522 2.3447 0.3708 0.929 -0.034 0.368 28 27 32 0 0
1.0312 2.3292 0.3773 0.959 -0.157 0.234 32 31 36 0 0
0.9292 2.2360 0.4114 0.900 -0.400 0.174 162 161 159 0 0
1.4320 3.5302 0.1337 0.205 0.802 -0.562 61 59 62 0 0
1.6594 3.2322 0.1324 0.993 -0.099 -0.058 27 28 27 0 0
1.6958 3.1066 0.1437 0.918 0.396 0.029 16 16 18 0 0
1.5085 3.0050 0.1964 0.903 0.266 -0.337 27 26 30 0 0
1.4783 2.8379 0.2272 0.953 -0.196 0.230 15 15 17 0 0
1.4779 2.8099 0.2315 0.726 0.407 0.554 12 12 14 0 0
1.2434 2.4684 0.3293 0.646 -0.726 -0.234 13 13 15 0 0
1.2168 2.4534 0.3369 0.680 -0.732 -0.043 12 12 14 0 0
1.0385 2.3461 0.3886 0.874 0.195 0.445 27 27 29 0 0
1.0128 2.3304 0.3961 0.987 0.130 -0.097 31 30 33 0 0
1.6952 3.1225 0.1556 0.571 -0.153 -0.807 31 31 33 0 0
1.4994 3.0355 0.2082 0.575 0.817 -0.038 22 22 24 0 0
1.5932 2.9344 0.2042 0.668 -0.439 -0.601 14 15 19 0 0
1.6060 2.9201 0.2037 0.629 0.303 -0.716 12 12 14 0 0
1.2403 2.4702 0.3446 0.877 -0.425 0.225 11 11 13 0 0
1.0475 2.3483 0.4017 0.804 0.594 -0.009 26 26 28 0 0
1.0154 2.3324 0.4106 0.993 -0.006 -0.117 30 29 32 0 0
1.6893 3.1661 0.1645 0.935 0.330 -0.130 24 24 26 0 0
1.6056 2.9499 0.2137 0.649 -0.334 -0.683 29 30 32 0 0
1.6048 2.9361 0.2159 0.668 -0.439 -0.601 16 15 20 0 0
1.6161 2.9219 0.2157 0.658 0.426 -0.620 12 12 15 0 0
1.5322 2.8967 0.2366 0.806 -0.423 -0.414 13 13 15 0 0
1.4843 2.8700 0.2503 0.946 -0.319 -0.049 10 10 12 0 0
1.4752 2.8421 0.2563 0.946 -0.319 -0.049 10 10 12 0 0
1.2454 2.4723 0.3581 0.750 -0.593 0.295 13 13 15 0 0
1.0979 2.3666 0.4039 0.407 -0.849 -0.338 23 23 25 0 0
1.0388 2.3499 0.4185 0.969 -0.060 0.241 26 26 28 0 0
1.0239 2.3346 0.4238 0.951 -0.304 0.062 31 30 32 0 0
1.7144 3.1531 0.1755 0.986 -0.002 -0.168 18 18 20 0 0
1.6791 3.1415 0.1844 0.552 -0.757 0.350 23 23 25 0 0
1.4862 3.0405 0.2392 0.187 0.673 -0.715 22 22 24 0 0
1.6118 2.9518 0.2265 0.708 -0.375 -0.599 23 23 25 0 0
1.6069 2.9381 0.2295 0.880 0.164 -0.445 15 14 19 0 0
1.5320 2.8988 0.2508 0.634 -0.685 -0.359 13 13 15 0 0
1.5144 2.8853 0.2564 0.562 -0.673 -0.481 11 11 13 0 0
1.4797 2.8722 0.2655 0.550 0.017 -0.835 9 9 11 0 0
1.4893 2.8579 0.2656 0.485 -0.333 -0.809 9 9 11 0 0
1.4998 2.7736 0.2760 0.904 0.244 -0.350 15 15 17 0 0
1.0547 2.3524 0.4301 0.628 -0.775 0.067 30 30 32 0 0
1.6587 3.2412 0.1881 0.888 -0.008 -0.460 89 87 86 0 0
1.7102 3.1692 0.1881 0.546 0.487 -0.682 11 11 13 0 0
1.7096 3.1555 0.1902 0.857 0.462 -0.227 13 13 15 0 0
1.5596 2.9975 0.2448 0.510 -0.371 -0.776 28 28 32 0 0
1.6013 2.9404 0.2447 0.803 0.326 -0.499 17 16 21 0 0
1.5952 2.9267 0.2479 0.847 -0.502 -0.175 13 13 16 0 0
1.5909 2.9130 0.2509 0.920 -0.308 -0.241 13 13 15 0 0
1.5148 2.8314 0.2788 0.577 -0.365 -0.731 8 8 10 0 0
1.5019 2.8177 0.2835 0.546 -0.427 -0.721 10 10 12 0 0
1.5071 2.7755 0.2887 0.724 0.047 -0.688 16 16 18 0 0
1.0501 2.3541 0.4461 0.475 -0.863 -0.174 40 40 42 0 0
1.6657 3.4631 0.1679 0.517 0.223 -0.826 48 48 49 0 0
1.6066 2.9423 0.2576 0.735 0.278 -0.618 14 14 18 0 0
1.5991 2.9287 0.2612 0.847 -0.502 -0.175 12 12 14 0 0
1.5950 2.9150 0.2641 0.920 -0.308 -0.241 11 11 13 0 0
1.6690 3.2449 0.2139 0.477 0.513 -0.713 21 20 22 0 0
1.6175 2.9440 0.2695 0.796 0.371 -0.478 12 12 14 0 0
1.5991 2.9169 0.2774 0.920 -0.308 -0.241 11 11 13 0 0
1.5212 2.8074 0.3101 0.967 0.162 -0.196 13 13 15 0 0
1.7248 3.1885 0.2247 0.621 -0.235 -0.748 19 19 20 0 0
1.6018 2.9189 0.2909 0.914 -0.304 -0.269 12 12 14 0 0
1.5166 2.8656 0.3169 0.598 -0.398 -0.696 10 10 12 0 0
1.5087 2.8517 0.3207 0.563 -0.462 -0.685 11 11 13 0 0
1.5016 2.8379 0.3242 0.563 -0.462 -0.685 12 12 14 0 0
1.5019 2.8238 0.3263 0.324 0.139 -0.936 13 13 15 0 0
1.5094 2.8097 0.3268 0.324 0.139 -0.936 15 15 17 0 0
1.0013 2.3286 0.5062 0.507 -0.715 0.482 41 41 43 0 0
1.6296 2.9478 0.2950 0.892 0.263 -0.368 17 17 19 0 0
1.6235 2.9342 0.2984 0.942 -0.143 -0.305 13 13 15 0 0
1.6048 2.9209 0.3043 0.959 -0.229 -0.169 12 12 14 0 0
1.5099 2.8959 0.3284 0.399 -0.322 -0.858 11 11 13 0 0
1.5219 2.8675 0.3301 0.659 0.084 -0.748 11 11 13 0 0
1.5146 2.8397 0.3358 0.437 0.030 -0.899 12 12 14 0 0
1.6116 2.9505 0.3129 0.856 -0.469 0.217 18 18 20 0 0
1.5426 2.8691 0.3399 0.512 -0.820 -0.254 11 11 13 0 0
1.5272 2.8555 0.3453 0.616 0.143 -0.775 12 12 14 0 0
1.7868 3.3542 0.2292 0.855 0.051 -0.516 30 30 32 0 0
1.6250 2.9522 0.3242 0.988 -0.044 -0.148 16 16 18 0 0
1.5273 2.8996 0.3533 0.694 0.367 -0.620 13 13 15 0 0
1.4382 2.7888 0.3891 0.519 -0.012 0.855 26 26 28 0 0
0.9435 2.3323 0.5646 0.597 -0.633 0.493 64 64 66 0 0
1.6320 2.9679 0.3347 0.897 -0.417 -0.144 26 26 28 0 0
1.6274 2.9542 0.3378 0.940 -0.335 -0.068 18 18 20 0 0
1.4034 2.8057 0.4090 0.570 0.055 0.820 25 25 27 0 0
0.9295 2.3337 0.5831 0.588 -0.675 0.446 64 64 66 0 0
1.6388 2.9282 0.3535 0.817 0.576 0.027 14 14 16 0 0
1.5472 2.8752 0.3817 0.680 0.415 0.604 12 12 14 0 0
1.3845 2.8081 0.4276 0.639 0.099 0.763 27 27 29 0 0
1.3681 2.7941 0.4333 0.439 -0.416 0.796 28 28 31 0 0
1.3689 2.7798 0.4353 0.587 0.332 0.738 30 30 33 0 0
1.2396 2.4916 0.5066 0.466 -0.563 0.683 45 45 47 0 0
0.9100 2.3350 0.6028 0.959 -0.186 0.212 60 60 61 0 0
1.8224 3.4393 0.2511 0.931 0.042 -0.364 35 36 36 0 0
1.8395 3.2483 0.2757 0.832 -0.056 -0.553 21 21 21 0 0
1.6260 2.9307 0.3704 0.858 -0.476 -0.190 16 16 18 0 0
1.5269 2.8778 0.4004 0.752 0.242 0.613 13 13 15 0 0
1.2638 2.5808 0.5031 0.789 -0.509 0.344 39 39 41 0 0
1.2465 2.5227 0.5156 0.621 -0.375 0.689 44 44 46 0 0
1.2312 2.5079 0.5212 0.580 -0.452 0.678 45 45 47 0 0
1.8221 3.4281 0.2670 0.911 0.076 -0.406 40 40 39 0 0
1.6467 2.9598 0.3759 0.781 -0.517 -0.350 16 16 18 0 0
1.2318 2.5099 0.5359 0.558 -0.363 0.746 46 46 48 0 0
1.2266 2.4953 0.5393 0.456 -0.607 0.651 47 47 49 0 0
0.8934 2.3383 0.6374 0.637 -0.033 0.770 51 51 51 0 0
1.6528 2.9617 0.3887 0.787 -0.599 -0.147 17 17 19 0 0
1.1943 2.5258 0.5572 0.541 -0.319 0.779 45 45 47 0 0
1.2035 2.4968 0.5594 0.458 -0.594 0.661 48 48 50 0 0
1.1163 2.4363 0.5881 0.421 -0.894 0.155 55 55 56 0 0
0.8977 2.3555 0.6496 0.721 0.306 0.622 49 49 49 0 0
0.8754 2.3397 0.6571 0.698 0.199 0.688 45 45 45 0 0
1.8515 3.2405 0.3164 0.503 -0.437 -0.746 14 14 16 0 0
1.6115 3.0071 0.4058 0.837 -0.194 -0.512 32 32 34 0 0
1.2061 2.5426 0.5672 0.337 -0.923 -0.187 43 43 45 0 0
1.1414 2.4536 0.5952 0.678 -0.627 0.385 54 54 56 0 0
1.8501 3.4188 0.3044 0.938 0.037 -0.345 21 21 23 0 0
1.8558 3.4048 0.3052 0.765 -0.387 -0.515 24 23 26 0 0
1.8503 3.4347 0.3161 0.943 0.225 -0.246 38 38 37 0 0
1.8636 3.4063 0.3173 0.980 -0.170 0.103 22 22 23 0 0
1.8752 3.3917 0.3167 0.991 0.109 -0.075 22 22 24 0 0
1.8768 3.3781 0.3184 0.991 0.109 -0.075 23 23 25 0 0
1.8779 3.3645 0.3202 0.920 0.227 -0.318 23 23 25 0 0
1.0652 2.4262 0.6476 0.474 -0.730 0.493 47 47 49 0 0
0.7069 2.2936 0.7503 0.571 -0.448 0.688 41 41 43 0 0
1.5426 3.6635 0.3681 0.565 0.676 -0.473 61 61 61 0 0
1.8829 3.3663 0.3328 0.939 0.256 -0.228 22 22 24 0 0
1.5003 3.1172 0.4591 0.310 -0.935 -0.175 17 17 19 0 0
0.6138 2.2452 0.7953 0.441 -0.179 -0.879 42 42 44 0 0
1.7986 3.5262 0.3430 0.786 -0.450 -0.424 26 25 30 0 0
1.5118 3.1188 0.4709 0.310 -0.935 -0.175 17 17 19 0 0
0.6403 2.2794 0.8003 0.117 0.318 -0.941 38 38 40 0 0
0.6601 2.2647 0.7979 0.124 0.392 -0.912 39 39 41 0 0
1.8328 3.5249 0.3494 0.632 -0.271 -0.726 28 27 30 0 0
1.8112 3.4863 0.3602 0.726 -0.299 -0.619 34 32 33 0 0
1.6544 2.9465 0.4774 0.476 -0.512 -0.715 20 20 22 0 0
1.5427 2.9223 0.5075 0.416 -0.902 -0.118 19 19 21 0 0
1.8546 3.5249 0.3584 0.708 -0.630 -0.319 26 26 28 0 0
1.8697 3.4962 0.3591 0.715 -0.087 -0.693 30 28 29 0 0
1.8765 3.4820 0.3595 0.547 -0.194 -0.814 33 31 32 0 0
1.6707 2.9481 0.4879 0.572 -0.636 -0.517 21 21 23 0 0
1.5442 2.9244 0.5216 0.328 -0.936 -0.126 20 20 22 0 0
0.8460 2.3372 0.7752 0.318 0.865 0.388 37 37 39 0 0
0.7097 2.2862 0.8153 0.656 -0.753 -0.047 37 37 39 0 0
1.8961 3.4958 0.3669 0.654 -0.179 -0.735 23 22 25 0 0
0.7074 2.2880 0.8318 0.398 -0.108 -0.911 36 36 38 0 0
1.5064 3.0856 0.5363 0.504 -0.325 -0.800 31 31 33 0 0
1.6837 2.9518 0.5132 0.833 -0.405 -0.377 21 21 23 0 0
1.5638 2.9280 0.5458 0.328 -0.936 -0.126 23 23 25 0 0
1.5043 2.9016 0.5641 0.321 0.165 -0.933 24 24 26 0 0
1.6154 2.9424 0.5458 0.435 -0.815 -0.384 24 24 26 0 0
1.5658 2.9300 0.5597 0.273 -0.949 -0.161 24 24 26 0 0
1.4716 2.8905 0.5885 0.424 -0.278 -0.862 26 26 28 0 0
1.8812 3.3847 0.4438 0.916 0.373 0.149 18 18 19 0 0
1.6904 2.9718 0.5522 0.921 -0.310 -0.235 33 33 35 0 0
1.6866 2.9580 0.5552 0.921 -0.310 -0.235 28 28 30 0 0
1.5548 2.9206 0.5933 0.260 -0.951 -0.165 27 27 29 0 0
1.6825 3.0298 0.5601 0.919 -0.132 -0.372 36 36 38 0 0
1.6824 2.9742 0.5684 0.825 0.467 -0.320 34 34 36 0 0
1.6904 2.9600 0.5685 0.825 0.467 -0.320 31 31 33 0 0
1.8507 3.4330 0.4727 0.943 0.291 -0.163 55 53 56 0 0
1.8830 3.2263 0.4953 0.544 -0.604 0.582 12 12 14 0 0
1.6817 3.0319 0.5746 0.862 0.375 -0.342 37 37 39 0 0
1.6905 3.0177 0.5745 0.798 0.489 -0.352 38 38 40 0 0
1.6596 2.9772 0.5883 0.646 0.546 -0.533 34 34 36 0 0
1.6686 2.9629 0.5881 0.685 0.527 -0.503 32 32 34 0 0
0.4917 2.2124 0.9946 -0.186 -0.162 -0.969 34 34 36 0 0
1.9002 3.3357 0.4890 0.733 0.638 -0.236 34 33 36 0 0
1.8962 3.2954 0.4960 0.354 0.052 -0.934 13 13 15 0 0
1.6861 3.0339 0.5878 0.862 0.375 -0.342 38 38 40 0 0
1.6976 3.0195 0.5870 0.970 -0.145 -0.196 39 39 41 0 0
1.6568 2.9794 0.6033 0.795 -0.108 -0.597 34 34 36 0 0
1.6613 2.9653 0.6042 0.691 0.365 -0.624 33 33 35 0 0
1.5501 2.9130 0.6401 0.266 -0.955 -0.132 32 32 34 0 0
1.5222 2.8996 0.6491 0.374 -0.812 -0.447 31 31 33 0 0
1.4239 2.8451 0.6820 0.207 -0.974 -0.087 25 25 27 0 0
1.9207 3.3092 0.5019 0.685 0.403 -0.607 33 33 35 0 0
1.6988 3.0355 0.5989 0.993 -0.101 -0.063 38 38 40 0 0
1.6976 3.0216 0.6013 0.993 -0.101 -0.063 39 39 41 0 0
1.6960 3.0078 0.6038 0.973 -0.196 -0.124 38 38 40 0 0
1.6471 2.9819 0.6200 0.613 -0.768 -0.186 34 34 36 0 0
1.6996 3.0376 0.6130 0.985 -0.027 -0.169 38 38 40 0 0
1.4888 2.8479 0.6952 0.320 -0.886 -0.336 27 27 29 0 0
1.7932 3.4066 0.5488 0.570 0.623 0.536 14 12 15 0 0
1.6435 3.0843 0.6352 0.971 -0.094 -0.221 33 33 35 0 0
1.7020 3.0396 0.6267 0.985 -0.027 -0.169 38 38 40 0 0
1.6558 2.9859 0.6466 0.432 -0.815 -0.387 33 33 35 0 0
1.5019 2.8497 0.7065 0.366 -0.875 -0.316 31 31 33 0 0
1.6359 3.0869 0.6515 0.951 -0.284 -0.121 32 32 34 0 0
1.6682 2.9875 0.6579 0.493 -0.778 -0.388 33 33 35 0 0
1.5092 2.8516 0.7193 0.165 -0.900 -0.403 35 35 37 0 0
1.6505 3.0744 0.6643 0.936 -0.274 -0.221 35 35 37 0 0
1.6811 2.9891 0.6689 0.492 -0.816 -0.304 34 34 36 0 0
1.5426 2.9097 0.7169 0.934 0.358 0.001 36 36 38 0 0
1.8661 3.4341 0.5690 0.322 -0.788 -0.525 32 32 34 0 0
1.5966 2.9264 0.7301 0.954 0.282 -0.103 36 36 38 0 0
1.6007 2.9121 0.7311 1.000 0.012 -0.016 36 36 38 0 0
1.8069 3.4308 0.6141 0.337 -0.875 0.346 24 24 26 0 0
1.8230 3.4155 0.6121 0.662 -0.134 0.738 30 30 32 0 0
1.6934 2.9811 0.7110 0.748 -0.652 0.126 31 30 35 0 0
1.6831 2.9675 0.7158 0.615 -0.783 -0.087 32 31 35 0 0
1.5951 2.9285 0.7450 0.972 0.235 0.032 37 37 39 0 0
1.6004 2.9143 0.7457 0.999 0.033 0.008 36 36 38 0 0
1.5953 2.9003 0.7492 0.948 -0.262 0.178 36 36 38 0 0
1.6951 2.9832 0.7250 0.853 -0.513 -0.097 34 33 38 0 0
1.6874 2.9695 0.7291 0.853 -0.513 -0.097 30 29 33 0 0
1.5941 2.9307 0.7599 0.972 0.235 0.032 37 37 39 0 0
1.6002 2.9164 0.7604 0.999 0.033 0.008 38 38 40 0 0
1.5958 2.9024 0.7636 0.945 -0.319 0.076 38 38 40 0 0
1.6529 3.0993 0.7339 0.544 -0.801 -0.249 26 25 29 0 0
1.6949 2.9853 0.7395 0.768 -0.610 -0.195 35 34 39 0 0
1.6900 2.9715 0.7428 0.875 -0.451 -0.175 30 29 33 0 0
1.6902 2.9576 0.7448 0.813 -0.511 -0.281 31 31 33 0 0
1.5829 2.8766 0.7858 0.681 0.107 -0.725 39 38 43 0 0
1.5560 2.8631 0.7951 0.820 0.333 -0.465 39 38 43 0 0
0.8825 2.3896 1.0473 0.500 -0.857 0.123 38 37 42 0 0
1.6822 3.1139 0.7386 0.292 -0.905 -0.308 18 18 20 0 0
1.6548 3.1014 0.7479 0.408 -0.830 -0.379 26 26 28 0 0
1.6879 2.9877 0.7558 0.521 -0.849 0.084 37 37 40 0 0
1.6937 2.9735 0.7563 0.875 -0.451 -0.175 30 30 32 0 0
1.6967 2.9595 0.7576 0.783 -0.529 -0.328 30 30 32 0 0
1.6103 2.9203 0.7869 0.967 -0.219 0.130 39 38 42 0 0
1.5929 2.9067 0.7936 0.688 -0.707 -0.166 39 38 43 0 0
1.6072 2.8922 0.7919 0.427 -0.838 -0.339 39 38 43 0 0
1.6182 2.8778 0.7910 0.715 0.307 -0.628 38 37 42 0 0
1.5976 2.8642 0.7986 0.674 0.110 -0.731 39 38 43 0 0
1.5496 2.8512 0.8136 0.961 0.072 0.267 41 40 45 0 0
0.8817 2.3915 1.0634 0.545 -0.753 0.368 46 45 50 0 0
1.6633 2.9768 0.7789 0.922 0.113 0.371 31 31 33 0 0
1.7010 2.9614 0.7708 0.935 -0.322 -0.152 29 29 31 0 0
1.6971 2.9476 0.7740 0.894 -0.428 -0.133 30 30 32 0 0
1.6152 2.8941 0.8043 0.583 -0.812 0.037 39 38 43 0 0
1.6285 2.8796 0.8028 0.926 0.282 0.253 40 39 44 0 0
1.6326 2.8654 0.8038 0.926 0.282 0.253 40 39 44 0 0
1.5473 2.8533 0.8289 0.899 -0.030 0.436 41 40 45 0 0
1.4421 2.7838 0.8681 0.480 -0.813 0.328 45 45 47 0 0
0.5530 2.1141 1.2108 0.831 -0.539 -0.140 31 30 35 0 0
1.9790 3.2368 0.6682 0.470 -0.506 -0.723 11 11 13 0 0
1.6552 2.9793 0.7956 0.825 -0.408 0.392 34 34 36 0 0
1.6604 2.9651 0.7963 0.856 -0.245 0.455 28 28 30 0 0
1.7033 2.9495 0.7867 0.960 -0.173 -0.220 29 29 31 0 0
1.5394 2.8556 0.8458 0.818 0.008 0.575 41 40 45 0 0
0.8440 2.3945 1.1058 0.508 -0.199 0.838 57 56 61 0 0
1.5977 3.0686 0.8132 0.921 -0.321 -0.221 35 35 37 0 0
1.7039 3.0215 0.7907 0.941 0.238 0.239 44 43 49 0 0
1.6496 2.9676 0.8138 0.765 -0.222 0.605 29 29 31 0 0
1.5979 2.9271 0.8341 0.804 0.557 -0.209 34 33 38 0 0
1.5204 2.8582 0.8658 0.563 0.003 0.827 41 40 45 0 0
1.4120 2.7740 0.9083 0.523 -0.850 0.057 47 47 50 0 0
1.1880 2.6584 0.9876 0.348 -0.792 0.501 54 54 55 0 0
1.1546 2.6436 0.9991 0.340 -0.839 0.425 55 55 56 0 0
1.8045 3.6825 0.6795 0.369 0.894 -0.254 26 26 28 0 0
1.5969 3.0709 0.8281 0.995 -0.046 -0.087 34 34 36 0 0
1.6999 3.0238 0.8063 0.983 0.147 0.114 44 43 48 0 0
1.6371 2.9702 0.8317 0.740 -0.378 0.556 29 29 31 0 0
1.5830 2.9155 0.8549 0.266 0.957 0.114 37 36 40 0 0
1.4107 2.7761 0.9237 0.773 -0.633 0.044 47 46 51 0 0
1.3603 2.7477 0.9420 0.216 -0.973 0.077 50 49 54 0 0
1.1612 2.6606 1.0105 0.338 -0.796 0.503 58 58 59 0 0
1.1368 2.6456 1.0195 0.347 -0.797 0.494 58 58 58 0 0
1.6187 3.0862 0.8347 0.848 -0.249 -0.468 29 29 31 0 0
1.6839 3.0267 0.8252 0.785 0.545 0.295 41 40 45 0 0
1.6290 2.9727 0.8486 0.724 -0.621 0.301 31 31 33 0 0
1.6261 2.9587 0.8515 0.847 0.031 0.530 24 24 26 0 0
1.4854 2.8489 0.9073 0.534 -0.232 0.813 41 40 45 0 0
1.2102 2.6626 1.0122 0.339 -0.826 0.451 61 61 62 0 0
1.6262 3.0880 0.8473 0.848 -0.249 -0.468 27 27 29 0 0
1.6250 3.0739 0.8497 0.998 -0.026 -0.053 34 34 36 0 0
1.6758 3.0292 0.8419 0.785 0.545 0.295 40 39 44 0 0
1.6207 2.9610 0.8676 0.960 -0.129 0.248 25 25 27 0 0
1.4708 2.7938 0.9348 0.442 0.492 0.750 43 43 46 0 0
1.1998 2.6795 1.0283 0.401 -0.663 0.632 63 63 65 0 0
0.7876 2.2923 1.2023 0.398 -0.905 0.151 45 45 47 0 0
1.6258 3.0761 0.8641 0.998 -0.026 -0.053 32 33 35 0 0
1.6257 3.0620 0.8663 0.986 -0.144 -0.088 36 36 38 0 0
1.6264 2.9488 0.8828 0.971 0.213 0.105 22 21 23 0 0
1.4313 2.8400 0.9545 0.670 -0.064 0.739 39 38 42 0 0
1.4191 2.7968 0.9643 0.451 0.569 0.688 44 43 48 0 0
1.2071 2.6965 1.0395 0.309 -0.861 0.403 64 65 64 0 0
0.8213 2.3266 1.2041 0.588 -0.209 0.781 47 46 50 0 0
0.7467 2.2771 1.2326 0.644 -0.665 0.379 44 43 47 0 0
0.4846 2.0578 1.3397 0.764 -0.058 -0.642 166 165 166 0 0
0.4842 2.0417 1.3422 0.689 -0.214 -0.692 170 169 170 0 0
1.6364 3.0636 0.8779 0.914 0.029 -0.405 36 35 38 0 0
1.6237 2.9511 0.8983 0.969 0.244 -0.031 22 20 23 0 0
0.7308 2.2628 1.2559 0.575 -0.795 0.193 43 42 47 0 0
0.4977 2.0606 1.3526 0.867 0.172 -0.467 169 169 169 0 0
1.9605 3.2401 0.7734 0.871 -0.466 -0.153 13 13 15 0 0
1.6421 3.0656 0.8910 0.914 0.029 -0.405 35 35 37 0 0
1.6372 2.9386 0.9112 0.898 -0.433 -0.082 20 20 22 0 0
1.6004 2.9257 0.9238 0.189 -0.923 -0.335 21 21 23 0 0
1.3273 2.7880 1.0228 0.637 0.665 0.389 46 45 50 0 0
0.7817 2.3759 1.2411 0.398 0.469 0.788 44 45 49 0 0
0.8113 2.3613 1.2347 0.448 0.374 0.812 46 45 50 0 0
0.7920 2.3296 1.2450 0.367 -0.766 0.528 45 44 49 0 0
0.7109 2.2640 1.2780 0.672 -0.712 0.204 44 43 48 0 0
1.6479 3.0675 0.9041 0.914 0.029 -0.405 34 33 36 0 0
1.6519 2.9261 0.9238 0.548 -0.757 -0.355 20 20 22 0 0
0.7615 2.3462 1.2679 0.584 -0.222 0.781 46 45 50 0 0
0.7247 2.2822 1.2880 0.670 -0.705 0.232 46 45 50 0 0
0.7001 2.2655 1.2976 0.677 -0.669 0.306 46 45 50 0 0
1.7257 2.9958 0.9070 0.945 -0.066 -0.320 51 51 52 0 0
1.6468 2.9284 0.9400 0.537 -0.734 -0.417 20 20 22 0 0
0.6936 2.3302 1.3067 0.412 -0.781 0.470 45 46 48 0 0
0.6951 2.2673 1.3155 0.660 -0.719 0.220 48 48 50 0 0
1.7217 2.9981 0.9227 0.837 0.450 -0.311 49 49 51 0 0
1.6221 2.9172 0.9639 0.567 -0.808 -0.162 20 20 22 0 0
1.5680 2.9046 0.9817 0.058 -0.935 -0.351 20 20 22 0 0
0.7053 2.5213 1.2917 0.498 0.690 0.525 57 57 57 0 0
0.6873 2.3478 1.3226 0.436 0.420 0.796 40 41 44 0 0
0.6588 2.2836 1.3405 0.660 -0.668 0.344 46 46 48 0 0
0.6728 2.2684 1.3386 0.794 -0.567 0.222 48 48 50 0 0
0.5724 2.1845 1.3806 0.586 -0.618 0.524 69 67 68 0 0
1.9483 3.3181 0.8233 0.870 -0.451 0.201 19 19 21 0 0
2.0042 3.2458 0.8175 0.440 -0.790 -0.427 12 12 14 0 0
1.6222 3.0470 0.9598 0.977 -0.197 -0.082 36 36 38 0 0
1.7258 3.0001 0.9361 0.792 0.529 -0.303 46 45 48 0 0
0.6440 2.2851 1.3615 0.814 -0.409 0.412 47 47 49 0 0
0.6557 2.2697 1.3603 0.739 -0.605 0.295 49 49 51 0 0
0.6538 2.2538 1.3632 0.750 -0.587 0.306 53 53 55 0 0
0.6453 2.2376 1.3681 0.538 -0.693 0.479 63 63 64 0 0
1.7344 2.9879 0.9503 0.847 0.528 0.063 48 47 52 0 0
1.6131 2.9217 0.9961 0.440 -0.898 -0.002 22 22 24 0 0
0.6139 2.3495 1.3778 0.439 0.102 0.893 33 34 38 0 0
1.9412 3.3233 0.8537 0.920 -0.372 0.121 29 29 31 0 0
1.7321 2.9901 0.9656 0.883 0.422 0.207 46 45 50 0 0
0.6100 2.2878 1.4050 0.843 -0.306 0.443 53 51 53 0 0
0.5179 2.1878 1.4473 0.584 -0.659 0.475 149 149 149 0 0
0.4916 2.1704 1.4578 0.600 -0.611 0.517 163 163 163 0 0
1.5907 3.0409 1.0155 0.967 -0.200 0.156 37 37 39 0 0
0.6144 2.2900 1.4203 0.847 -0.307 0.434 59 57 60 0 0
0.5212 2.2061 1.4608 0.550 -0.627 0.551 163 163 163 0 0
1.5878 3.0575 1.0291 0.981 -0.196 -0.000 33 33 35 0 0
1.6143 2.9139 1.0424 0.867 -0.391 0.309 22 22 24 0 0
0.5294 2.3370 1.4561 0.921 0.187 0.341 45 43 46 0 0
0.5432 2.3214 1.4542 0.948 0.212 0.238 52 50 53 0 0
1.9606 3.3285 0.8908 0.565 -0.710 -0.420 14 14 16 0 0
1.5893 3.0454 1.0457 0.984 0.179 0.019 36 35 40 0 0
0.6063 2.4532 1.4326 0.577 0.781 -0.239 58 59 63 0 0
0.5378 2.3393 1.4703 0.875 0.320 -0.363 54 54 54 0 0
0.6291 2.3265 1.4444 0.673 -0.310 0.671 61 61 61 0 0
0.5468 2.2434 1.4817 0.628 -0.589 0.508 165 165 165 0 0
1.7258 3.1115 1.0094 0.497 -0.866 0.055 13 13 15 0 0
1.7014 3.0987 1.0187 0.403 -0.914 -0.032 14 14 16 0 0
1.6752 3.0860 1.0286 0.418 -0.907 -0.049 16 16 18 0 0
1.5764 2.8765 1.0899 0.240 -0.684 -0.689 19 19 21 0 0
0.6069 2.4554 1.4491 0.499 0.658 -0.565 74 75 78 0 0
0.6078 2.2959 1.4724 0.967 -0.250 -0.051 118 118 118 0 0
0.6005 2.2637 1.4794 0.991 -0.052 -0.122 164 164 164 0 0
0.6000 2.2477 1.4819 0.991 -0.052 -0.122 169 169 169 0 0
1.9545 3.3472 0.9191 0.128 -0.856 -0.501 12 12 14 0 0
1.9751 3.2226 0.9312 0.912 0.216 -0.348 12 12 14 0 0
1.6474 3.0755 1.0539 0.898 -0.416 -0.145 22 22 24 0 0
1.6416 3.0616 1.0577 0.898 -0.416 -0.145 28 27 32 0 0
1.6290 3.0479 1.0636 0.732 -0.665 -0.146 33 32 37 0 0
1.7263 2.9590 1.0468 0.719 -0.680 -0.140 48 48 52 0 0
1.6315 2.9056 1.0839 0.929 0.211 -0.305 23 23 25 0 0
0.6257 2.3464 1.4765 0.722 -0.380 -0.578 99 99 99 0 0
0.6204 2.3303 1.4805 0.861 -0.366 -0.354 118 118 118 0 0
0.6178 2.3143 1.4837 0.908 -0.306 -0.287 139 139 139 0 0
0.6040 2.2819 1.4927 0.975 -0.199 -0.095 168 168 168 0 0
1.7282 2.9751 1.0589 0.877 -0.480 -0.037 44 43 47 0 0
1.5873 3.0257 1.1103 0.980 0.085 0.180 36 36 40 0 0
1.7306 2.9772 1.0729 0.795 -0.597 -0.107 41 41 43 0 0
1.7302 2.9631 1.0751 0.792 -0.571 -0.216 45 45 49 0 0
1.6230 2.9101 1.1163 0.918 0.331 -0.218 35 35 37 0 0
1.5935 3.0133 1.1255 0.970 -0.147 -0.195 37 37 39 0 0
2.0063 3.2565 0.9747 0.013 -0.934 -0.357 17 17 19 0 0
2.0275 3.2414 0.9703 0.667 -0.554 -0.498 16 16 18 0 0
1.5963 3.0154 1.1397 0.870 -0.135 0.475 37 37 39 0 0
1.6568 2.9133 1.1357 0.954 -0.113 -0.279 39 39 41 0 0
2.0248 3.2438 0.9853 0.621 -0.745 -0.245 16 16 18 0 0
1.3420 2.7188 1.2795 0.536 -0.665 -0.520 43 44 48 0 0
2.0392 3.2449 0.9951 0.409 -0.457 -0.790 17 17 19 0 0
2.0477 3.2308 0.9945 0.343 -0.163 -0.925 17 17 19 0 0
1.6806 2.9190 1.1729 0.831 0.556 0.022 44 43 48 0 0
1.6378 3.0367 1.1846 0.995 0.096 0.002 26 24 28 0 0
1.5683 3.0111 1.2108 0.933 -0.358 -0.019 37 36 41 0 0
1.5439 2.9977 1.2206 0.896 -0.441 0.059 37 37 41 0 0
1.6380 2.9082 1.2035 0.861 -0.195 -0.469 45 44 49 0 0
1.6330 2.8798 1.2093 0.940 0.066 -0.336 28 28 30 0 0
1.5495 3.0141 1.2319 0.772 -0.634 0.049 36 36 41 0 0
1.5417 3.0000 1.2365 0.887 -0.434 0.154 37 38 42 0 0
1.6324 2.8820 1.2245 0.889 -0.307 -0.340 38 37 40 0 0
1.5326 2.8268 1.2651 0.205 -0.947 -0.249 20 20 22 0 0
2.0378 3.2131 1.0586 0.805 0.327 0.494 19 19 21 0 0
1.5457 3.0021 1.2504 0.905 -0.426 0.018 36 37 41 0 0
2.0659 3.2405 1.0600 0.753 0.452 0.478 22 22 24 0 0
2.0358 3.2291 1.0715 0.363 0.901 0.239 21 21 23 0 0
1.5417 2.9900 1.2690 0.993 -0.121 -0.001 38 37 42 0 0
1.6463 2.9430 1.2416 0.813 0.441 0.380 42 41 47 0 0
1.6613 2.9282 1.2389 0.843 0.216 0.492 45 44 50 0 0
1.6108 2.8581 1.2659 0.980 -0.138 0.143 23 23 27 0 0
1.6664 3.9145 1.1067 0.995 0.082 0.059 170 170 168 0 0
2.0884 3.2411 1.0671 0.948 0.277 0.157 21 21 23 0 0
2.0232 3.2323 1.0899 0.746 -0.376 0.550 21 21 23 0 0
1.5479 3.0064 1.2801 0.955 -0.275 -0.113 34 34 36 0 0
1.5420 2.9922 1.2841 0.993 -0.121 -0.001 37 38 42 0 0
1.5290 2.9782 1.2905 0.962 0.272 0.020 38 39 43 0 0
1.6612 2.9161 1.2561 0.752 0.535 0.385 49 48 53 0 0
1.5069 2.8047 1.3235 0.143 -0.954 -0.262 20 20 22 0 0
2.0024 3.1949 1.1170 0.773 0.632 -0.058 16 16 18 0 0
1.5775 3.0362 1.2814 0.966 0.243 0.088 20 20 22 0 0
1.5446 2.9943 1.2986 0.907 -0.344 -0.241 37 38 42 0 0
2.0324 3.2634 1.1116 0.982 -0.186 0.016 23 23 25 0 0
1.9991 3.2385 1.1264 0.987 0.149 0.065 21 21 23 0 0
2.0062 3.2106 1.1281 0.734 0.421 -0.532 18 18 20 0 0
2.0045 3.1970 1.1307 0.771 0.616 -0.160 17 17 19 0 0
2.0118 3.1828 1.1304 0.849 0.443 -0.287 16 16 18 0 0
1.5484 2.9964 1.3125 0.942 -0.304 -0.146 36 37 40 0 0
1.5361 2.9824 1.3187 0.999 -0.020 0.046 37 38 42 0 0
1.5511 2.9528 1.3181 0.953 0.162 0.256 39 39 43 0 0
1.5816 2.8364 1.3251 0.960 -0.116 -0.257 24 24 26 0 0
2.0301 3.2385 1.1307 0.845 0.271 -0.461 22 22 24 0 0
2.0224 3.2117 1.1373 0.550 0.165 -0.818 20 20 22 0 0
1.5221 2.9706 1.3408 0.941 0.108 0.322 37 38 42 0 0
1.6691 2.8937 1.3028 0.962 -0.157 0.222 49 48 53 0 0
1.5249 2.7962 1.3656 0.121 -0.896 -0.428 23 23 25 0 0
2.0579 3.2659 1.1320 0.763 0.547 0.346 23 23 25 0 0
1.5869 2.8261 1.3559 0.912 -0.174 -0.371 24 24 27 0 0
1.5711 2.8120 1.3633 0.653 -0.439 -0.618 25 25 27 0 0
1.5206 2.7839 1.3845 0.120 -0.800 -0.588 23 24 26 0 0
2.0389 3.2969 1.1486 0.700 0.000 -0.714 30 29 35 0 0
2.0404 3.2832 1.1501 0.749 0.141 -0.647 24 23 28 0 0
2.0433 3.2693 1.1511 0.781 0.151 -0.607 23 23 25 0 0
2.0724 3.2398 1.1456 0.988 0.157 -0.006 23 23 25 0 0
1.9849 3.1913 1.1825 0.960 0.132 -0.247 20 20 22 0 0
1.5649 2.8142 1.3807 0.975 -0.198 0.100 26 26 28 0 0
2.0436 3.2852 1.1634 0.921 0.322 -0.219 27 26 31 0 0
2.0406 3.1897 1.1785 0.890 0.145 -0.433 21 21 23 0 0
1.5673 2.8163 1.3952 0.886 -0.435 -0.163 27 27 29 0 0
2.0154 3.2897 1.1872 0.915 -0.373 0.151 36 35 38 0 0
2.0416 3.2056 1.1906 0.935 0.136 -0.326 23 23 25 0 0
2.0402 3.1920 1.1931 0.954 -0.079 -0.289 21 21 23 0 0
2.0369 3.1785 1.1962 0.920 -0.274 -0.280 17 17 19 0 0
1.5700 2.8039 1.4117 0.890 -0.455 0.023 28 28 30 0 0
2.0139 3.2921 1.2021 0.915 -0.373 0.151 30 30 32 0 0
1.9973 3.1971 1.2219 0.969 0.245 0.013 21 21 23 0 0
1.9835 3.1727 1.2451 0.799 -0.595 0.087 15 15 17 0 0
1.5766 2.9094 1.4251 0.650 0.744 0.154 40 39 44 0 0
1.8375 3.5637 1.2531 0.617 0.785 0.055 16 16 18 0 0
1.9970 3.1878 1.2531 0.873 -0.482 0.075 18 18 20 0 0
2.0485 3.1707 1.2377 0.975 -0.136 0.178 15 15 17 0 0
1.3565 2.6359 1.5579 0.293 -0.654 -0.698 51 52 56 0 0
2.0142 3.2851 1.2476 0.762 -0.506 -0.404 32 32 34 0 0
2.0208 3.2709 1.2474 0.884 -0.191 -0.427 29 29 31 0 0
2.0561 3.2271 1.2415 0.977 -0.213 -0.004 25 25 27 0 0
2.0127 3.2027 1.2603 0.966 -0.017 -0.258 20 20 22 0 0
2.0005 3.1898 1.2665 0.857 -0.515 0.033 18 18 20 0 0
2.0542 3.1725 1.2502 0.987 -0.107 0.120 15 15 17 0 0
1.5753 2.9718 1.4476 0.859 -0.265 0.438 31 32 36 0 0
1.6579 2.8538 1.4362 0.850 -0.526 -0.027 50 49 54 0 0
2.0199 3.2732 1.2622 0.715 -0.013 -0.699 27 27 29 0 0
2.0222 3.2593 1.2635 0.792 -0.220 -0.569 23 23 25 0 0
2.0539 3.2432 1.2547 0.887 -0.411 0.211 25 25 27 0 0
2.0567 3.2293 1.2558 0.977 -0.213 -0.004 25 25 27 0 0
2.0545 3.1747 1.2646 0.988 -0.151 -0.013 16 16 18 0 0
1.9606 3.6127 1.2479 -0.182 -0.215 -0.960 35 35 37 0 0
2.0635 3.2310 1.2679 0.937 0.318 -0.144 24 24 26 0 0
2.0610 3.2175 1.2708 0.809 -0.585 -0.064 23 23 25 0 0
2.0552 3.1769 1.2788 0.997 -0.066 -0.031 16 16 18 0 0
1.6601 2.8580 1.4658 0.937 -0.347 -0.048 47 46 51 0 0
2.0477 3.2481 1.2858 0.802 0.262 -0.537 24 24 26 0 0
2.0608 3.2198 1.2853 0.730 -0.116 -0.674 22 22 24 0 0
2.0495 3.1932 1.2933 0.893 0.435 0.114 18 18 20 0 0
1.6361 2.8319 1.4938 0.868 -0.486 0.098 55 54 59 0 0
1.6275 2.8176 1.4990 0.847 -0.531 -0.014 54 54 58 0 0
1.5053 2.7029 1.5594 0.003 0.740 -0.673 44 45 49 0 0
2.0599 3.2358 1.2981 0.794 0.323 -0.515 24 24 26 0 0
2.0623 3.1808 1.3054 0.818 0.544 0.187 17 17 19 0 0
1.5241 2.6903 1.5704 0.128 0.182 -0.975 39 40 44 0 0
2.0882 3.2359 1.3028 0.794 0.560 -0.237 23 23 25 0 0
2.0579 3.2245 1.3154 0.714 -0.695 -0.082 22 22 24 0 0
2.0661 3.2102 1.3145 0.765 -0.591 -0.256 21 21 23 0 0
2.0970 3.2375 1.3142 0.661 0.673 -0.332 23 23 25 0 0
2.0792 3.2252 1.3224 0.827 -0.438 -0.353 21 21 23 0 0
2.0601 3.2128 1.3312 0.678 -0.598 -0.427 21 21 23 0 0
2.0348 3.2008 1.3421 0.800 0.062 -0.597 19 19 21 0 0
2.0590 3.1718 1.3376 0.883 -0.366 0.294 16 16 18 0 0
1.7752 3.5622 1.3980 0.328 0.941 -0.086 18 18 20 0 0
2.0886 3.2130 1.3356 0.636 -0.335 0.695 21 21 23 0 0
1.5511 2.9905 1.5797 0.752 -0.624 0.212 18 18 20 0 0
1.6386 2.7991 1.5760 0.008 -0.604 -0.797 54 53 58 0 0
1.6120 2.7851 1.5878 -0.062 -0.614 -0.787 46 45 50 0 0
1.5987 2.7708 1.5948 0.030 -0.713 -0.701 41 42 46 0 0
2.0744 3.3008 1.3576 0.800 -0.589 0.117 40 40 42 0 0
2.0458 3.2343 1.3779 0.787 -0.154 -0.597 24 24 26 0 0
2.0527 3.2201 1.3775 0.961 -0.173 -0.214 22 22 24 0 0
1.5507 2.9928 1.5954 0.792 -0.600 0.109 18 18 20 0 0
1.6810 2.8868 1.5632 -0.027 0.377 -0.926 39 40 44 0 0
1.6465 2.7722 1.5928 0.002 -0.804 -0.594 39 40 44 0 0
2.1289 3.6939 1.2943 0.928 0.364 0.080 26 25 28 0 0
2.0740 3.3031 1.3723 0.846 -0.531 -0.033 35 34 38 0 0
2.0492 3.2363 1.3914 0.778 0.247 -0.578 21 21 23 0 0
2.0531 3.2223 1.3920 0.611 0.081 -0.787 21 21 23 0 0
2.0852 3.2063 1.3825 0.722 -0.032 -0.691 20 20 22 0 0
1.7918 2.8290 1.5465 0.354 -0.934 -0.048 53 53 56 0 0
2.0846 3.3205 1.3957 0.894 -0.435 -0.107 32 31 36 0 0
2.0800 3.3072 1.3994 0.789 -0.572 -0.223 36 35 40 0 0
2.0660 3.2808 1.4085 0.664 -0.696 -0.273 40 39 44 0 0
2.0806 3.2248 1.4113 0.604 0.115 -0.788 24 24 26 0 0
2.0631 3.2123 1.4197 0.584 -0.500 -0.640 22 22 24 0 0
2.0876 3.3226 1.4092 0.866 -0.448 -0.221 24 23 28 0 0
2.0920 3.3245 1.4222 0.892 -0.293 -0.344 13 12 15 0 0
2.0870 3.3112 1.4260 0.779 -0.448 -0.440 12 12 15 0 0
2.0876 3.2974 1.4278 0.699 -0.596 -0.395 14 14 16 0 0
2.0588 3.1757 1.4567 0.516 -0.529 -0.674 17 17 19 0 0
2.1015 3.3397 1.4313 0.825 -0.361 -0.434 12 12 14 0 0
2.0993 3.3262 1.4341 0.821 -0.324 -0.470 13 13 15 0 0
2.1318 3.1868 1.4424 0.644 0.449 -0.620 19 19 21 0 0
2.0930 3.1757 1.4588 0.413 -0.809 -0.419 18 18 20 0 0
1.9283 2.9765 1.5505 0.245 -0.087 -0.966 19 19 21 0 0
2.0983 3.3423 1.4471 0.413 -0.045 -0.910 12 12 14 0 0
2.1052 3.3005 1.4506 0.697 -0.394 -0.599 43 43 45 0 0
2.0997 3.2872 1.4547 0.617 -0.586 -0.526 44 44 46 0 0
1.9968 2.9897 1.5378 0.219 -0.969 -0.112 16 16 18 0 0
2.1107 3.3023 1.4632 0.712 -0.316 -0.627 42 41 44 0 0
2.1021 3.2893 1.4684 0.706 -0.542 -0.456 40 39 42 0 0
2.1245 3.3446 1.4667 0.835 -0.525 -0.168 43 43 45 0 0
2.1112 3.3183 1.4757 0.970 -0.153 -0.189 38 37 42 0 0
2.1071 3.3049 1.4792 0.965 -0.254 -0.059 44 43 48 0 0
2.1013 3.2917 1.4834 0.917 -0.391 -0.081 47 46 51 0 0
2.1163 3.3087 1.5051 0.965 -0.262 -0.020 32 31 36 0 0
2.1180 3.3109 1.5191 0.827 -0.251 -0.504 16 16 19 0 0
2.1158 3.2973 1.5219 0.727 -0.245 -0.641 16 16 18 0 0
2.1141 3.2837 1.5246 0.709 -0.288 -0.643 18 18 20 0 0
2.1474 3.2401 1.5181 0.792 -0.119 -0.599 34 34 36 0 0
2.1385 3.3389 1.5220 0.912 -0.281 -0.299 15 15 17 0 0
2.1280 3.3261 1.5280 0.827 -0.251 -0.504 13 13 15 0 0
2.1257 3.3125 1.5309 0.827 -0.251 -0.504 12 12 14 0 0
2.0998 3.1908 1.5590 0.445 -0.726 -0.524 22 22 23 0 0
2.0290 3.1401 1.5942 0.533 -0.784 -0.319 21 20 23 0 0
1.8588 2.8385 1.7054 0.232 -0.379 -0.896 45 46 51 0 0
1.8256 2.8107 1.7225 0.273 -0.756 -0.596 69 70 74 0 0
2.1409 3.3410 1.5357 0.820 -0.237 -0.521 13 12 15 0 0
2.1221 3.3289 1.5449 0.674 -0.076 -0.734 12 11 15 0 0
2.1324 3.3005 1.5450 0.532 -0.091 -0.842 33 32 36 0 0
2.1287 3.2871 1.5485 0.506 -0.285 -0.814 40 39 43 0 0
2.0717 3.0844 1.6008 0.716 -0.602 0.354 41 41 43 0 0
1.8706 2.8403 1.7160 0.374 -0.485 -0.791 65 66 68 0 0
1.8407 2.8267 1.7298 0.429 -0.860 -0.276 66 67 70 0 0
2.1076 3.2223 1.5814 0.723 0.143 -0.676 48 48 48 0 0
1.9303 2.8691 1.7037 0.614 -0.724 -0.315 47 48 52 0 0
1.9056 2.8557 1.7154 0.540 -0.583 -0.606 64 65 68 0 0
2.1596 3.3576 1.5559 0.728 -0.273 -0.629 27 27 29 0 0
2.1073 3.2245 1.5963 0.770 -0.084 -0.633 52 52 52 0 0
2.1035 3.2110 1.5998 0.793 -0.468 -0.390 50 50 50 0 0
1.9174 2.8575 1.7259 0.600 -0.564 -0.568 62 62 64 0 0
1.8890 2.8440 1.7392 0.474 -0.735 -0.485 52 53 56 0 0
2.1704 3.3589 1.5664 0.765 -0.360 -0.534 41 41 43 0 0
2.1665 3.3183 1.5739 0.760 -0.030 -0.650 29 29 31 0 0
2.1545 3.2782 1.5847 0.792 -0.323 -0.518 47 47 49 0 0
2.0894 3.1728 1.6262 0.780 -0.380 -0.496 83 83 83 0 0
1.9244 2.8594 1.7383 0.848 -0.430 -0.311 47 48 49 0 0
1.8962 2.8460 1.7516 0.676 -0.669 0.309 63 64 66 0 0
2.1645 3.2933 1.5934 0.714 -0.315 -0.626 38 38 42 0 0
2.0257 2.9564 1.6989 0.635 -0.686 -0.354 18 18 20 0 0
2.2644 3.3956 1.5531 0.656 -0.482 0.581 45 44 46 0 0
2.1071 3.1623 1.6509 0.659 -0.189 -0.728 55 56 56 0 0
2.1285 3.7829 1.5658 0.436 0.888 0.146 50 51 54 0 0
2.1755 3.7625 1.5498 0.436 0.888 0.146 47 48 52 0 0
2.2109 3.4031 1.5885 0.878 -0.137 -0.458 32 31 33 0 0
2.2100 3.3895 1.5909 0.878 -0.137 -0.458 24 24 26 0 0
2.1891 3.3232 1.6091 0.837 -0.401 -0.372 23 23 25 0 0
2.2165 3.3912 1.6029 0.944 -0.014 -0.330 18 19 21 0 0
2.2149 3.3778 1.6056 0.893 -0.122 -0.433 19 20 22 0 0
2.2063 3.3649 1.6110 0.834 -0.241 -0.496 18 19 21 0 0
2.2046 3.3514 1.6137 0.783 -0.437 -0.444 15 16 18 0 0
2.1975 3.3384 1.6185 0.717 -0.543 -0.436 15 16 18 0 0
2.1953 3.3249 1.6214 0.837 -0.401 -0.372 17 18 20 0 0
2.1222 3.2071 1.6685 0.562 -0.508 0.653 51 51 53 0 0
2.2220 3.3794 1.6174 0.823 -0.021 -0.568 13 14 16 0 0
2.2598 3.3217 1.6105 0.800 -0.518 0.303 17 18 20 0 0
2.2253 3.3951 1.6288 0.934 0.250 -0.256 12 13 15 0 0
2.2610 3.3103 1.6266 0.554 -0.511 0.658 28 29 31 0 0
2.2252 3.2861 1.6449 0.611 -0.500 0.614 43 44 48 0 0
1.3864 2.6000 2.0908 0.823 -0.178 -0.540 58 56 63 0 0
2.0528 2.9820 1.7759 0.669 -0.674 -0.313 40 38 43 0 0
2.0797 3.1358 1.7574 0.247 -0.158 -0.956 17 18 22 0 0
2.0689 2.9974 1.7823 0.759 -0.469 -0.452 37 35 38 0 0
2.1165 3.1496 1.7554 0.384 -0.103 -0.918 13 14 17 0 0
2.0435 3.0006 1.8077 0.748 -0.598 0.287 35 34 38 0 0
2.1388 3.0974 1.7842 0.809 -0.588 -0.033 56 55 60 0 0
2.1513 3.0829 1.7811 0.492 -0.275 -0.826 59 58 63 0 0
2.1394 3.0560 1.7901 0.564 -0.203 -0.800 31 30 35 0 0
2.1604 3.0846 1.7922 0.752 -0.496 -0.434 42 41 46 0 0
2.1511 3.0713 1.7981 0.625 -0.504 -0.596 28 27 33 0 0
1.8268 3.9825 1.8166 0.291 0.929 -0.227 74 74 76 0 0
2.1602 3.1165 1.8180 0.793 -0.454 -0.405 27 26 29 0 0
2.1547 3.1031 1.8224 0.793 -0.454 -0.405 29 29 32 0 0
2.1728 3.1318 1.8257 0.793 -0.454 -0.405 28 28 30 0 0
2.1940 3.1602 1.8276 0.853 -0.286 -0.437 26 26 28 0 0
2.2065 3.1891 1.8331 0.853 -0.286 -0.437 27 27 29 0 0
2.2036 3.1755 1.8364 0.853 -0.286 -0.437 26 26 28 0 0
2.2455 3.1886 1.8315 0.588 -0.141 -0.797 25 25 27 0 0
2.2775 3.3522 1.8086 0.962 -0.270 0.042 43 42 47 0 0
2.2717 3.3390 1.8131 0.921 -0.388 0.048 44 43 48 0 0
2.2866 3.1880 1.8288 0.163 0.179 -0.970 25 25 27 0 0
2.2951 3.1738 1.8272 0.096 0.156 -0.983 27 27 29 0 0
2.2956 3.1602 1.8290 0.067 0.078 -0.995 27 27 29 0 0
2.0176 3.7588 1.8777 0.645 -0.007 0.764 20 21 23 0 0
2.2757 3.3683 1.8221 0.999 0.028 0.042 45 44 50 0 0
2.2770 3.3545 1.8236 0.983 -0.168 0.074 45 44 49 0 0
2.2735 3.3412 1.8271 0.966 -0.208 0.151 47 46 49 0 0
2.2829 3.1904 1.8452 0.370 0.411 -0.833 25 25 27 0 0
2.3250 3.1740 1.8291 0.133 0.573 -0.808 25 25 27 0 0
2.2759 3.3569 1.8388 0.979 -0.158 0.125 47 46 51 0 0
2.2595 3.3174 1.8519 0.873 -0.437 0.217 37 37 40 0 0
2.2978 3.2869 1.8395 0.718 -0.451 0.530 20 20 23 0 0
1.9064 2.7329 2.0934 0.543 -0.792 -0.280 75 76 78 0 0
2.0786 3.6854 1.8928 -0.126 0.585 -0.801 26 26 28 0 0
2.2682 3.3326 1.8610 0.869 -0.479 -0.127 23 23 25 0 0
2.2553 3.3200 1.8685 0.855 -0.478 0.203 19 19 21 0 0
1.9394 2.7631 2.0903 0.599 -0.243 -0.763 68 69 71 0 0
1.9357 2.7489 2.0940 0.603 -0.442 -0.664 80 81 83 0 0
1.9152 2.7349 2.1051 0.543 -0.792 -0.280 68 69 71 0 0
1.9006 2.7207 2.1137 0.550 -0.805 -0.222 56 57 60 0 0
1.8338 2.7069 2.1453 0.020 -0.481 -0.876 49 49 53 0 0
2.2801 3.3748 1.8646 0.938 0.100 -0.332 33 33 37 0 0
2.2805 3.3611 1.8665 0.840 -0.093 -0.535 23 23 27 0 0
1.9519 2.7650 2.1003 0.642 -0.233 -0.731 76 77 79 0 0
1.9482 2.7508 2.1040 0.603 -0.442 -0.664 70 71 73 0 0
1.9256 2.7368 2.1161 0.531 -0.775 -0.342 59 60 62 0 0
1.9641 2.7669 2.1104 0.642 -0.233 -0.731 75 76 78 0 0
1.9606 2.7527 2.1140 0.603 -0.442 -0.664 60 61 65 0 0
1.9337 2.7388 2.1280 0.583 -0.785 -0.211 52 53 57 0 0
2.2351 3.6725 1.8713 0.685 0.639 -0.350 49 50 55 0 0
1.9830 2.7971 2.1133 0.547 -0.102 -0.831 57 56 61 0 0
1.9842 2.7829 2.1148 0.481 0.005 -0.877 75 76 78 0 0
1.9818 2.7687 2.1180 0.488 -0.107 -0.866 68 69 71 0 0
1.9730 2.7546 2.1240 0.603 -0.442 -0.664 56 57 61 0 0
1.9383 2.7408 2.1416 0.613 -0.765 -0.195 51 52 56 0 0
1.8562 3.9704 2.0132 0.317 0.947 -0.050 59 58 63 0 0
2.2445 3.6738 1.8822 0.549 0.287 -0.785 50 51 56 0 0
2.2583 3.6445 1.8803 0.606 0.146 -0.782 49 50 55 0 0
2.3054 3.6112 1.8640 0.768 0.637 0.059 49 48 53 0 0
2.0124 2.8128 2.1135 0.674 -0.688 -0.268 47 47 50 0 0
2.0121 2.7703 2.1199 0.214 0.255 -0.943 61 62 64 0 0
1.9964 2.7564 2.1290 0.452 -0.156 -0.878 51 52 56 0 0
2.0202 2.8147 2.1255 0.607 -0.614 -0.505 60 59 63 0 0
2.0265 2.8166 2.1381 0.555 -0.238 -0.797 71 70 73 0 0
2.1654 3.0799 2.0517 0.293 -0.921 0.256 12 12 14 0 0
1.7890 4.0216 2.1008 0.270 0.962 -0.039 93 93 95 0 0
2.1782 3.8177 1.9527 0.568 0.802 -0.185 46 47 51 0 0
2.3316 3.3453 1.9520 0.630 0.733 0.254 17 17 19 0 0
2.1354 3.0698 2.0825 0.381 -0.626 0.680 14 14 17 0 0
1.9180 3.9598 2.0669 0.342 0.922 -0.181 58 57 62 0 0
2.3578 3.3317 1.9572 0.415 -0.649 -0.637 20 20 22 0 0
2.3457 3.3192 1.9646 0.418 -0.597 -0.684 15 15 17 0 0
2.3363 3.2927 1.9728 0.677 -0.164 -0.718 12 12 14 0 0
1.8257 4.0066 2.1187 0.340 0.937 0.086 90 90 92 0 0
2.3682 3.3331 1.9673 0.605 -0.637 -0.478 16 16 18 0 0
2.3470 3.3077 1.9808 0.804 -0.471 -0.364 22 22 24 0 0
2.2332 3.0849 2.0816 0.586 -0.564 0.582 46 43 50 0 0
1.9097 3.9694 2.1175 0.408 0.888 0.211 82 82 85 0 0
2.3255 3.3688 2.0123 0.946 -0.155 -0.285 13 13 15 0 0
2.3742 3.2692 2.0042 0.762 -0.209 -0.612 26 26 28 0 0
2.3672 3.2426 2.0114 0.490 -0.514 -0.704 21 20 24 0 0
2.3594 3.2024 2.0210 0.879 -0.151 0.452 18 17 22 0 0
2.1976 3.0752 2.1151 -0.156 -0.649 -0.745 49 48 53 0 0
2.1612 3.0632 2.1338 -0.156 -0.682 -0.714 50 49 53 0 0
2.1797 3.6634 2.0524 0.361 0.896 -0.259 28 29 31 0 0
2.3796 3.2846 2.0147 0.913 -0.015 -0.408 23 23 25 0 0
2.3853 3.2706 2.0141 0.822 -0.035 -0.568 28 28 30 0 0
2.3542 3.2050 2.0382 0.917 -0.278 0.287 38 37 42 0 0
2.3488 3.1918 2.0427 0.917 -0.278 0.287 39 38 43 0 0
2.2742 3.1695 2.0809 0.764 -0.497 -0.411 44 43 48 0 0
2.3072 3.3340 2.0566 0.869 0.480 0.122 16 16 18 0 0
2.3925 3.2858 2.0236 0.791 0.155 -0.591 28 28 30 0 0
2.3966 3.2719 2.0237 0.693 -0.030 -0.720 31 31 33 0 0
2.3968 3.2584 2.0256 0.768 -0.281 -0.575 37 37 39 0 0
2.2968 3.1977 2.0815 0.687 -0.242 -0.685 45 44 49 0 0
2.3188 3.3216 2.0683 0.914 0.403 -0.047 30 30 32 0 0
2.3254 3.2389 2.0773 0.765 -0.596 0.244 45 45 47 0 0
2.3130 3.2262 2.0850 0.765 -0.596 0.244 46 46 48 0 0
2.3155 3.2123 2.0859 0.857 -0.510 0.075 46 45 49 0 0
2.3056 3.1993 2.0925 0.816 -0.074 -0.574 48 47 51 0 0
2.3058 3.1719 2.0965 0.456 -0.188 -0.870 43 42 47 0 0
2.3315 3.3228 2.0774 0.952 0.184 -0.245 42 42 42 0 0
2.3432 3.2808 2.0781 0.957 -0.161 0.240 45 45 45 0 0
2.2440 3.2059 2.1361 0.462 -0.257 0.849 32 32 34 0 0
2.3368 3.3383 2.0880 0.835 0.040 -0.548 44 44 44 0 0
2.3362 3.3247 2.0903 0.861 0.064 -0.505 44 44 44 0 0
2.3400 3.3107 2.0905 0.907 0.058 -0.418 46 46 46 0 0
2.4254 3.3350 2.0766 0.133 0.524 -0.841 34 34 35 0 0
2.3661 3.4245 2.1072 0.049 0.228 -0.973 45 45 49 0 0
2.3715 3.4103 2.1067 0.421 0.325 -0.847 43 43 45 0 0
2.3753 3.3009 2.1210 0.570 0.137 -0.810 17 17 19 0 0
2.3813 3.4389 2.1131 0.399 0.221 -0.890 39 39 43 0 0
2.3766 3.4258 2.1173 0.932 0.325 -0.163 35 36 40 0 0
2.3815 3.4117 2.1170 0.932 0.325 -0.163 32 33 35 0 0
2.3785 3.4143 2.1334 0.910 0.414 -0.034 27 28 30 0 0
2.3758 3.4442 2.1456 0.981 0.154 -0.118 30 31 33 0 0
2.3780 3.4167 2.1486 0.910 0.414 -0.034 26 26 28 0 0
2.2668 3.7491 2.1695 0.545 0.665 0.510 61 61 63 0 0
2.3902 3.4451 2.1538 0.956 0.270 -0.112 30 31 33 0 0
2.3505 3.4355 2.1746 0.852 0.156 0.500 28 29 31 0 0
2.3547 3.4214 2.1747 0.810 0.360 0.463 27 27 29 0 0
2.3251 3.3694 2.1968 0.645 0.488 0.588 18 18 20 0 0
2.3419 3.3541 2.1909 0.636 0.590 0.497 15 15 17 0 0
2.3118 3.6901 2.1717 0.824 0.506 0.257 50 51 55 0 0
2.3060 3.6771 2.1765 0.750 0.607 0.263 47 48 52 0 0
2.3523 3.5063 2.1788 0.701 -0.270 0.660 33 34 38 0 0
2.2916 3.3887 2.2260 0.770 0.588 0.249 21 21 23 0 0
2.3933 3.2448 2.2125 0.802 -0.589 -0.098 20 19 23 0 0
2.3918 3.2313 2.2152 0.909 -0.341 -0.240 25 25 27 0 0
2.3519 3.5936 2.1971 0.507 0.689 0.518 45 46 50 0 0
2.3688 3.5778 2.1910 0.598 0.554 0.580 45 46 50 0 0
2.3940 3.5611 2.1810 0.598 0.554 0.580 44 45 50 0 0
2.4134 3.5043 2.1797 0.504 0.861 0.073 42 43 47 0 0
2.3965 3.4676 2.2089 0.113 0.022 -0.993 45 46 50 0 0
2.4135 3.4385 2.2047 0.600 0.440 0.668 43 43 48 0 0
2.3613 3.4302 2.2319 0.642 0.276 0.716 43 43 48 0 0
2.2408 3.0941 2.3413 0.310 -0.752 -0.582 47 46 51 0 0
2.3708 3.3905 2.2485 0.788 0.230 0.571 45 46 50 0 0
2.3558 3.3644 2.2598 0.566 0.797 0.212 45 47 48 0 0
2.0870 3.8046 2.3455 0.291 0.760 -0.581 42 43 47 0 0
2.2941 3.5527 2.2786 0.499 0.386 0.776 34 34 38 0 0
2.3519 3.5322 2.2526 0.503 0.324 0.801 38 39 41 0 0
2.2754 3.1521 2.3469 0.504 -0.324 -0.801 40 40 42 0 0
2.0193 3.8602 2.3875 0.252 0.766 -0.592 49 50 52 0 0
2.0944 3.7919 2.3597 0.365 0.921 -0.139 41 42 46 0 0
2.1666 3.7392 2.3311 0.249 0.825 -0.507 36 37 41 0 0
2.2927 3.1393 2.3557 0.786 0.289 0.547 26 26 28 0 0
2.2902 3.0979 2.3631 0.621 -0.762 -0.182 32 32 34 0 0
2.0304 3.8469 2.4001 0.404 0.765 -0.501 50 51 53 0 0
1.8412 3.9662 2.4949 0.472 0.870 0.145 75 76 79 0 0
2.3047 3.2954 2.3581 0.609 0.250 0.753 16 16 18 0 0
2.3754 3.3330 2.3321 0.440 0.893 0.096 19 19 21 0 0
2.3177 3.1306 2.3914 0.975 -0.030 -0.222 17 17 19 0 0
1.7226 2.7798 2.7465 0.253 0.656 -0.711 57 56 61 0 0
2.3391 3.1176 2.3980 0.411 -0.769 -0.490 22 22 24 0 0
2.3523 3.1190 2.4066 0.418 -0.776 -0.473 24 24 26 0 0
2.3359 3.1062 2.4170 0.522 -0.785 -0.334 25 25 27 0 0
2.3198 3.0933 2.4271 0.682 -0.664 -0.306 28 28 30 0 0
2.3589 3.1208 2.4186 0.522 -0.785 -0.334 35 35 36 0 0
2.3452 3.1078 2.4276 0.522 -0.785 -0.334 33 33 34 0 0
2.3406 3.0943 2.4319 0.462 -0.607 -0.646 35 35 36 0 0
2.3324 3.0809 2.4381 0.467 -0.611 -0.638 37 37 40 0 0
2.3099 3.1122 2.4609 0.755 -0.577 0.312 41 40 44 0 0
1.3683 4.2633 2.7974 0.294 -0.940 0.175 89 89 89 0 0
2.0558 3.8045 2.5071 0.869 0.436 -0.234 32 31 35 0 0
2.0640 3.7746 2.5072 0.866 0.281 -0.413 38 37 43 0 0
2.2889 3.1853 2.4768 0.981 -0.056 0.185 42 42 47 0 0
2.2891 3.1574 2.4808 0.985 -0.125 -0.118 43 42 46 0 0
2.2150 2.9794 2.5455 0.368 -0.623 -0.690 49 48 53 0 0
2.2964 3.4099 2.4557 0.805 0.062 -0.590 43 44 48 0 0
2.2983 3.3958 2.4568 0.805 0.062 -0.590 43 44 48 0 0
2.2973 3.1173 2.4982 0.997 -0.074 0.013 45 45 46 0 0
2.2975 3.1034 2.5002 0.982 0.012 -0.187 45 45 47 0 0
2.2954 3.1197 2.5147 0.955 -0.106 -0.278 44 44 46 0 0
2.2700 3.4313 2.4982 0.953 0.193 0.233 37 38 42 0 0
2.2952 3.2195 2.5160 0.917 -0.028 -0.397 43 39 43 0 0
2.2975 3.2054 2.5169 0.960 0.138 -0.242 42 38 42 0 0
2.2960 3.1916 2.5197 0.977 -0.013 -0.211 40 36 40 0 0
2.2958 3.1777 2.5218 0.977 -0.134 -0.165 36 34 39 0 0
2.2945 3.1638 2.5246 0.983 -0.081 -0.162 35 35 38 0 0
2.3005 3.1495 2.5235 0.932 -0.357 0.066 36 36 38 0 0
2.2959 3.1358 2.5279 0.928 -0.342 0.147 34 34 36 0 0
2.2921 3.1221 2.5320 0.964 -0.194 0.180 33 33 35 0 0
2.3055 3.2071 2.5283 0.565 0.018 -0.825 25 24 27 0 0
2.3034 3.1794 2.5334 0.417 -0.334 -0.845 25 24 29 0 0
2.3065 3.1653 2.5339 0.295 -0.434 -0.851 25 25 28 0 0
1.5001 4.2695 2.8154 0.197 -0.854 -0.482 77 75 78 0 0
2.1413 3.6344 2.5685 0.638 0.459 0.618 41 41 46 0 0
2.1837 3.6007 2.5509 0.617 0.555 0.558 37 37 41 0 0
2.3194 3.2502 2.5304 0.994 0.059 -0.094 23 22 27 0 0
