ply
format ascii 1.0
element vertex 735
property float x
property float y
property float z
property uchar diffuse_red
property uchar diffuse_green
property uchar diffuse_blue
end_header
1.5507318891686745 2.623657680196067 2.9079065928533994 68 68 70
1.5245049610943613 2.6329947550413513 2.9206323377530494 67 67 69
1.05880469081635 3.1542153433597706 3.2014029093738614 67 66 69
1.0623071660347723 3.125388409763472 3.195450744822342 67 66 70
1.0100629857695764 3.1640708344805963 3.2238971859081325 67 66 70
0.9757179259081392 3.1808610730759534 3.241265579928746 65 65 69
1.333565223834572 2.7266968118087895 3.017246231198861 65 64 69
1.265955242198016 2.7845314228436484 3.0552580827747864 63 62 67
1.2250121826133669 2.810115434729874 3.076821695802555 62 61 66
0.9478015740289167 3.1161583133945676 3.2433017355689686 63 62 67
0.81978457719621 3.2433980264429882 3.3180099606462847 63 62 67
0.8268955742049804 3.2102580352999244 3.3098399186684753 61 60 65
0.8001111042363362 3.217133917389021 3.3224260818434708 58 57 62
0.7195410244227418 3.286924752277816 3.367858535269154 55 54 59
0.7900043485688679 3.179782900785745 3.3210158905813514 53 52 57
0.7941624071605564 3.150475395350594 3.314707512502526 52 51 56
0.8313756235658605 3.082958773067741 3.2882831255415947 53 52 57
0.8638480417572492 3.0213150108836078 3.2648043730016605 52 51 56
0.9065397452169905 2.948251382950326 3.2351671533756194 50 49 54
0.9333150981450185 2.8938923065808533 3.215263234306622 49 48 53
0.9375058587051313 2.8656783682808125 3.2091094066340506 48 47 52
0.9406118178814542 2.8388278727000404 3.203632628684636 48 47 52
0.9148431911475507 2.8449084207667967 3.2156590159323466 48 48 52
0.9035073395336035 2.8345365731098253 3.218937788684657 49 48 53
0.7910748482880559 2.938279614772184 3.2833165915205336 50 49 54
0.7332468390652804 2.9798295750790618 3.3146080348273177 51 50 55
0.6716356890381132 3.02527275357047 3.348127760688728 53 52 57
0.6544008672926724 3.020760752069616 3.354848547541841 53 54 57
0.6491416080696928 3.0028775418823517 3.3543542156564516 57 57 59
0.6891754705130506 2.9347855932419877 3.326627331297378 65 65 69
0.6892976980021295 2.911228310269026 3.322942314948893 74 77 80
0.7982889718486854 2.767765682948191 3.2539197740015475 78 80 79
0.823884718554097 2.716816579297754 3.2350492662621266 99 101 100
0.754966537428565 2.769619628197894 3.2728482217338875 145 146 145
0.7379110069412318 2.7654146414918475 3.279539195888019 189 190 190
0.7205012923005214 2.7615581180111404 3.2864363144716693 202 202 202
0.7037213597326064 2.7569800073662085 3.292951158985582 204 204 204
0.7054022071326198 2.7324283448055726 3.288442106329616 205 205 205
0.7859023333918798 2.6231318740177683 3.236948177235067 205 205 205
5.724578271263514 6.262666246254916 1.6895124988583168 191 191 191
5.716903131499729 6.2204116923523065 1.6862463841783528 191 191 191
2.2219915601245344 4.11640480517047 2.8667698697474133 203 203 203
2.2297155659991974 4.072327335965832 2.856575200601279 203 203 203
2.2116840088117184 4.072534200565513 2.864388069816637 203 203 203
2.238066776908508 3.997036331970416 2.8412507381233505 202 202 202
2.2359076154703104 3.9704539125649068 2.838044216212235 196 198 197
2.2337581218170297 3.9439830343235123 2.834850886745189 167 169 168
2.2312252286143908 3.9182846508512066 2.8319432529876596 112 113 115
2.223565177985539 3.901306756947338 2.832605559718158 86 86 91
2.2170777613688837 3.882424969896773 2.8324654840134347 77 77 83
2.2257417005229385 3.8383919478629602 2.8218721504095545 71 72 76
2.211368847689531 3.832820743838158 2.827206780632951 66 67 70
2.1937026645846096 3.8326606262659206 2.834804860163385 62 61 66
2.2414707292365206 3.7247295586603766 2.7973906918739413 56 55 60
2.243694988804939 3.6922163107152746 2.7913694329469663 54 53 58
2.1165183485240227 3.8712705544821184 2.874120683972227 51 50 55
2.0487759664227885 3.952185565546202 2.9159481120604682 49 48 53
2.06953251626922 3.888926150932096 2.897143724440698 48 47 52
2.094717010615998 3.8189120361445603 2.8753771319597274 48 47 52
2.10933497355167 3.766352644625896 2.8608872823551987 47 47 51
1.9604747895148091 3.9762418938846795 2.9577952664094007 46 47 51
1.9409133109762557 3.9779474219672717 2.966501604570997 44 45 49
1.9077340588273293 4.0012412242800695 2.984444793508883 44 44 49
1.8569267319862666 4.052242436771928 3.0143078826521146 44 43 48
1.796825554481339 4.117476214249027 3.0503969414814507 44 43 48
2.5911695731960775 2.787048305653258 2.500521597961847 44 43 48
2.52489082926203 2.8653031400574958 2.5413033404475645 44 43 48
2.4483339021381565 2.95886191951047 2.5889025813632336 44 43 48
2.4690168258745144 2.9014096896492747 2.571033994422903 45 44 49
2.4096465981409634 2.9675650547988504 2.606951114187 46 45 50
2.3797358000853563 2.9879830950930666 2.623036273420478 47 46 51
2.353492505388221 3.0025827949725734 2.6366331275754034 48 47 52
2.3197602278948386 3.0284159210951547 2.6552102565096876 50 49 54
1.9157031093865018 3.5605708140714043 2.9124049633405455 55 55 57
1.911382367538052 3.5396074562799384 2.911005914049873 56 56 58
1.9122681090761198 3.5109421089200774 2.9061612494236835 58 58 60
1.90880387395593 3.4888964483826657 2.904224128182811 61 61 63
2.002315442472989 3.3229876675804624 2.8380458605146517 63 63 65
1.9781820358129094 3.332215430474153 2.84989601846066 63 63 65
2.1567715566765924 3.042554481486122 2.7277413225657114 64 63 66
2.1446816072063672 3.034910291728904 2.7317681627175165 66 63 70
2.1312168676455334 3.029268150438905 2.7366998964831386 69 66 72
2.1573206961959808 2.9659185973779323 2.7155741113881575 69 67 72
2.1626374432082827 2.933155387316741 2.708179523033055 71 69 73
2.1710403327148913 2.8960973030293635 2.698784653281446 68 68 70
2.1788458381653486 2.8601034555925935 2.689813230946696 66 66 68
2.1787773519738898 2.8356193573685156 2.686031232199985 66 66 68
2.187018887193482 2.7993495465131026 2.676828701363107 66 66 65
2.2363638501283005 2.7046355068681125 2.640791651947657 63 63 63
2.211760284909051 2.715660092734541 2.653124404172123 62 62 65
2.1870120684694165 2.726749148416181 2.665529610097978 60 60 64
2.161534497834547 2.7387267078707453 2.6783878517464133 62 62 66
2.14985273374595 2.7311546238445787 2.6822497838292567 65 64 69
2.131852934545859 2.7324285290226875 2.6902150604382125 63 63 67
2.112402193854582 2.735657526624101 2.699110780335636 64 64 67
2.1069369768151667 2.7193418452844416 2.698929100076046 66 66 68
2.1037493864348513 2.699922276780072 2.6972814215508882 67 67 69
2.102151937781058 2.678381893048335 2.6946174356382127 67 67 69
2.1071162354300785 2.6478993955307484 2.6877299790116425 69 67 70
2.0992910978371904 2.6351156315328494 2.6891164404563077 66 64 67
2.0886111149712394 2.6262634569819987 2.692346823730528 68 66 69
2.0754484108499196 2.620794398449104 2.6971751729661846 69 68 70
2.281444335033403 2.317846514807061 2.561126102524202 71 71 71
2.221051971195609 2.377259855851041 2.596434715280062 72 71 72
2.1593469955917697 2.4379646773940333 2.63251077419318 71 70 70
1.9578075018089582 2.685973539958309 2.758084276048648 71 69 70
1.9729720100755181 2.642178221396162 2.744722933680855 71 69 70
1.964993320272694 2.629491042500767 2.7461906891605286 73 71 72
1.927043094916044 2.6566585752481817 2.7667956071357556 72 71 71
1.9424494594931896 2.612921384826813 2.7533389521877956 71 71 71
1.9217112218212935 2.6171227612025936 2.7629416051305498 73 73 73
1.921919417833637 2.5936912982338827 2.759204085774008 72 72 72
1.9719538500451705 2.5050764610449763 2.723819019037579 72 72 74
1.9168175673319452 2.5543414406580958 2.7552797770860264 72 72 74
1.8936631200570189 2.5615891248185596 2.7663992635657437 69 69 71
1.8365294083139374 2.5667913730259118 2.7918624722055383 72 70 72
1.8130004396151158 2.574133412148379 2.8031582543572515 73 71 73
1.789921214998584 2.580788226078483 2.81415298725628 72 70 72
1.782581565501205 2.5672811741678396 2.815217361762545 71 69 72
1.7691481752872347 2.561544089504274 2.820120787934274 72 70 73
1.800339215600527 2.4993225894940245 2.796975466352911 74 71 74
1.776293266958125 2.507120521188748 2.808565297614011 74 70 74
1.7639107563677578 2.500148313920289 2.812822989244613 73 69 73
1.6407241544298348 2.6319097234447413 2.8864902377336783 73 69 75
1.5949863012097087 2.6660543169132938 2.9115416888981365 73 72 75
1.624383286309425 2.6064691348312303 2.8895809145708307 72 72 74
1.6319029340887008 2.574344584995037 2.8813351917171586 71 71 73
1.600105567767248 2.5909342333968093 2.8976384271105387 70 70 72
1.123682868217887 3.129887925002804 3.187117477605838 70 70 72
1.048108123401282 3.197711164908751 3.2302865359257003 70 70 72
1.0252156986488514 3.200834037125598 3.240650830777657 68 68 70
0.9593148937839864 3.256070944286807 3.2776861863027937 68 68 70
0.8972872418173841 3.3061751203125 3.312251230326125 68 68 70
0.7510124863463068 3.4574224358863024 3.3989145389266637 68 68 70
0.7804647500996358 3.396459020738947 3.376715355912735 68 67 71
0.7347578050484389 3.4258236195937197 3.4010093466570144 67 66 70
0.7609214474286297 3.3691699183218704 3.3809001253786666 66 66 69
0.9669908295803693 3.0989293784964156 3.2499110583215405 65 64 68
0.8184671587006713 3.250632960448786 3.3376158090580144 64 63 68
0.8427183960616724 3.197208622237203 3.3188345253227496 63 62 67
0.8264085174394327 3.1918143554302323 3.325032532029585 60 59 64
0.7519204992720501 3.254619655917646 3.366951499453266 58 57 62
0.8120763136007974 3.1595586320376183 3.326195521829513 56 55 60
0.5948592188500463 3.388159045447394 3.455512549487382 55 54 59
0.5567006190928021 3.4072777827202625 3.474954389048241 56 55 60
0.528459354362466 3.4147231950700325 3.4882996322540336 55 54 59
0.49831749800830183 3.4242388230668404 3.502787265750766 52 51 56
0.5401387187243549 3.3509350496774415 3.473329764785003 49 48 53
0.9230118744110312 2.8875319934503225 3.2359789057162387 47 48 52
0.9315721667317514 2.8543683334753895 3.22712237893752 46 47 51
0.8383879460723207 2.9370779190497966 3.280207398691553 47 48 52
0.8915579690000759 2.853278307050018 3.244218924051215 48 48 52
1.022271729386261 2.682390329788968 3.161212675920197 49 48 53
0.8089801130795145 2.8998584764500097 3.287102838516245 51 50 55
0.6800047058676826 3.0211909874180742 3.3616444581442173 52 51 56
0.6806584689946569 2.996694050029018 3.3575488081333313 52 53 56
0.6714723597433907 2.9832608984119258 3.3594214394083957 54 55 58
0.7024800881490367 2.925214363240337 3.3370051531405953 60 61 66
0.6902680787646929 2.915329364735784 3.3407358256047384 75 76 80
0.7841154733683526 2.7884560038162785 3.280489469098621 82 84 83
0.8024717795765164 2.7453632743632475 3.265860232528126 97 98 97
0.7677572644908186 2.7606413403644607 3.28321804551144 138 138 138
0.7490147897661872 2.758311445143997 3.29094276864804 186 186 186
0.7342475659723047 2.751606332944685 3.296271050373587 201 201 201
0.7197902449945659 2.744545322456879 3.3014102038940525 204 204 204
0.7243152899178691 2.716949079785802 3.2951616024008628 205 205 205
0.815524952939964 2.5960932911700585 3.236990217000829 204 204 204
5.716769482797643 6.369662262168002 1.7263029819886577 192 192 192
5.713459584688736 6.289194264481678 1.7150891757671187 192 192 192
2.230330799524963 4.110289979800931 2.8797600004243287 203 203 203
2.23819579469141 4.065957323799147 2.869389838615105 202 202 202
2.2215217743263387 4.063874278071033 2.876277071067641 203 203 203
2.2356095573937638 4.009298587405081 2.861604659984454 202 202 202
2.239363241358225 3.9726107855698114 2.85421482671915 193 195 194
2.243091556929924 3.93617026202125 2.8468748309894005 163 164 164
2.2466423123954904 3.9002314364316213 2.839690507145759 110 111 113
2.243122362502165 3.876362173885163 2.8374623615622494 87 88 91
2.2330171739393867 3.8636147140985213 2.8398313949585443 75 76 80
2.247772962461843 3.809466266450104 2.8249370915130494 69 70 75
2.2318631719621025 3.8065576994451016 2.831363918595459 64 65 69
2.267849591786595 3.7177755660401655 2.8018405887761317 58 57 62
2.2482451552843683 3.7211770529282022 2.810857689203043 54 53 58
2.2484406696263317 3.6919830092410875 2.806185103087494 51 50 55
2.110320620637963 3.889116888409963 2.896928110713035 49 48 53
2.065958387385665 3.931962961146243 2.9228564450631263 47 46 51
2.0720683601017136 3.8924976600810917 2.914010583801984 45 44 49
2.139325426175972 3.7543782655484375 2.8632033262999568 44 43 48
2.146848180393572 3.7134463223837257 2.8535156859526216 43 44 48
1.879753322724411 4.113510742051983 3.03195566997212 43 44 48
1.8580221243533486 4.118185913599115 3.0420931536394744 43 44 48
1.8447627155806061 4.109255576803691 3.046426849842224 43 44 48
1.7953228444429907 4.157743420319015 3.0754388329303772 44 43 48
1.6936111052860363 4.28845844588346 3.1399904667106027 44 43 48
1.8998831359510961 3.9329022378021943 2.9948622775607188 46 45 50
1.85745230872467 3.9702814531504123 3.0190957780780328 46 45 50
2.6760823668458857 2.660690856483623 2.459078360950992 46 45 50
2.60129915175901 2.7527430437751437 2.5059023758504324 46 45 50
2.5834350663467993 2.7556947366493856 2.514095765606724 46 45 50
2.521076972406866 2.8273829024729307 2.5523433128064994 47 46 51
2.4580812070796716 2.89946602826721 2.590928840595418 48 47 52
2.393575330959613 2.973277116804928 2.6304393282126375 49 48 53
2.345867048020502 3.0207880964164526 2.6585485605286143 50 49 54
2.3080452004503424 3.052819043420312 2.679947318929747 51 50 55
2.2908049485053716 3.053295965237087 2.687481862833625 52 51 56
2.2309518097813372 3.118182035007595 2.7235765708032944 54 53 58
2.1759118862095894 3.1752744571792366 2.756363863495895 55 55 57
2.119650452575165 3.23372100593974 2.789892492673868 56 56 58
1.875801738089426 3.5724267073565956 2.9486313965769217 57 57 59
1.9075250645051742 3.497673202053737 2.9231573111582922 61 61 63
1.902074808318282 3.478624754067029 2.9225219947069796 62 62 64
1.9927064597342627 3.3174048345834004 2.857970548650976 65 65 67
2.124625597714381 3.0963818770480818 2.766156292144424 66 66 68
2.1674647439897146 3.007812544498965 2.7337013351506445 70 68 72
2.1490781719612597 3.009477605651079 2.7419185962587633 72 70 74
2.1538932813004608 2.9772120279008356 2.7347644751163633 73 71 76
2.1583458245745457 2.945641774294802 2.727876504431985 74 72 77
2.1452783592513316 2.93961496302174 2.732583453205652 76 74 77
2.157691981035603 2.896787495236966 2.7204817181096073 75 74 77
2.148034660321679 2.8859474541789845 2.7229567263375793 73 72 75
2.212238063569087 2.7692730512723434 2.6768409297657385 72 71 72
2.175026349688566 2.7981875127012836 2.6974859213511038 71 71 71
2.214571975540993 2.7176195946225983 2.66771348257868 72 72 71
2.1917110144276863 2.7260422946003042 2.67892874014541 87 87 86
2.170056483712288 2.7326387189505823 2.689334985382987 88 88 87
2.1363789249144665 2.756050201048461 2.7075859813954284 72 72 71
2.1067981429638967 2.7734865271162064 2.7231253390741026 70 70 69
2.1015859598706195 2.756678468358004 2.722739100415578 70 70 71
2.10433926191152 2.728834660252487 2.717171994973061 70 70 72
2.098189853571783 2.7134808529478978 2.7174198222327863 70 70 72
2.0946394142556883 2.694580415809798 2.715985744732727 71 71 73
2.111367992581558 2.6478108744017277 2.7013974773608327 72 70 73
2.0979872913850803 2.642650232192788 2.706376081307285 71 69 72
2.085838548168738 2.6357794074942156 2.710552872147835 72 70 73
2.066864191156597 2.6382009884531925 2.7191433496989696 73 70 72
2.0608284622689 2.622967924532025 2.7193609650259054 75 71 72
1.9692563196100137 2.7235662214328986 2.77479235591739 77 73 74
1.9750556673552269 2.692053014945157 2.767330608783536 77 73 74
1.989165768186091 2.6495294849596056 2.754542598504905 75 73 74
1.9937767503227795 2.6199665268462544 2.747901530279756 74 72 73
1.9711862206231268 2.6268546466873195 2.7587586093637544 74 72 73
1.9273480786637647 2.6618913799185027 2.783232900648809 73 72 72
1.9455684922645886 2.614375611951843 2.7678818657396205 77 77 77
1.970355603247556 2.558459678526079 2.7483693933027245 75 75 75
1.9950565862357852 2.50298813546984 2.728964025301738 76 76 76
1.9751576631892136 2.50633209135621 2.738099504266174 77 77 79
1.953244804675204 2.5122241039660675 2.748506822160141 81 80 82
1.925059442525018 2.5261826591809253 2.762895853947921 80 80 82
1.5880568769529797 2.892420224692452 2.966267774243703 80 78 83
1.7944369891321046 2.6034078764053548 2.831550520425133 80 78 83
1.771093401696222 2.6103105429748763 2.842735722161557 80 78 82
1.7657379870335328 2.594165356135107 2.842515631250744 79 77 80
1.8196680640406646 2.5027337631192577 2.804811979657141 78 76 79
1.8082567758069585 2.4946205074499916 2.8084744307650946 77 75 78
1.8218041123123343 2.455006813389973 2.7963872152766114 76 75 78
1.8104856262255042 2.446877704444163 2.800007020893676 76 75 78
1.7774903658926235 2.465909952789641 2.817274578301323 76 74 79
1.7865463721519714 2.4322343153246684 2.808063888004025 74 74 77
1.814632647565984 2.3750478360185294 2.786924244949665 73 73 75
1.2911434517347846 2.978101736291687 3.1082029490805203 71 71 73
1.2440659639389218 3.012016695018467 3.1339025632728355 71 71 73
1.1794607578147045 3.0671457565703166 3.170520055438399 70 70 72
1.105300409809736 3.133516277881651 3.2130385629622986 70 70 72
1.0454777728839226 3.181885821959116 3.2465244186099804 69 69 71
0.9627541042816088 3.257674310816242 3.294228224670947 69 69 71
0.87918261776996 3.3338998538319116 3.3423675538183275 69 69 71
0.7903498306671084 3.415879992142486 3.3936877306839435 70 70 72
0.7303095845394865 3.4626112888488083 3.4270102837319074 70 70 71
0.7746093211318295 3.383938635547822 3.3954786643202204 70 70 71
0.7346642787960067 3.4063257221982886 3.416280515701251 70 70 71
0.8087036187296555 3.292857078680089 3.366412660936963 69 69 70
0.8616377097228354 3.2051241448673267 3.329721220055445 67 67 69
0.8707916552008739 3.169662047544341 3.3201874018505704 66 66 68
0.8500983035705003 3.169526896857981 3.3291198589018816 63 63 65
0.7457001131353338 3.2675695536912666 3.389699252812491 61 60 65
0.8346233691566476 3.138747775629292 3.3309785333497466 59 58 63
0.6148404966221546 3.3705941108699813 3.4625110315158834 57 56 61
0.5819599202481303 3.383662697230049 3.4787917476062287 56 55 60
0.5470125718847245 3.398965010846065 3.4963177657320785 56 55 60
0.5093886173591626 3.4171811565361936 3.5154598336853806 54 53 58
0.5414640770585593 3.355057947324079 3.4918182998143337 50 49 54
0.7046925389536502 3.142992999019962 3.387864773834682 48 48 53
0.7820046305753521 3.0304225661498765 3.3367220077835325 46 47 51
0.8097764387055384 2.97493500497343 3.3159854233971595 46 47 51
0.8926635972151196 2.8572410284959555 3.2616252206820335 47 48 52
1.136979814693838 2.557795326751073 3.108853940789933 48 47 52
1.108709346478803 2.5674134883622886 3.122597682095984 50 49 54
0.7184177781230774 2.95972156104148 3.353124049272102 52 52 56
0.7039854297882187 2.9522602377030545 3.358196121293937 53 54 58
0.695268840782884 2.938430433838862 3.359794233118458 59 60 64
0.6964667895830952 2.913646110775135 3.3553809186112997 70 71 74
0.792334131702739 2.784459694499246 3.2935982946130826 87 88 88
0.8132083510093135 2.7385841565550413 3.2773567689318797 100 101 101
0.7764043505855573 2.7561933976671225 3.2960486771986415 135 135 135
0.7589574676272348 2.7524669915382614 3.303012053160795 185 185 185
0.7444227446323624 2.7455293398114113 3.3082107187459515 200 200 200
0.7298765336278652 2.7385859755641135 3.31341345726594 203 203 203
0.7314169039742677 2.7142237979716546 3.308918324467739 204 204 204
0.802424411135602 2.615072616848602 3.262612358218583 204 204 204
5.77090458625233 5.945381983921411 1.652285956890664 192 192 192
5.766604002555946 5.87751423048777 1.643385533596948 192 192 192
2.2403457274058143 4.101271407722528 2.8915375953393516 203 203 203
2.2485993557196116 4.056268315753151 2.880817477853549 202 202 202
2.230988461928384 4.055833109759773 2.8883892340058863 202 202 202
2.245826334277919 3.999961309167868 2.8730882519714935 201 201 201
2.2473458487054527 3.9670778668678714 2.8672124676899076 193 195 194
2.253377519814419 3.926729549788292 2.85819480286949 162 164 163
2.259362094538334 3.8866929084703052 2.849247014814717 111 112 114
2.2600764840302183 3.855743009832114 2.8440272788540812 88 89 92
2.2439904646385322 3.8530820524582428 2.8505843559049175 73 74 78
2.253911847605386 3.806990909000443 2.8389680490087965 67 68 72
2.241932859041926 3.797565250411489 2.84267008961855 61 61 68
2.283750763307954 3.6990836118341894 2.8089038684144647 57 56 62
2.26441937991844 3.702116240861933 2.8177722146386284 53 52 57
2.2355178357136856 3.7207794089340998 2.8332723182843544 50 49 54
2.1201143444733446 3.880823345501116 2.9087309707901152 47 46 51
2.0844393113676536 3.90958396064803 2.9287716959140244 45 44 49
2.0865715829142006 3.8766341255385903 2.9226195238617514 42 41 46
2.090916957773604 3.840275464758723 2.9149663936617767 42 41 46
2.10971658962061 3.780807108201883 2.8973759873775182 42 43 47
2.0385175659725316 3.8662977484346963 2.941828876199737 42 43 47
1.862845457712375 4.118300927817926 3.058024225417034 42 43 47
1.9356525579157233 3.9721233748944433 3.003246481112726 43 44 48
2.0736810490124085 3.723334608860832 2.9038934001702237 44 43 48
1.963781321074295 3.868751525221831 2.9746437680501714 45 44 49
1.9243286370351114 3.9019265772203893 2.9970237845005636 46 45 50
1.8821779743339209 3.9390236145388338 3.0211965366720013 47 46 51
2.7278692938702056 2.5859487631212223 2.4396313538798386 48 47 52
2.66809194158506 2.6549666577710425 2.476515570144002 48 47 52
2.6341297816615543 2.683302329353799 2.495745723552491 49 48 53
2.5530020918279392 2.784389727083578 2.5469805546623747 50 49 54
2.4970485291730746 2.8458427218214286 2.58100568288588 51 50 55
2.4639863492205127 2.871602430549782 2.599436722277212 52 51 56
2.396048538243705 2.950513008060323 2.6414308381444878 54 53 58
2.3492568483948464 2.9965224530168304 2.6690310152076897 54 53 58
2.2827929746125153 3.072034629617063 2.7098465268846734 55 54 59
2.2220971343436773 3.1381958766655007 2.746676076545071 57 56 61
2.159248248140331 3.207058860474959 2.7848683572503394 57 57 59
1.8282875450642757 3.6784566584574385 3.0032424002050457 56 56 58
1.8387424161969583 3.634913627243936 2.991798853860579 58 58 60
1.8615596710692495 3.5731647778123055 2.972103561677763 61 61 63
1.8371269370770682 3.5820621951057197 2.984115588352887 63 63 65
1.9409363158032131 3.400800823611226 2.9103213843569984 66 66 68
2.0924093586110377 3.150411927591663 2.804881309282717 68 68 70
1.6198579593729283 3.7915335871559406 3.1116113737961144 73 71 75
1.6237291029533394 3.7578014702529488 3.104580663061441 73 71 76
1.6280564801514241 3.723577129995421 3.0972739227337813 76 73 78
1.6753852292991211 3.6271783439309413 3.0614471412022084 78 74 77
1.6811518435621733 3.591448347433638 3.0532771104532106 78 74 78
1.6939133405939746 3.5458357041285247 3.040504477782028 79 75 79
2.132168343611747 2.8901664134784664 2.7463467212487505 77 75 79
2.147128437201837 2.8196337843427246 2.728666967939528 79 79 79
2.1517698977112194 2.7886792085833223 2.7217426612478888 77 77 76
2.1484125368669216 2.7691930432953074 2.7201080929713526 79 79 79
2.1197011735623796 2.7855043203757557 2.7351525873895772 79 79 78
2.1165186918697554 2.765798126104214 2.7334072400784875 79 79 79
2.09077606510827 2.777728089974527 2.746468659513621 79 79 81
2.11331632620602 2.7222110753735107 2.727882142802184 79 79 81
2.1128375739596157 2.698997859275687 2.724407393073404 81 81 83
2.1112545722485767 2.6774159665880792 2.7216705289169827 81 80 82
2.1112080912443627 2.653806668709386 2.717945397661643 82 80 83
2.103593249373935 2.640703415837109 2.7191705756256193 82 80 83
2.090993665702624 2.634457181176866 2.723646245210605 83 81 84
2.0740019538616923 2.6341866471321698 2.7309754813852214 83 82 83
1.9470754481064882 2.783324604411074 2.8097035091602995 83 83 83
1.9540254659235647 2.749971124914567 2.8013970404717337 84 84 84
1.9870545308274954 2.681583513259235 2.7762180246441455 84 84 84
1.9987489422454634 2.642316561933993 2.764915024579303 85 83 84
2.038776585665666 2.565283828593113 2.7353281200957866 87 85 86
1.9121453008916411 2.7113526107940498 2.813441177676746 87 85 86
1.9308056733171197 2.662937265608943 2.797664603267636 87 86 86
1.94935561593896 2.6149467187281523 2.7820033293120425 86 86 86
1.6975089573086914 2.9246261671318345 2.9403979108172855 87 87 87
1.9676657325756906 2.52162837702665 2.7592554625235377 87 85 88
1.952827897285867 2.51822449541576 2.7651531380212537 87 85 88
1.957810934942539 2.488951270527721 2.758347355804368 86 84 87
1.5857038909149095 2.901174205660281 2.985186164994241 85 83 84
1.8603016629649693 2.5242256995679657 2.8062492810760666 84 82 83
1.8225837121989295 2.5498255822941376 2.8266749541998153 83 81 83
1.8215303943344474 2.528393390353001 2.8237320254106124 81 79 82
1.8031512860870536 2.5290843148307527 2.8318157303707814 80 78 81
1.979931597672064 2.2823693522557704 2.715978472202932 78 77 80
1.9811259599684172 2.2590683232079103 2.711763881984797 77 77 79
1.9781663867922927 2.2410985901266036 2.710197288130744 77 77 79
1.9873548814855804 2.207958826188527 2.7009535200157866 76 75 80
1.4064719836786665 2.9125015745449288 3.0647460123244494 75 75 78
1.340639079578491 2.9705902493748706 3.1025237622917015 73 73 75
1.2812581177879843 3.0202037061997027 3.13615774426271 72 72 74
1.2227241957706474 3.0683608853079027 3.1691932042528563 71 71 73
1.1840972816374036 3.091580886201435 3.1896357108332216 71 71 73
1.1069181015482932 3.161931635248317 3.2342814553198083 70 70 72
1.0828811161338971 3.166675880492268 3.2454629345833323 70 70 72
1.066297561205893 3.1622274992559616 3.2519523253923768 69 69 71
0.9952724246412938 3.2239285890397054 3.2925558777439123 69 69 71
0.9199022518689277 3.2904014866784266 3.3358015836008987 70 70 72
0.8638980761371955 3.3329669271439166 3.366852414515566 70 70 72
0.7861878846046579 3.401287964652789 3.411406561186948 72 72 72
0.8075522847495302 3.3502718820162007 3.394044224786852 72 72 72
0.7746911457278502 3.3643339617247543 3.410532367381816 72 72 72
0.8310766668350698 3.271949955190229 3.371413037010747 71 71 72
0.8426980330897438 3.2332552284658775 3.3602325046171675 69 69 71
0.8988479632196309 3.1420929163436546 3.3214091949333393 68 68 70
0.906205801354862 3.1089958754536022 3.3129664667723953 65 65 67
0.9953524986141271 2.9799871219774543 3.2538231004858416 62 61 66
0.971144738945656 2.984486664927341 3.2650398544296526 60 59 64
0.6253842086881913 3.3640123421728685 3.475260785061151 58 57 62
0.5818984516147774 3.3894498503897608 3.498163163770947 57 56 61
0.5584933082939878 3.391377539550054 3.5086236984643713 56 55 60
0.5084943290657273 3.423929532741168 3.535480570497725 54 53 58
0.534419286015344 3.3688197619305797 3.515490147769065 51 50 55
0.687869866310028 3.167765047925375 3.417018288349073 47 48 52
0.7688020246467793 3.050892817293251 3.3633642403855935 46 47 51
0.8085687703983164 2.981636748800973 3.3351241943185976 46 47 51
0.8368070472467573 2.925871347133321 3.3140260900761467 46 46 50
0.8648369734735994 2.870654291952455 3.293105370213734 48 47 52
0.9798116198339313 2.717720370189105 3.218960687901911 49 48 53
0.947411760584683 2.731353044636471 3.23518057678736 50 49 54
1.0745872151680111 2.5661349860827896 3.1537936461995675 51 51 56
1.0337043019509229 2.5895284319844167 3.1752424723453756 53 54 59
1.062109755084485 2.5356359737720173 3.1543689530452372 60 61 64
0.9844559804169066 2.599607845361894 3.198208685537752 68 69 71
0.7968672069318037 2.78452943216717 3.30893269612012 89 90 92
0.7908720481306359 2.7682075416079086 3.3089445525047325 102 103 105
0.7799277418128414 2.75736129812658 3.3119723213365644 134 134 137
0.7716692777819945 2.7435862552852477 3.3133701756334184 183 183 184
0.7599526432306958 2.7336081043905667 3.3168707438647096 199 199 199
0.7396255442531185 2.7329846799739057 3.3255911150434416 202 202 202
0.7416700948776429 2.708083490222254 3.3207538116860604 203 203 203
0.8004999582849628 2.6220233458661695 3.2815771562123848 203 203 203
5.781407048159433 6.000365296685437 1.672616799663238 194 193 195
5.776050351380329 5.940251305044777 1.6653218324285608 194 194 195
2.2479651078615492 4.096373827350996 2.9049797525446195 202 202 202
2.263790491035411 4.038320639620559 2.8887994678058155 202 202 202
2.2534938354213345 4.0254214661128405 2.891213635853269 202 202 202
2.2555349965970963 3.9914737194232144 2.884889939397005 201 201 201
2.2563305796888518 3.95982940281255 2.8794769567475065 194 195 195
2.260512930068928 3.9226109144493355 2.8716980245112977 162 162 161
2.265853207642335 3.883645869495769 2.863135677250458 112 112 115
2.270901119907071 3.845394595359911 2.854814812326585 92 91 96
2.285778723891843 3.790886256667168 2.839614458623468 75 76 81
2.2958833132596617 3.7446859453770616 2.8278208860592984 64 67 72
2.2832674944931495 3.7365528444889016 2.832007148906676 59 63 67
2.290332379787521 3.69579818791024 2.8224079575720924 59 58 64
2.2378971709001814 3.7535024167336193 2.854459520229319 55 54 60
2.2135029112604268 3.764586386861582 2.8668470316589234 49 48 53
2.131199898891247 3.8703976102400652 2.919595475867734 44 44 48
2.0981415173526186 3.8949622683856355 2.9379108421534714 41 42 46
2.061858609190221 3.924515049581632 2.9584277373519927 40 41 45
2.057072207917963 3.902745306261437 2.957024313296371 41 41 46
2.0975577714784404 3.807990399682874 2.924238934107636 41 42 46
2.063715697714911 3.8333962441596174 2.9430299368252033 41 42 46
2.036258339307725 3.8483124012402135 2.9573636601837694 41 42 46
1.9766500731590573 3.914365084215955 2.9938726187962166 43 44 48
1.9606932954987626 3.910438069098914 3.0001858453726675 46 45 50
1.9343388514304436 3.922941503039736 3.01365342105564 47 46 51
1.9271567304816333 3.905015938348817 3.013907784873447 49 48 53
1.8851000776291107 3.941997105930036 3.038125982718323 50 50 53
1.846051354381772 3.973919775197852 3.060225614036969 52 52 54
2.6846288564951744 2.6354602609502837 2.481088277624573 53 53 56
2.7434895183693366 2.5195277794194277 2.4369178509828937 54 54 57
2.6599338440324294 2.6250821179192374 2.4901701352268883 56 55 59
2.5755228122605187 2.731121978594273 2.543872285280935 56 55 59
2.477670930930503 2.8569990431990453 2.606598212203511 57 56 60
2.42300251357705 2.9157065579304384 2.639781980501641 58 58 61
2.348972865925521 3.0034869378359916 2.686044001955593 60 60 63
2.28170893411677 3.080268292899741 2.727601434573949 62 62 64
2.208791592000132 3.16499470009971 2.772890546322158 62 62 64
1.8223717957137295 3.6944538318881124 3.025779569426815 60 58 62
1.8271546633804494 3.6593245640800434 3.018073905711292 61 59 64
1.848906516551959 3.599029303899877 2.998956303502644 62 61 65
1.8214753493040288 3.6123116625716474 3.0130170298420076 62 62 64
1.8989980905402408 3.4697683062388034 2.95646672854999 64 64 66
1.62809912810154 3.8147248972876646 3.1295558583487617 69 69 71
1.642158106376969 3.765889122469166 3.1156199353218517 72 72 74
1.6435048952156537 3.735916700342258 3.1102348523199086 72 71 76
1.6391965816340193 3.71432585510685 3.108652080605279 75 73 78
1.659804609440522 3.6566595526184464 3.0904530477750893 78 73 77
1.6762996261840117 3.605285086102981 3.075050829675855 78 73 77
1.6920271624121117 3.555315550875086 3.0602074614834733 79 74 78
2.0602697050083694 2.9495041812552056 2.803001016077262 79 77 80
2.0445171071808983 2.94702845916244 2.809457793849929 78 77 79
2.0507690856451504 2.9133659623914965 2.8013478497739563 79 79 79
2.0569763650038198 2.879943178786856 2.7932957347871294 80 80 80
2.0644355204570957 2.8449364222414535 2.784445364948862 80 80 80
2.070534401967406 2.8120205309883755 2.77652157179497 81 80 82
2.0978229752153856 2.7497147587119666 2.7546732905958824 83 81 84
2.084760110656786 2.7438831045071814 2.759422547143849 83 81 84
2.0750434777029203 2.733395566250607 2.761970524714691 84 82 85
2.0676448829260092 2.7197208667481316 2.7629997109594546 85 83 85
2.052094037558025 2.7172932973286787 2.769376426226934 87 85 87
1.8322534633975134 2.9947937554375246 2.909451513745045 89 87 90
1.8491945760664021 2.9469131758002938 2.8944146594541413 90 89 91
1.8354876833566232 2.94101212113374 2.899432988950851 90 89 91
1.8369211036204367 2.9145588651101866 2.894573702951734 89 89 91
1.853165172344667 2.868216657499379 2.8800864214712454 89 89 91
1.8122304593209553 2.8991232879832998 2.902843867794878 89 88 90
1.8515431263801396 2.822084298477167 2.873405417533365 91 90 92
1.871939688678641 2.7708138416747596 2.856322480850145 91 91 93
1.9095388031399907 2.6969237911120008 2.828133719541399 91 91 93
1.9689272067899921 2.594565061168856 2.785907116611 91 91 92
1.971346929226379 2.4994487175737734 2.769624458779662 90 88 89
1.944310731470361 2.5119886030427763 2.7833944688934578 90 87 89
1.9196982812788024 2.5212298335286265 2.7955818463829343 89 87 88
1.8899108749336226 2.5370489141006067 2.8110738355708254 89 86 86
1.8811918109753565 2.5255026214079512 2.8130182925043044 88 84 85
1.8518793170943675 2.540464447784572 2.828166407528555 87 83 84
1.818946021694416 2.5599021208242974 2.84560642608754 85 81 83
1.7966262136476427 2.56558676567177 2.856226908884006 83 80 81
1.987393954353399 2.2999427347158665 2.730698437715693 82 79 80
1.9766639477508845 2.2916697693336956 2.734041880501589 81 78 80
1.993889414547485 2.248059653822788 2.7195651009417174 79 77 80
1.9638477079623886 2.264232264996422 2.7352243308271476 78 76 79
1.96330935303371 2.24320039092692 2.7320909356550467 77 75 79
1.3195265921009347 3.0025627457593425 3.1337579797530783 74 74 76
1.2861263132241658 3.019838051700524 3.1510549235641485 72 72 74
1.1935533247324268 3.1101798694388543 3.205794385317662 71 71 73
0.9683267996749503 3.3634787494919585 3.3443375001628004 70 70 72
0.9823375358710944 3.32084533984319 3.331415682766358 70 70 72
0.9910139972922132 3.2849725507278116 3.321897053905407 70 70 72
0.9815874906346225 3.271380726682213 3.323821755840783 70 70 72
1.022238358469724 3.196885102242578 3.294208361188593 70 70 72
0.9518146878668301 3.257513121302764 3.3345539828335777 70 70 72
0.8767822208183971 3.3232247681537928 3.3777186539465966 71 71 73
0.8488549221402355 3.3316930813947407 3.391224401737128 72 72 72
0.8642074079546458 3.288097102814498 3.377564728617264 72 72 72
0.8936709189653076 3.2278562007095064 3.355100863270596 72 72 72
0.881537669546542 3.217535285568868 3.358726872583443 72 72 73
0.8846430802226235 3.1891178934045024 3.3528256890114188 71 71 73
0.9032549326162684 3.1424732811466494 3.3372598793286348 69 69 71
0.9247437975881467 3.0926867890352936 3.3199393461905773 66 66 68
1.0928845577549995 2.8707789994098176 3.2112577854247677 63 62 67
1.0242113336948586 2.927754018523716 3.250256957504844 61 60 65
0.9538302164188728 2.986268116326253 3.290245586853728 59 58 63
0.9178158715521434 3.0043302078897627 3.30880576301752 58 57 62
0.8214503349444806 3.092182193538947 3.3647965078663113 58 57 62
0.8163488801031502 3.0739047499666015 3.364089332580058 56 55 60
0.5349714907363459 3.3738544180108274 3.5345306425890604 51 50 55
0.5899408900824312 3.285662357936384 3.4964948893845036 47 47 52
0.7693547715421247 3.05566170656265 3.381613119656245 46 46 51
0.8070044858712944 2.9887558420459386 3.3545206472045734 46 45 50
0.8511054030103242 2.9149094655361187 3.3235102611236824 45 44 49
0.8909423184425129 2.8463263585582843 3.295197685199968 46 45 50
1.0961971324736577 2.5915009150754793 3.16509885742867 47 47 51
1.063224968862956 2.6062222855225263 3.181800614978949 48 48 52
1.0331713270453449 2.6175099670551467 3.1966828661971527 50 51 54
1.0373607929932307 2.5904132414626906 3.190521527046356 54 55 58
1.0183882771533201 2.589217748936157 3.198584123750506 61 62 62
0.9941783202490604 2.5937770223832057 3.209846724712805 69 71 71
0.8053778542475654 2.780202494246465 3.321834916827833 86 86 89
0.7986826340976776 2.764660308792042 3.3222590786266375 106 106 108
0.7881295419023078 2.753394322907528 3.325046314469205 134 133 136
0.7773485486477425 2.7423888664949994 3.327974414742934 181 181 182
0.7632138922594733 2.7350504450363444 3.332948693347653 199 199 199
0.7490704565415425 2.7277061664934514 3.337925853579579 202 202 202
0.7494567203732501 2.7046066434915335 3.3340591314700303 203 203 203
0.8155975342018926 2.610607352840267 3.290233390456887 203 203 203
5.790357984719173 5.962046573875725 1.6786967741163836 195 194 197
5.788910568468802 5.868286838016076 1.6641763376095478 196 196 198
5.786474251306436 5.784794448927874 1.6517465289228648 197 197 199
2.2606693307171355 4.08267322020094 2.9147615128658226 202 202 202
2.271407255809282 4.033386334401312 2.9021123370399353 202 202 202
2.2670507117149064 4.0103065663782544 2.9002830591599906 201 201 201
2.2516160612319935 4.006269053004346 2.906363734285271 201 201 201
2.260289211749339 3.9611276068264907 2.895285202679603 195 194 195
2.2690009135363276 3.9161897216403414 2.884222749684792 164 164 163
2.276935110336649 3.872833470721355 2.8737550690990856 114 114 116
2.2900565634507704 3.8209975755344807 2.8596541852056814 94 93 98
2.2942263528189573 3.7844982177886552 2.851936768716431 80 81 84
2.308327418011949 3.73160489173244 2.8372376588609014 67 71 73
2.2919531379072753 3.7297786607920234 2.844085583999729 58 62 65
2.296025239587543 3.693981131279328 2.8365241999156336 57 56 62
2.254293802062157 3.734069800269734 2.861207400651982 53 52 58
2.1848390211408986 3.8194264130914894 2.905299954192148 47 46 51
2.142881225556313 3.858974972425 2.9299946171262463 43 43 47
2.0943070228206286 3.9089664592218423 2.9592632027166434 40 41 45
2.0800086587521522 3.9027168662104406 2.964490710236989 39 40 44
2.1538401326893144 3.753516923563653 2.9081716143839693 40 41 45
2.136599188222965 3.7525031039345724 2.9155288977437803 40 41 45
2.1088849178740006 3.7682844416417023 2.9301691695233756 41 42 46
2.0589138295173903 3.8195703893202184 2.960256315545103 42 43 47
2.002388690021175 3.88087562722281 2.994821721255051 44 45 49
1.954597675171296 3.9277511072316353 3.0232450961997106 48 47 52
1.8844172674717004 4.009714342675033 3.0671058143674483 50 49 54
1.8435666579891654 4.044655870860668 3.090572973028957 53 52 57
1.8171730311899374 4.0565074277228526 3.1040020683838954 55 55 58
1.784167256828625 4.078568025911417 3.1219654315156538 56 56 58
2.769806510268671 2.4847275827310953 2.434424820589188 61 60 63
2.6719615258183333 2.6126806819322814 2.497785919840066 62 61 66
2.585798867238005 2.7215797774973325 2.552971585160954 65 64 69
2.4855549591955293 2.8513001394469564 2.617664776004135 66 65 70
2.415887003758474 2.9331011833863148 2.6612757334490302 68 68 71
2.3405990583603997 3.0228301921713068 2.708619515139645 69 69 71
2.271254319744274 3.1027882649325886 2.751791644180374 68 68 70
1.7957458081011899 3.798377479818713 3.071634827753699 67 67 69
1.8124905201657162 3.7446448720511287 3.0556468337048477 68 66 69
1.8190772222619445 3.706533143207465 3.046614509065971 66 64 67
1.8203073997933141 3.676666853845542 3.041251380441128 65 63 66
1.8245854453971855 3.642389510346074 3.033845822785942 63 62 65
1.8016749407295745 3.648798719910789 3.044875955612375 62 62 64
1.7823835557382 3.649718658580956 3.053440215901048 62 62 64
1.8387056426749289 3.538721678822405 3.0109330560982777 62 62 64
1.8369364740999379 3.5140700307315567 3.00772105154324 63 63 65
1.6812577115895893 3.7155301581899662 3.108190277201829 65 65 67
1.6692368198001213 3.705278449518947 3.1117775156964935 67 66 70
1.657382185312717 3.6947874233791556 3.1152535523676743 69 68 72
1.6621730882800831 3.660122443613124 3.1075616247275426 72 70 73
1.6904179376944557 3.591690762931716 3.084181443654698 73 71 74
1.6941789241728464 3.5589898953143146 3.077256208953146 73 71 74
1.6992526235296284 3.5245679774616248 3.0694801948905313 73 71 74
1.701848284890897 3.4938717045077246 3.063387265332289 74 72 75
2.0107549119581947 2.976167005614228 2.844968477081455 78 78 78
2.0139142220947406 2.946798479492032 2.838844231497135 79 79 79
2.017054921093871 2.917601698620566 2.8327558593019213 80 80 80
2.020176953086162 2.8885754665153183 2.8267031915126193 81 79 81
1.4790169813260046 3.5655921084426954 3.172184518623852 83 81 84
1.411516584486455 3.6319803159418242 3.2123591490080328 84 82 83
1.9515609013571962 2.8130023739193577 2.8444231433684695 89 87 90
1.966220712503671 2.7689431283781683 2.8309079020681076 90 88 91
1.9682541422741915 2.7422684121292518 2.8257101336317847 91 91 93
1.9651200131610658 2.7227079641442042 2.823916326962938 92 92 94
1.7842570145992245 2.9427227291876497 2.938370305999059 91 91 93
1.7996422999784127 2.8976001211617346 2.924366744232193 92 92 94
1.7908931813330249 2.8850247861888345 2.926151212788637 93 93 95
1.8290522156935636 2.8099292324636527 2.8973692062688547 93 93 95
2.0482119287068388 2.494811278339848 2.7508398664739206 93 93 95
2.020711372904416 2.508420324108929 2.7650358594650846 94 94 96
1.9882266479366875 2.5284491845738444 2.7824435872805102 90 90 92
1.972856042573483 2.525777098033325 2.7887169806502112 90 88 89
1.9374488523646272 2.5493126957694896 2.8079662919852675 90 88 89
1.8997367404840486 2.5756316918546576 2.8286708984243694 90 88 89
1.871596610060155 2.5892530561432263 2.8431478875611793 89 87 88
1.8765667634556322 2.5597948474089307 2.8362191940889803 88 86 87
1.8640741501661382 2.553040285326912 2.840577363720394 87 85 86
1.8295895659040196 2.5745825365682826 2.859102070475082 85 83 84
1.8144409677961209 2.571108603153263 2.865149035467064 83 81 82
1.7704951592305749 2.6044105905699855 2.8897014765580686 81 79 80
1.9513835010945453 2.3510035187292138 2.7698401460108335 81 78 79
1.9312361141508494 2.3545067557104877 2.779195293787622 80 77 79
1.9531835117339575 2.304674542186553 2.761568016611886 78 76 79
1.9403611665197669 2.2989618015734266 2.766238388599903 76 74 77
1.9198349889856225 2.3029078787709176 2.775830342738897 75 73 76
1.3105952107323497 3.0437813555204394 3.161329982214248 72 72 74
1.2363897532335164 3.1119671259532176 3.204720092542832 71 71 73
1.2094605773957587 3.120838539326768 3.217901213606424 70 70 72
1.16389783673863 3.152667576509967 3.242920985460784 69 69 71
1.1181491216713628 3.1844391307219926 3.26801259661812 69 69 71
1.0955154839944354 3.1874835921139892 3.278378196824788 69 69 71
1.073333127910304 3.189886220960396 3.2884432097378573 70 70 72
1.0265924146763004 3.2222123130136127 3.314057181108595 70 70 72
0.9887999520041333 3.2433516646870744 3.333959793546118 70 70 72
0.9866747593230971 3.2209959760151428 3.33127413335583 70 70 72
0.9225723263793553 3.273674774705465 3.36775096862635 71 71 73
0.8245383364856198 3.366814643538761 3.42556859752784 71 71 71
0.8638987708228698 3.2942367753873247 3.396669362618191 72 72 72
0.8557101524196484 3.2789977180834198 3.39777885539266 71 71 71
0.9065410879033133 3.193399592049949 3.3617716633261923 71 71 72
0.9327376630515469 3.137602047081214 3.341326726919762 70 70 72
0.9845487404397739 3.0517774176168624 3.3048553581015385 69 69 71
0.9792608706615664 3.0338793453481943 3.304269735364707 67 67 69
1.1133230458988252 2.8520978927050304 3.216410574215742 64 63 68
1.1422949091593533 2.794705714702282 3.1944972599607215 62 61 66
0.9480729924636151 2.9984243798167 3.312145381111206 60 59 64
0.8973571927982358 3.033583822128831 3.339951305857113 59 58 63
0.8440396839312534 3.0714555790825617 3.369330507756196 58 57 62
0.8388375500272911 3.053357570362596 3.3686751736259186 55 54 59
0.8430373233232813 3.024479942538727 3.3621763712384403 52 51 56
0.5934639846660594 3.287214526101073 3.5135079195103573 48 47 52
0.7524150984727775 3.080461691059683 3.4107558593585874 46 45 50
0.8008682416750736 3.0011020132598265 3.3767940974874078 45 44 49
0.9366121837861652 2.8229750981539294 3.2887918732938455 44 43 48
0.9731774986977382 2.758365500040372 3.2623996660145402 45 44 49
0.9852574836109751 2.721778324381979 3.2512173462990246 46 46 50
1.1235728151480966 2.5433188579352954 3.1620396483381517 46 47 51
1.1036456281286149 2.5434777610155175 3.1707582827130665 52 53 56
1.0365801301029505 2.5962593337072115 3.208544322049126 57 58 60
1.0257848486556107 2.5859402427095874 3.21158601607993 64 66 65
1.0027930448624638 2.589167559982645 3.222137411271972 70 72 71
0.9714033265495281 2.6016009073634825 3.2378400003798555 81 81 82
0.8095273212328498 2.757762870678219 3.3336923683577515 108 108 109
0.7972385924558028 2.748425010901297 3.337544127665157 137 137 138
0.7839524653075003 2.74017760849475 3.3420072091352244 184 184 184
0.7698245993699795 2.732839693759258 3.3469844632234906 198 198 198
0.755686129648534 2.7254979205106644 3.3519657195162424 202 202 202
0.7580299573698184 2.7002724343127147 3.346866744214055 203 203 203
0.8244315263853308 2.605942388008798 3.3026559779658506 203 203 203
5.7915690614307955 5.99143433645922 1.699081384905004 198 198 200
5.7909482939070145 5.889831974696252 1.6827828146964836 199 199 201
5.789566431334553 5.796743763944459 1.6682057180685042 201 201 203
2.2726902094513752 4.07012831578518 2.9249728327218016 201 201 201
2.277309657416635 4.031399260341844 2.916635950097831 201 201 201
2.2732826662526424 4.007745841196506 2.9145398579079576 201 201 201
2.2737962728613414 3.976427628862146 2.909207576530641 201 201 201
2.2688445133466546 3.9545921022117727 2.907812473958954 196 194 196
2.2760010514935374 3.9122833806050306 2.897782013763002 165 165 164
2.2830993912329616 3.870320838885031 2.887833468519671 114 115 117
2.2924282123563797 3.824843576243735 2.8763360547433687 96 96 101
2.3007703416022034 3.7812948184514514 2.8655847567906636 83 85 85
2.309870624568079 3.7367347288315935 2.854336890248529 70 74 73
2.2942326164708167 3.7336682746697347 2.860677188936554 61 62 67
2.3031769427907545 3.68973902261492 2.8496004230952763 55 54 60
2.2638788709094593 3.725866319961578 2.8726821642366245 50 49 55
2.198699981272015 3.804299938975237 2.9139843754963537 44 43 48
2.159481307607058 3.8394554717882956 2.9368729032007033 42 42 46
2.1316052458241574 3.8557246114233488 2.9517197886916753 39 40 44
2.1038699289681277 3.871570695936864 2.9664361141986433 39 40 44
2.200665299580312 3.6850713103321553 2.8936799665415487 39 40 44
2.19422066903052 3.6668592546515906 2.893528821730748 40 41 45
2.1635946622111364 3.6876746014509907 2.9103200231309825 40 41 45
2.1115689373727196 3.742616483963082 2.9420375421333698 42 43 47
2.0160721620656705 3.866601696385552 3.00403035642048 44 45 49
1.9879511590004588 3.8822423295342796 3.0188818827296355 49 48 53
1.9172829975120702 3.965235511688931 3.0633288283716493 54 53 58
1.9042376218684052 3.9564079784136084 3.067595492234406 56 55 60
1.872905679794249 3.9763868145099535 3.0845590601461166 60 60 63
1.8408898156522178 3.997218624221743 3.1019608998362855 62 62 64
1.8036397868755634 4.0260101060602125 3.122950400890192 61 61 63
1.7739832614103705 4.04268278141624 3.1386419111256587 66 65 68
2.6740219619337005 2.6157313288981108 2.512227292703435 71 69 72
2.583245871970091 2.731865062600111 2.5708746975033185 73 70 74
2.4974057954654874 2.8394775230695 2.625973268358062 74 72 76
2.409615250817779 2.949233504397123 2.682274597928193 75 73 76
1.7580084832087948 3.920708692042526 3.1257371338015916 75 73 76
1.777918385413181 3.861410239031077 3.1073572605715682 76 73 77
1.779882839171477 3.829727006747922 3.1013308172408203 75 73 76
1.7771954521779065 3.805242075187214 3.09851314392417 73 71 72
1.806357225121723 3.7328459459162024 3.0739502326760126 71 69 70
1.8092132776923093 3.7004214301994143 3.0674128906142686 70 68 69
1.8042745509634275 3.679828363080981 3.066214717233605 66 65 66
1.7990771229046636 3.6597000464656424 3.0652055005051366 62 62 64
1.7976490679172614 3.634046619202234 3.0616464009590763 60 60 62
1.7565109941843313 3.667297789959311 3.0850639371547266 59 59 61
1.7495838009491362 3.649773611519451 3.085236060004522 58 58 60
1.7202417577745301 3.665249992714417 3.100594907942578 56 56 58
1.6867742531975738 3.686585514773552 3.1187138756264963 57 56 60
1.674322660411107 3.6770310908580983 3.122602259131021 59 59 63
1.6712290189130163 3.653869535554215 3.120178116787012 62 62 64
