ply
format ascii 1.0
element vertex 725
property float x
property float y
property float z
property uchar diffuse_red
property uchar diffuse_green
property uchar diffuse_blue
end_header
0.9654006814203738 2.100169011184726 3.563990427721327 202 202 204
0.9079085080347873 2.1522210393408785 3.5366883766677035 202 202 204
0.9563293321547793 2.1408681262228564 3.550191434308004 201 201 203
0.9285692579248404 2.1749293607263738 3.534400260232642 201 201 203
0.8645443683552412 2.2302845903998403 3.5047588707171364 201 201 203
0.8523295334182499 2.2547965598609045 3.495027833222004 201 201 203
0.7058768060881512 2.35801904160403 3.4340613565468354 201 201 203
0.6616187942940944 2.4008009895306834 3.4122516988375 201 201 203
0.6143315978496937 2.4451216920119925 3.3893552347676073 201 201 203
0.45922346692424487 2.5517733154628375 3.3255660796793487 200 200 202
0.44106687639268094 2.578538125247585 3.313926896869221 200 200 202
0.4385178108399642 2.5962065969145107 3.3082286261967107 200 200 202
0.44627091499512944 2.6079259325163786 3.3064357033653415 200 200 202
0.5316535396961939 2.575288633806725 3.3339327921991866 200 200 202
0.5545555688738149 2.578567849380911 3.3377925858208237 200 200 202
0.6554912205009936 2.537668787217848 3.370975292416807 200 200 202
0.9760968079006029 2.373096571746399 3.486501901089524 200 200 202
1.0333565247318939 2.3580828869945654 3.5029339104662696 199 199 201
0.9874523397097097 2.4011144169108385 3.4807050328261093 199 199 201
0.7041283921202112 2.5764742634230315 3.3698695633783062 199 199 201
0.8011255370894939 2.539055248342864 3.4012070025283614 198 198 200
0.799405509499847 2.5567168240264704 3.395685149530336 197 197 197
1.0174917886304176 2.4530521065840976 3.4718502268694036 195 195 195
1.0251010306076604 2.4659905379510905 3.469670868452523 181 181 181
1.0124760049317207 2.490010619312435 3.459997250274856 124 124 124
0.9774052506407807 2.5261872162192183 3.4420501187920354 122 122 124
0.9225329812780878 2.5729391543457747 3.4168476881981227 116 116 118
0.8811754011584998 2.612114667223452 3.396701845892971 98 98 100
0.8942265240664806 2.621765323406888 3.3966278422969602 90 88 91
0.9805811687781132 2.592100546946872 3.4234609593631182 84 82 85
0.8987164581052459 2.652703354819101 3.388533509911359 78 76 79
0.9271626251717248 2.6541940693528483 3.3940821412736994 75 73 77
0.9275992641730888 2.67063171874849 3.389371564502454 69 68 74
0.9491278229102021 2.675902951603185 3.392360435358873 66 65 71
0.8667607025201274 2.7358918097611293 3.3575066668958717 63 62 68
0.8434342505569912 2.7645700699122657 3.3442208768263515 61 61 64
0.8073627816328907 2.799772216929805 3.3263479228995316 57 57 59
0.6843592923573307 2.879971828042581 3.2770407852083934 54 54 56
0.6823606547430763 2.8969952106766828 3.2716467764056483 51 51 53
0.6796059880920164 2.9143730823749037 3.265990155697578 48 46 52
0.7725739761824812 2.8825722395808246 3.294838581817328 45 42 49
0.831023153914624 2.8687836649982423 3.3111628867577383 41 38 46
0.8990874817753753 2.8503178102104387 3.3308764266798434 39 37 44
0.9237422353529713 2.8541216600249584 3.334951659786618 38 37 43
0.9630818858416199 2.8505859040939456 3.3442604659625017 38 37 43
0.9987591432178878 2.8490289668718 3.352220689714131 37 36 42
1.0260695139861333 2.851783633429625 3.3571611092083113 33 34 39
0.9776513921021013 2.892392151273773 3.335111288431551 31 32 37
1.4307512905587803 2.6836954163958118 3.491401882437967 31 32 35
1.490518127907623 2.7233191613459566 3.492398411550093 25 26 28
1.4890579413963572 2.741284198660033 3.4868425612667466 23 24 26
1.4817746785970374 2.762034520978023 3.4792479726851155 22 23 25
0.7542849606617683 3.1769129662494766 3.204996431995652 22 23 25
1.31742881684607 2.925554363574475 3.3969008495893815 21 22 24
0.845090802984189 3.1651941121196754 3.2275228486382117 22 23 25
0.9371577219630686 3.137643446348877 3.2549399850079426 26 27 29
1.034860357797289 3.1078036452210127 3.2842114899530417 31 32 34
1.0403243612817619 3.121307168518236 3.281415744777943 34 35 38
1.070788053128188 3.1232098415664615 3.287268440508669 38 39 43
1.079466533998247 3.135270804188091 3.285570377279837 41 42 46
1.0903937076065262 3.1463064141742523 3.2846449342470976 44 45 49
1.0912482738010678 3.1619711804680684 3.2802480818245114 43 44 48
1.1013030586647488 3.173419558103417 3.2790185218443884 43 44 48
1.1276893317405319 3.177470788979606 3.28338573602905 42 43 47
1.185117769700879 3.1675766993858026 3.298357495515474 38 39 43
1.1701570899852514 3.190446819094024 3.2885285041516727 37 38 42
1.192922275635396 3.196337088330793 3.291596663594968 38 39 43
1.2712300709583046 3.1775304671000457 3.3135646583162464 38 39 43
1.232889381312823 3.2107802581083686 3.295784734560616 37 38 42
1.196403504859864 3.2430317516489375 3.2786866669537953 36 37 41
1.170514467777777 3.2704512544257924 3.2652295505034514 36 37 41
1.115959762030571 3.310293944798038 3.2421125342465427 33 34 38
1.0696452149106226 3.346303179169666 3.22184896686715 29 30 32
1.0675205997781094 3.3629291614871764 3.216544561112048 25 26 29
1.0483292641224333 3.38689321609428 3.2055059711711404 22 23 27
0.8031081596315421 3.5079440191293387 3.1185530715780496 19 20 25
0.6771309920720793 3.5769681013441548 3.0718854154731714 18 19 24
0.5698977472703678 3.6374876920190737 3.0316455546072425 17 18 23
0.1888055166928111 3.813704899880594 2.899992293760284 15 16 21
0.2557509072522228 3.7992748898057522 2.9182913308991707 15 14 19
0.2818882804542002 3.802230878065191 2.9229261711621124 16 15 20
0.2952174390487726 3.8106231557861756 2.923278305797075 15 14 19
0.2904913531596349 3.8265610549827196 2.917627664907492 14 14 19
0.30598088727868056 3.8340818234404024 2.918688893681566 15 16 20
0.29628166835592085 3.8520283342529216 2.911405228507698 24 25 29
0.2973592585335181 3.8654913105311826 2.9076985691966266 16 17 21
0.3104513226329877 3.8740277670467096 2.9079587034242436 15 16 20
0.35471107313477446 3.8699194584339422 2.918469817769992 14 15 19
0.3486251349082652 3.8863334584823948 2.912394009801976 14 15 19
0.36403026222965384 3.894046025566827 2.9133814461194256 14 15 19
0.37042947138787063 3.9054054225673567 2.9114088671328306 13 14 18
0.3489946043351475 3.9278706462139468 2.9003362094740814 13 14 19
0.4398237312861554 3.9056623381936753 2.9259321283665543 13 14 18
1.322808212793338 3.586470772847444 3.20493884439991 16 17 22
1.3143008340525273 3.6054403593850237 3.197607001794724 19 20 24
1.315221181840113 3.620681759651844 3.1933476785278057 23 24 28
1.3456472764463165 3.624469099946117 3.1986418397151954 23 24 27
1.362049373360209 3.6337544566650526 3.199379499411637 25 26 29
1.557493589440302 3.574381346488861 3.257841157080385 27 28 31
1.711256942316477 3.53163599705142 3.3026765262238653 30 30 33
1.9781915879230465 3.4464512683025337 3.383718607377752 29 29 32
0.9376601391463035 3.885912418327078 3.0364310533515466 24 23 29
0.8453598755192975 3.934955935956386 3.0026854667932166 23 22 28
0.8271428500170688 3.95618172701469 2.9926518527928514 21 20 26
0.8096886077730379 3.9770353607609437 2.982887433532744 19 19 25
0.7617753910879679 4.0089727518603295 2.963477189157063 18 19 24
0.7585229217042526 4.024411608434142 2.9582823503491262 17 18 23
0.7166214779963628 4.053847528702103 2.9408676207044278 17 18 23
0.7082837068245399 4.070982363728874 2.9341074999673986 18 17 23
0.6665080647784093 4.100079609249066 2.9168181823266486 20 19 25
0.6194289692808672 4.1308959010802715 2.8979109511420864 27 26 32
0.6123885331446229 4.147276862758157 2.891643999999423 32 31 36
0.6339429394026853 4.1534934584344265 2.894362110685136 32 33 35
0.6859146427378424 4.149062532861508 2.90658982795791 28 29 31
0.7460106419449481 4.1419568521076355 2.921308093717678 26 27 29
0.7794837736327798 4.1443221917752915 2.9276587059593764 27 28 30
0.8345126198179138 4.139320800043227 2.940696215494205 26 27 29
0.7465924693380795 4.18375970275078 2.9092173504758176 26 27 29
0.8232322991813343 4.171448065636037 2.928936881176754 28 29 31
1.0089071031137098 4.1222193931687245 2.982379564717682 29 30 32
1.053215500286228 4.121586664246393 2.9918854857191532 29 30 32
1.0832744367372245 4.125899254039618 2.9969489514846255 36 37 39
1.1029273228171361 4.133789723275013 2.9987780037360063 43 44 47
1.156505202939178 4.130409235455948 3.011036712578081 47 48 52
1.1635820465666953 4.142632182297621 3.008954390964974 53 54 58
1.1473797375636543 4.162541393244452 2.9997292612404034 57 58 62
0.9861351350050914 4.229978591760362 2.9461060950776163 59 60 64
0.9935434767660846 4.2417566964348135 2.9442234753191747 61 62 66
0.9834535362848654 4.259220116266162 2.936998754982169 63 64 68
0.9952988463077601 4.269543717435196 2.9364744791802573 65 65 70
1.0119764077332607 4.278336608844252 2.937413966658694 61 60 66
1.048322789626944 4.280888118958499 2.9443146267447595 64 64 68
1.0913136263866794 4.2814385176520275 2.953197712248718 73 73 75
1.2729767852160951 4.238345204923842 3.004003964938167 78 78 80
1.2228474045664757 4.268635856261463 2.9846086231795814 84 84 86
1.3190019648830458 4.253068831605917 3.0093845215292827 88 88 90
1.4765628411194358 4.21876537351572 3.0525523804771986 92 91 94
1.5710507228099693 4.20446063158684 3.0766088740832154 101 101 103
1.6447592093590793 4.196842923326218 3.0943403638536395 114 114 114
1.7635654149694517 4.175707907694038 3.1255081872405217 108 108 106
1.8855383175058449 4.154009513997885 3.1575067786844873 96 98 97
1.9758792410722283 4.142254633296332 3.1799459169046917 139 140 140
1.998376747557159 4.151128209068583 3.1820861609777014 191 189 190
2.0372929868291036 4.155165007053424 3.1890934940350455 202 200 201
2.0839835771531634 4.157011901676655 3.198376103895538 201 201 201
2.1843328827276016 4.143199163382288 3.2235219086707185 201 201 201
2.2644127325693355 4.135646681791051 3.2425746718356985 201 201 201
1.352858873924065 4.416859496719295 2.9686537671798217 202 202 202
1.3579716674933313 4.4297666966865235 2.9659583608390467 202 202 202
1.3308142809947106 4.451945983197984 2.953765408552314 202 202 202
1.2742675412644722 4.482405725114984 2.9329706591232485 202 202 202
1.502052632917333 4.431904260685353 2.9956438532148604 202 202 202
-0.9215592736637638 2.9620053607035364 2.927632516579652 204 204 206
-0.9684843871698235 3.006096281935244 2.904771011716582 204 204 206
-0.890499311101585 2.969847912431722 2.931917879379949 203 203 205
-0.8089577029491279 2.931665119159114 2.960385195406143 203 203 205
-0.7768311378321927 2.9252931602829477 2.969060696550887 203 203 205
-0.7405236528677814 2.91639324897631 2.9793628498138895 203 203 205
-0.7055764302530438 2.9084958963470706 2.9890830153378856 203 203 205
-0.6523264013697285 2.8892101351718695 3.006018441894554 203 203 205
-0.8800890721598376 3.0464422740712966 2.911686199640581 203 203 205
-0.7771384790445295 2.9958844290399242 2.9483161292437305 203 203 205
-0.9498588994576775 3.117455807285848 2.876096145172912 203 203 205
-0.7914547728398189 3.032753690476708 2.9344812504049687 203 203 205
-0.772899895431035 3.0352068130260283 2.9376951138892182 203 203 205
-0.7597003206919095 3.0410187618757063 2.9387900269524936 202 202 204
-1.0814762328441347 3.2656138036651585 2.8047990510023384 202 202 204
-1.0316013263308341 3.248403928766242 2.8204110360529455 202 202 204
-1.0129774012724346 3.2503613450574855 2.823784748569292 202 202 204
-1.0106878338675185 3.262255311893955 2.8207857064159336 201 201 203
0.9864662462510083 2.090335068376893 3.5873692210393484 202 202 204
0.9465890838885547 2.131881515312718 3.566746843090547 202 202 204
0.9194355014048212 2.1656404845385655 3.5511023941041127 202 202 204
0.9188534765308084 2.1834817351505365 3.5457525175272915 201 201 203
0.8870081528687568 2.219769525308307 3.5283728992083345 201 201 203
0.805776773541811 2.284966045241618 3.492057769492962 201 201 203
0.37169556360619177 2.556760151687296 3.320438181609172 201 201 203
0.3650686127584317 2.5767889803457797 3.313166309260905 200 200 202
0.3515011839711102 2.6008011237795174 3.3032565851624627 200 200 202
0.3439451115782224 2.6212390476732317 3.295667953222724 200 200 202
0.4436763058144111 2.5796317645755518 3.328993536412848 200 200 202
0.4437345818576884 2.595802710207991 3.324268673519418 199 199 201
0.45913620053698573 2.6031494644385793 3.3253806697355297 199 199 201
0.5000000150718256 2.595994472930064 3.3361373181236846 199 199 201
0.5362560258525811 2.5916130376752937 3.3451048925312414 199 199 201
0.6560252678229255 2.54003428658635 3.3855984144435936 199 199 201
1.0364588020293917 2.341800134715023 3.5242988911669793 199 199 201
1.034653275705167 2.3601516932807405 3.5185402146539455 199 199 201
0.9941255940340034 2.400156246626008 3.498231658072027 198 198 200
0.7250777901549444 2.5674630308699093 3.3921981728257626 198 198 200
0.9779880573734224 2.4434658730406005 3.482124108295005 198 198 200
0.7797836277425714 2.570287883378518 3.4029649256963115 196 196 197
1.0669735390046151 2.4285480767870555 3.5053536811007913 194 194 194
1.0516180790630885 2.4542087007375364 3.4945820882953598 170 170 170
1.0220772840361922 2.4875348244504254 3.4785584970342764 105 105 105
0.9879477152627268 2.5232050152136822 3.4608756821311535 104 104 106
0.9715952244899005 2.5490495828470294 3.449838894377561 119 119 121
0.9118433738462478 2.5982593007155903 3.422759376986329 104 104 106
0.9721178544624309 2.599396650549122 3.4352006877775985 86 84 85
0.8978799971798717 2.655876331995001 3.402921318746753 80 78 79
0.9445054813026827 2.647700360823087 3.4151981795964677 76 75 76
0.9554107618255123 2.658625402106375 3.414308983033109 71 71 74
0.967966739704624 2.6686974908434062 3.4140195020982413 68 68 71
0.872496413451958 2.735584109981206 3.3741914811975975 65 64 68
0.8555753220117163 2.7609108777578646 3.3631858723752317 63 63 65
0.8027492613675806 2.8048611261431615 3.3391149382089576 60 60 62
0.7636406677404145 2.841436278504271 3.3201117705516268 57 57 59
0.6186043251493503 2.932607760321838 3.2626646410004136 55 54 57
0.6282942152621267 2.9434380156887276 3.261545623372772 53 51 55
0.6233679632973352 2.9617808709059292 3.2551280940489056 49 47 51
0.3619926286910976 3.1110996870304595 3.1559902049971584 45 43 49
0.3337137289678156 3.1406924599921378 3.1413277283098022 42 40 46
0.3100301024810408 3.167812860901284 3.1283634391948687 40 39 45
0.8586679341814738 2.922163849575587 3.3166029033744238 37 36 42
0.9200032920196853 2.9076061137085247 3.3338668676430006 33 34 39
0.9269463044732968 2.9203846322542444 3.3315949445296913 33 34 38
1.5018810067650108 2.7206638692721605 3.5119532356793752 25 26 28
1.4740554905993597 2.7514625050403114 3.497033595811583 24 25 27
1.4649523123232169 2.7730581988849807 3.48877790824226 22 23 25
0.36205791924678343 3.3216373671642088 3.094327871333774 22 23 25
0.19636209086396006 3.415993593229549 3.031569239882994 22 23 25
1.3016611798659834 2.9358402236476167 3.4064838608034087 20 21 23
0.8668648556110058 3.1575776906994606 3.249376604833127 21 22 24
1.0109441481602217 3.10567571215599 3.2951170545690176 25 26 28
1.1538342310432623 3.05488873186952 3.340278830517967 28 29 31
1.0844748897453296 3.103467495335467 3.311347949964635 32 33 36
1.0535548316128969 3.133921206727939 3.2958735012238853 36 37 41
1.0680220650233725 3.143276958468843 3.2961989372899905 40 41 45
1.08788569897713 3.1501851784378636 3.298385073918495 41 42 46
1.1109619115459337 3.1556774306949307 3.30166688224306 39 40 44
1.1334414407521345 3.1615079555408814 3.304723134691273 38 39 43
1.1495543092202585 3.1702894697027078 3.3055655650542706 36 37 41
1.1817365906943025 3.171854569290721 3.311927745119983 35 36 40
1.2358300923799528 3.1636739151012163 3.32578873950356 35 36 40
1.166547502132686 3.210889238826009 3.297273539683832 38 39 43
1.2610510108292905 3.1848401612797477 3.324933460102212 38 39 43
1.2152519862252766 3.2213624368430365 3.3045278214906375 37 38 42
1.1844995466744066 3.2510333876453297 3.289318204191967 37 38 42
1.1247839179592056 3.2932857600218175 3.2642844901607666 35 36 40
1.0803132233288337 3.3286055143141375 3.2445126498250425 33 34 38
1.0581806768927524 3.3539942603287334 3.232384375918148 28 29 33
0.9537312130122788 3.4149608364802986 3.192387581500672 23 24 28
0.9396764786835143 3.4364753576131477 3.183106246979672 20 21 26
0.7789641902583093 3.5209193310960325 3.124307575073482 16 17 22
0.6032548081236169 3.6111208417458758 3.0606437916842117 15 16 21
0.4936859372835499 3.6724519097523745 3.0194552205659395 15 16 21
0.24835398573777523 3.8048054033477374 2.928687468055499 14 15 19
0.2716118243889911 3.808963151782898 2.932398707525947 14 15 19
0.2807962348403201 3.819070394381364 2.931384362912841 14 15 19
0.2943852517848371 3.827358817043138 2.931836340739207 13 14 18
0.2746174963882215 3.8494876925138017 2.9211642235216435 13 14 18
0.278203911972597 3.8618938885957044 2.91828997812987 16 17 21
0.29517941580099727 3.868800335602712 2.9198645277012094 19 20 24
0.3095020215091858 3.8768330831306956 2.9205468803575947 15 16 20
0.34454914668403236 3.876479059011976 2.9280784311824033 13 14 18
0.33792393045036606 3.8930878977628622 2.921808798829596 13 14 18
0.3717308970708961 3.89337814898296 2.9288887742242125 12 13 17
0.364551114366362 3.9101912947756596 2.9224417568639667 12 13 16
0.3438956440934774 3.9323258213267183 2.911579843080402 12 13 16
0.5619575170177034 3.8596672772102556 2.9790806148959414 12 13 16
0.5204176548597333 3.8903000563670362 2.9613029618962057 12 13 16
1.289547746418699 3.602280707408961 3.2086854819119583 13 14 17
1.1208464557526705 3.683809059972885 3.1490477510326222 15 16 19
1.2924682570174597 3.632271065558434 3.2005188955653456 18 19 22
1.3232867267624555 3.6358716510135016 3.2059957437527684 19 20 25
1.5773084356472353 3.553576439557739 3.2839408182987917 18 19 24
1.7203738020382229 3.5147537598485763 3.325634849602576 19 20 24
1.937790579180899 3.4480843477541114 3.3912444084105715 18 18 23
0.7876658538469636 3.95898682005967 2.997821675379229 18 17 23
0.8539454232567261 3.9488177515414544 3.014847866695794 17 16 22
0.8760801975772428 3.955132921281553 3.0176890774710503 16 16 21
0.8250663386873459 3.9883129335068532 2.997157316525626 16 17 22
0.8333715612480537 3.9996532972746826 2.9955954000917098 15 16 21
0.7824442422103861 4.032486870996491 2.975183468060785 16 17 22
0.7551015299449613 4.056597803388146 2.9623252889601384 17 16 22
0.6941896131711757 4.092636558374883 2.938858289596642 19 18 24
0.6797572036651024 4.111826970574221 2.930177749519028 21 20 26
0.6854449973138518 4.123793120672965 2.927877777096708 23 23 27
0.6612693382488134 4.146313928929325 2.916156639524177 24 25 27
0.7200212266695133 4.139564864104559 2.9305855477891507 23 24 26
0.7849072054278431 4.130864707162968 2.946886071594527 23 24 26
0.7816765129942203 4.146081667098794 2.94174361541116 25 26 28
0.8286379488121088 4.143892953320128 2.9523377343095247 27 28 30
0.8466433957896731 4.151823117213077 2.9538306748886343 26 27 29
0.9248786470432856 4.139171682261456 2.9741179367558837 30 31 33
0.9210738116831885 4.154728351674252 2.96875428095546 34 35 37
0.9775230568066811 4.149835086450155 2.982151521007172 41 42 44
0.8973894122259152 4.191150286859105 2.9530649807577274 46 47 49
0.9482823760953825 4.188237302622303 2.9647045145912267 49 50 54
1.144474557445252 4.137052511714503 3.021279603090758 54 55 59
1.149459077928329 4.149947960996706 3.0185583454148537 57 58 62
1.1116098009551514 4.17696212892412 3.0026229277927774 60 61 65
0.9707444734413818 4.237597648756031 2.9550051855248234 60 61 65
0.9826859072777179 4.247870473310857 2.9545266541918678 62 63 67
0.9663962644263744 4.267320042775445 2.9453765754766796 65 66 70
0.9903379808074656 4.273713939412529 2.9485776844080287 68 68 73
1.017978937524286 4.27898555301939 2.9528915737173898 64 63 69
1.0680995560904156 4.277165049758498 2.9640473797873708 67 66 70
1.184965290039165 4.254334723567429 2.99550380000787 74 74 76
1.2794239786460126 4.238966147036336 3.020025411265321 79 79 81
1.3186531727305724 4.2412304876014835 3.0276762647254327 85 85 87
1.3361428981758408 4.250390192247507 3.028699714926637 89 89 91
1.4820834549370172 4.2197690613494805 3.068600499316802 94 94 97
1.5706330307784708 4.207333427246507 3.091010547358518 101 100 105
1.6496433014574017 4.198112369593888 3.110457150498664 104 104 106
1.7402829462507012 4.185604733290252 3.133331257717708 96 96 97
1.8473144706379059 4.168428943740999 3.16104695481401 88 90 89
1.9286245411801077 4.159353721260443 3.1809382526335814 125 126 126
1.9578434695402276 4.166137142109648 3.1851436972598437 184 182 183
1.9893598966659665 4.1723158047112054 3.1900132322139423 200 199 200
2.0344958797500707 4.174551716590267 3.1989242907111204 201 201 201
2.1595588580821317 4.153413915064194 3.2316222056214516 201 201 201
2.2622484373400518 4.1392316256869615 3.257540742767725 201 201 201
1.3489379506246835 4.420655355069079 2.9815329828466615 201 201 201
1.3434500714966333 4.4366179468193385 2.9756937116740527 201 201 201
1.3630761099441477 4.445328502236675 2.977301505668123 201 201 201
1.390974003870541 4.451724839037071 2.9813403667456138 202 202 202
1.5041400691439675 4.434009801225748 3.010514180861029 202 202 202
1.6079578350225638 4.419301151675586 3.036826019479318 202 202 201
-0.8801083287709757 2.965358966439079 2.947894073686918 203 203 205
-0.8156160228360047 2.938115111680279 2.969666210984637 203 203 205
-0.872165583306206 2.9881564897536554 2.9428935721468656 203 203 205
0.27985104763557683 2.3377748109234533 3.3798983946817547 202 202 204
0.2654547290669645 2.3631626274199884 3.3693674284395927 202 202 204
0.26539691772621143 2.3795641722448124 3.3645374302404614 202 202 204
-1.1088540661083743 3.2844241691724476 2.805334985301729 201 201 203
-1.0395543524483695 3.25534391401952 2.828672961313337 201 201 203
-1.0185033473536325 3.255816563835387 2.8330287288790843 201 201 203
-1.0050531729485708 3.260953980478059 2.834391452931352 201 201 203
-0.9781177176003502 3.2580115402549916 2.8410067298619186 201 201 203
0.9918146286849954 2.089942021232872 3.6047060956310153 201 201 203
0.9831004324093993 2.1128658037203776 3.596112084336034 201 201 203
0.9313586851540137 2.1613302570728505 3.5708291545377873 201 201 203
0.9561803782682606 2.1641324894252487 3.575305729238462 200 200 202
0.9125922257777007 2.2074273803712976 3.5532821381069297 200 200 202
0.7828300084807328 2.3012104474951034 3.4980295417843847 200 200 202
0.7566561728443789 2.333654296055842 3.482911377185607 199 199 201
0.38335331286291446 2.568689667998422 3.33417013082928 199 199 201
0.35010791974943734 2.6041848445086986 3.316645846101914 199 199 201
0.5130204695179916 2.5258116376032764 3.374450003878831 198 198 200
0.43872270616929054 2.5850941786539714 3.3411735232460433 198 198 200
0.43603850844320163 2.6028298008138955 3.335390904416686 198 198 200
0.9170118668378071 2.3605961830524116 3.5092352310824775 198 198 199
0.9285393553905278 2.3712027997130543 3.5085809646644375 197 197 199
0.8955054104457831 2.407068870154298 3.4909928828996706 197 197 199
0.8851790821100801 2.4299497088108284 3.4820672792763596 197 197 198
0.96197530083024 2.403794446499786 3.506146670646086 197 197 199
0.9961204829327213 2.401821902869738 3.514016406796865 196 196 198
0.7215819208196783 2.572097950038429 3.4053841959673385 196 196 197
0.9559665174036566 2.458470523731822 3.488803634068195 196 196 197
0.773973073135952 2.576203846119259 3.415364198096188 195 195 195
1.070910782096148 2.4291787010331856 3.5219493217139446 190 190 190
0.7942486499230107 2.5982810408530845 3.4132084626120847 159 159 159
0.7311461651167624 2.649388950471124 3.384723434775431 96 95 96
0.6713551475706485 2.6983927867778577 3.357563471464128 96 96 98
0.9693615241782527 2.5530205776875627 3.4638912464713303 107 106 109
0.9302942896611974 2.591026578497807 3.444386431575941 110 109 111
0.48515512669041705 2.847367810349519 3.2740492089788655 98 97 98
0.4332881894645903 2.89097166150332 3.250167263190781 89 87 89
0.3794386370041424 2.935385252002075 3.2256241630722378 83 81 82
0.920854496921309 2.66301692913654 3.421225087953853 77 76 77
0.9505816283776686 2.6639253229931974 3.4273053032798817 73 73 75
0.9712362950771458 2.669717796185934 3.4300138474680684 70 70 72
0.8717555112057852 2.7386830430964326 3.3885164220422395 67 67 69
0.8945675019163029 2.743211101105544 3.392056975371438 65 65 67
0.8950672243345771 2.7594352655659207 3.3873981184478446 62 62 64
0.6298624734474322 2.913532296281583 3.285511060783529 60 59 62
0.57604880576326 2.95721775869553 3.2611894967790693 57 57 60
0.5091511990990059 3.007384944503635 3.232170492997716 56 54 58
0.496792955283385 3.029283668751362 3.223099533335695 53 52 56
0.3177040849280104 3.136231268759137 3.1534483623001357 50 48 53
0.3103504254019597 3.155079803368764 3.1463418689889044 46 45 51
0.3047385927212777 3.1729902890269015 3.1398828078908205 44 43 49
0.2909652334929531 3.194967875866527 3.130486542505413 42 41 47
1.4297510037172663 2.758734395730827 3.501764313273513 26 27 29
0.2537344877754095 3.37629207494274 3.0692767273140578 24 25 27
0.1651802849913574 3.433381144906923 3.0336006466339733 22 23 25
0.19172027133632386 3.4351359390731386 3.038751759980274 21 22 24
1.3091192218271677 2.9351219183621273 3.424197602629269 19 20 22
0.882397319947106 3.1529179970133683 3.2691145855476806 19 20 22
1.0217121725916354 3.103331017202879 3.31342496967884 21 22 24
1.1878992707128866 3.041727886526689 3.3670023719491624 25 26 28
1.1334789394993154 3.083400311681218 3.343142572232673 28 29 31
1.0704390845585794 3.1288181791571352 3.316342262685195 29 30 34
1.06076826448284 3.1493428279108384 3.308248704468493 31 32 35
1.1003377672865908 3.147193443827815 3.3173285309251415 32 33 36
1.1173690756592636 3.1554801821374263 3.3185308069979444 33 34 37
1.1522998992273836 3.155662506012701 3.3259353323875867 32 33 37
1.1654482516191162 3.1658288189231985 3.325756467790425 32 33 36
1.174838362285085 3.177716883278464 3.3242694479384065 32 33 36
1.22638246420398 3.1706840241694896 3.3373404026985365 32 33 37
1.2662440090398908 3.1690542324603115 3.346329962254758 33 34 37
1.2516551335557327 3.191794453302585 3.3365355661632154 34 35 39
1.2033001965987913 3.229413245272497 3.3151614695760254 35 36 39
1.1697608881302473 3.260277610753631 3.298934647335574 33 34 38
1.083033989133291 3.3143411779798195 3.2645374005586976 31 32 36
1.0457163193898549 3.3464341385519765 3.2471429830306358 29 30 33
0.9180147018808649 3.4176901344545922 3.198947261994727 25 26 30
0.9534409592535219 3.4177433393794807 3.206495493788503 20 21 26
0.9541532868833718 3.4328822159528434 3.20220081374017 17 18 23
0.9918182979148349 3.4321350974426084 3.2104621222242433 14 15 21
0.6928700751518071 3.5753579524530075 3.1045645872485577 14 15 20
0.6199897832884063 3.621219653599147 3.075532878083678 13 14 19
0.5448897143499384 3.667711862911097 3.0458420240594095 13 14 19
0.4483448682096218 3.7229249228313486 3.0090109049788785 13 14 18
0.264715268404333 3.814270711040795 2.942972990752763 13 14 18
0.2937949000906004 3.816058532999039 2.9486566424322587 13 14 18
0.2953753842807457 3.8293661804315002 2.9450852126692437 12 13 17
0.29695298055680575 3.842658703547668 2.941517608800024 12 13 17
0.275309233008985 3.8654959877804345 2.9301884164598073 13 14 18
0.28494096645238254 3.875410430900938 2.9293327007556265 15 16 20
0.28456519749794573 3.8894215955490004 2.9251369460464387 13 14 18
0.28649977952018535 3.9024712378619397 2.92171690400928 11 12 16
0.2773098115895416 3.920000606184617 2.914605821570534 11 12 16
0.28779917803191135 3.929559707814246 2.9140375941647103 10 11 15
0.340620968176751 3.922197064562153 2.92747821620432 11 12 14
0.27850172320940736 3.9607900928277773 2.902879138227101 11 12 14
0.6699338996390249 3.8193651694309994 3.0279948113524324 11 12 14
1.0198000336535558 3.7108932639883503 3.1345563707706448 12 12 15
1.0954579414242762 3.6964005248721703 3.1549670677259773 12 13 15
1.1418644800947597 3.693541870083456 3.165715004969948 13 14 17
1.7650672176387372 3.4677259220214856 3.365104333319828 14 15 20
1.7815360498492918 3.4777882421860866 3.3656649703014785 14 15 20
1.8918476337803427 3.4519433436494853 3.3968090631775474 13 14 19
0.8945564235475103 3.90721176578767 3.050150626820861 14 13 19
0.8538449594920603 3.9369330893837824 3.032728225453904 14 14 19
0.8960354066682082 3.935817630745553 3.0420639529531175 15 14 20
0.9007384356551499 3.9486317060144094 3.0393041955193176 15 15 21
0.8702635128867734 3.974319569536667 3.0252521533485712 15 16 21
0.8521696047498954 3.9953611672746447 3.0152083373611633 15 16 21
0.8411427217671237 4.013751666654454 3.007452113657189 16 17 22
0.8160311177470883 4.037156567906576 2.9952157721692068 17 16 22
0.7830775397272701 4.06325851496552 2.9805128828536698 20 19 25
0.755146224200047 4.0874239130925565 2.967451122698697 22 22 27
0.7545970018057978 4.101743713411982 2.9631276778436586 23 23 27
0.7091062784611643 4.1319096186416955 2.944554269132244 24 25 27
0.7651470101424499 4.12621887733208 2.958191076611377 25 26 28
0.8137778727799643 4.123301844297261 2.969431076783819 28 29 31
0.8353797038960438 4.129937089747509 2.972094301042336 32 33 36
0.8196703485992384 4.149530831568804 2.962984892192823 33 34 37
0.8103549521246572 4.1668457378998704 2.9559100238090323 36 37 40
0.9575281162555922 4.1305671943312605 2.997989125306706 39 40 42
0.821442317708797 4.19119458999461 2.951125255512844 44 44 47
0.863193177587076 4.19111150368263 2.96006388617605 48 49 52
0.9308576437877142 4.18243477439915 2.9770595566202847 51 52 54
1.007158935478619 4.171090171037243 2.996682914960311 54 54 58
1.039459382740869 4.174653368662922 3.0025327586844246 57 58 62
0.9591194344762148 4.2156183377739875 2.9733466641743487 59 59 63
1.118543063350808 4.1772933618769 3.0186424644505774 61 61 65
0.9600717003988242 4.243661242430264 2.9653128902537436 61 62 67
0.982282697984562 4.250571399549583 2.9680254273446534 63 64 68
0.9726902971055833 4.267843474613221 2.960903996658202 66 67 71
0.9946877266693372 4.274881284934257 2.9635334390416648 71 71 75
1.0221373483462717 4.280229379592051 2.967823302079105 63 62 67
1.0714743010414087 4.27868069049083 2.9788121334363398 67 66 71
1.1918791522265177 4.254771566562533 3.0115426411634427 75 75 77
1.285880720286753 4.239588406364753 3.0360726914098763 82 82 84
1.3509904091418106 4.233768497270631 3.051683752505175 86 86 88
1.3724378517377138 4.2417571139262416 3.0539164851441116 91 91 93
1.488774226489014 4.220414090977877 3.085024587118662 94 94 97
1.5829091918002252 4.206297573538418 3.109269812138086 97 96 102
1.631404948681374 4.206463661627086 3.1195753552370724 92 91 95
1.7213659296564288 4.1941579213393645 3.142397510122995 87 87 89
1.8121444337607306 4.181899680266904 3.1653802623331857 84 85 85
1.887901579339542 4.174457408298682 3.1837412013104145 119 119 119
1.9443366022203474 4.173037240593504 3.1962077907266915 179 178 179
1.9278653919802458 4.193467681324879 3.1866899531803705 199 198 198
1.9254649763456213 4.209657836181308 3.181421877518573 200 200 200
1.9422886270091135 4.220167908492798 3.181926752750111 200 200 200
2.0720423769434113 4.197732388033346 3.2162204995679238 200 200 200
1.3708232782778538 4.416957295136997 3.002109897095974 201 201 201
1.3519856781799002 4.436806749213667 2.9922574659228154 201 201 201
1.3574441259239836 4.449600229053253 2.9896650474704836 200 200 200
1.3795066994117262 4.457657533436206 2.9920089409303006 201 201 201
1.3837867887466935 4.470808023683768 2.9890600658872972 201 201 201
1.3733128850538834 4.488106188840516 2.981742762056631 202 202 201
1.3322574869868014 4.513904876370732 2.965399130203745 202 202 200
1.3208474674512511 4.531294442330825 2.9578551089707914 202 202 200
1.2860923473697439 4.555075727891508 2.9434492244568626 202 202 200
0.4729687447761848 4.805189646720982 2.6963728084516383 202 202 200
0.28312241801305926 2.321852114111964 3.400071139198454 202 202 204
0.27478943461902305 2.343516585229774 3.3918982932365176 202 202 204
0.267488658399746 2.364471992557953 3.384156288199051 202 202 204
0.25881367861566096 2.386217011969087 3.3758861621204983 201 201 203
0.2477458054862014 2.409371410072587 3.366686281032454 201 201 203
-1.1136809578377465 3.2763284222323454 2.818533838432531 201 201 203
-1.090554716290896 3.275322130720344 2.8238042435629493 201 201 203
-1.0531631336108462 3.265719179028291 2.834674733922781 201 201 203
-1.0367721538608836 3.268991623040006 2.8372363427927927 201 201 203
-0.9961994580526984 3.2577129494588517 2.8492845627312082 200 200 202
-0.9727005455546968 3.256866096438241 2.854588165136113 200 200 202
1.0091889662929512 2.082345225119523 3.626773906218458 200 200 202
0.972112607987069 2.1222380255275954 3.6070503149082014 200 200 202
0.9890724875296731 2.1297899985023876 3.6084738862778996 199 199 201
0.9201705328091114 2.1882702628756925 3.5764308482188034 199 199 201
0.921387902582816 2.205015071724496 3.5717610378642677 199 199 201
0.6884459143039521 2.3594538462239014 3.476174478679612 199 199 201
0.720690518961483 2.357448028391158 3.4837004563410647 199 199 201
0.3875131256501067 2.5688479933973345 3.349778997572702 198 198 200
0.2989943365942051 2.636478229085699 3.3108219053473067 198 198 200
0.46677545017172123 2.5552276662755733 3.370838312339685 198 198 200
0.46353956975240224 2.5733747677595122 3.364797688624254 197 197 199
0.4623891549343646 2.5902808616278747 3.3595711095152585 197 197 199
0.94967299513833 2.3447307711822707 3.5366958851555763 197 197 197
0.9417411940801934 2.366468362498295 3.528587791023824 197 197 197
0.9119267495124888 2.400527544851229 3.5121442098392355 196 196 196
0.9097126531765785 2.4188649771762156 3.506267297491483 196 196 196
0.9299233473405136 2.424569017990433 3.508934308956932 196 196 196
0.9835556666028064 2.4116345429219557 3.5242790796404773 196 196 196
0.715353318677943 2.5782534144027722 3.417521402253339 195 195 195
0.9340656791706095 2.473392790172239 3.4954457786854194 194 194 194
0.88399515001715 2.5180698021295185 3.4715183418083084 194 194 194
0.8273978238219017 2.5660952982291803 3.4452009212537638 188 188 188
0.7717136472190567 2.6133460648566254 3.4193080742141806 151 151 151
0.7062337899547779 2.6656802554730246 3.389811195337341 89 89 90
0.6527232922177247 2.711189219990263 3.3648988588736506 88 86 89
0.5996251919605944 2.7562162461672224 3.340217161040428 98 96 99
0.5496457133598134 2.7993034075674728 3.316777546791126 107 105 108
0.505205531076387 2.8391695850417795 3.295477971671364 101 101 103
0.44111414990301984 2.889344690872265 3.2669156177014407 91 91 93
0.38858992406996506 2.933047327952249 3.242747406009384 84 84 86
0.3351868963547817 2.9769660394824395 3.218326542225794 79 79 81
0.27061590143458913 3.0265414282338754 3.1898376594157156 74 75 77
0.9205888556044078 2.6991615550932764 3.426054236026465 71 72 74
0.9107747935881193 2.7209075252472767 3.417538834046051 69 70 72
0.9071158086671461 2.739365589547191 3.4113156241517366 67 66 70
0.6739329538861366 2.877306824941936 3.320536078088226 64 63 68
0.681867902826855 2.8891797868290654 3.318745942664996 61 60 66
0.6151302270309176 2.9396302022937637 3.2895333352133953 59 58 64
0.48190771074682737 3.023973801492208 3.236038900261868 57 56 61
0.4345272204273464 3.063751694446197 3.2141329196724184 55 54 59
0.32050828785080754 3.137304645444428 3.1679468647531537 53 52 57
0.32077141258350717 3.1522845753181805 3.1635916019239345 51 50 55
0.2908098663470069 3.1825348290463324 3.1482381791698644 49 48 54
0.2823638820127844 3.201792180769621 3.1407499682974818 46 45 51
0.2974422188913993 3.209183631495322 3.141816130689238 43 42 48
0.2285815310049104 3.2585627353456483 3.112462422265052 39 40 45
0.13825595636747268 3.3183131811343074 3.075437461774618 37 38 43
0.15402802034581586 3.3250810706818283 3.076836482134759 36 37 42
0.42340483994556066 3.221853931310372 3.165176772765788 31 32 36
0.41061012752895854 3.243216983508333 3.156133063201138 30 31 35
0.2370891706564896 3.34282974990706 3.0894741241741666 30 31 35
0.2025758618366318 3.3742458317893598 3.072798342835681 30 31 35
0.14181669697430999 3.418178219238311 3.046791279810243 28 29 33
0.26266747943364566 3.3744524160649796 3.0856621151739496 26 27 31
0.17893767050569498 3.429216215253399 3.0515244402918738 24 25 29
1.274054717504833 2.937884118174123 3.431770273406331 21 22 24
1.313699558225332 2.9357700082073785 3.440919801345896 19 20 22
1.3623420359947938 2.929552454672352 3.453213094752218 21 22 24
1.4022878587597882 2.927583218038423 3.462384690683669 22 23 25
1.1141299419351351 3.0789375414637155 3.355830614319192 24 25 27
1.099120931539292 3.1021190431427685 3.3457750837293827 26 27 29
1.0874253613491778 3.1236796325839165 3.3369096014496042 26 27 29
1.093390089837314 3.137028213338379 3.3342611113647713 27 28 30
1.1121377333320577 3.1445095554850515 3.336090000314101 28 29 31
1.1313129694087336 3.1518447061297716 3.3380539126598614 29 30 32
1.1711895290015577 3.1498159002305743 3.347228155551184 29 30 32
1.2084126922263003 3.14912215949559 3.3554385006238943 29 30 32
1.2109495744718812 3.1641869304298758 3.351547294518218 28 29 31
1.2209448331194983 3.175888237495951 3.3502508496797563 28 29 31
1.2842343886860903 3.1637921120379917 3.3674258075280394 28 29 31
1.2107355376011961 3.2288714540928245 3.3324505146625802 30 31 33
1.1915158236829246 3.2534251040253843 3.321085216151013 28 29 31
1.0827844227505214 3.3171567802870285 3.2789289535662287 27 28 30
1.03198477532231 3.3551243889494446 3.2568207353780014 24 25 27
0.9822823897334967 3.3923883870043756 3.235155744131295 21 22 26
0.9960147764759675 3.4019699525799525 3.235287389269753 19 20 24
0.9967764536462248 3.4171699368696706 3.2309745460659838 16 17 21
0.9858085872624629 3.437379308031861 3.222663537504425 15 16 20
0.9354241597125796 3.4743513007852376 3.2009378521871783 14 15 19
1.3322822088538817 3.3210061910888253 3.3314576739616513 13 14 18
1.1386951821931073 3.4189951704949118 3.2609611221145207 13 14 18
0.9765091849611184 3.5029777018595554 3.201343509582856 13 14 18
0.8112239518865347 3.5876010916805643 3.140870563503504 13 14 18
0.30765236405146634 3.8126972483607053 2.966266637124512 12 13 17
0.34355019025242195 3.811779490435511 2.9742579033374588 12 13 17
0.3371492255347841 3.8284623508123437 2.9679677725865656 11 12 16
0.3320002564661201 3.844582762883999 2.9621125743956487 12 13 17
0.297484294981853 3.872685461987119 2.946412072765447 12 13 17
0.28438286898775544 3.8919052552375337 2.9379336226201467 11 12 16
0.29510536786663577 3.901389227320305 2.9374466385904867 11 12 16
0.2861393347479648 3.918840114580928 2.930378610635754 10 11 15
0.31738435686590427 3.9200795321893214 2.936733816611972 10 11 15
0.3150943727305855 3.9348252251567013 2.931898413396221 10 11 15
0.3689048382837069 3.927216897862493 2.9457128547183338 10 11 15
0.42539595374364136 3.918730998048239 2.960362315867237 11 12 16
0.43446883905726985 3.9291258446281665 2.9592522611685896 12 12 16
1.3899567042113175 3.5841310367361277 3.266367456011552 12 11 16
1.5957152795676257 3.519958183681156 3.3295224352662505 12 11 16
1.8195665744030092 3.449549385500796 3.39840542665562 12 13 17
2.009794363191393 3.392894693929638 3.456005783437729 13 13 17
0.8627456840291622 3.9216694489344985 3.0535628701293045 13 14 18
0.8359594308943776 3.946144243237827 3.0405933709028528 13 14 18
0.8967972166599644 3.9381170923437105 3.056042612127535 14 15 19
0.9057953765405111 3.949353375358134 3.0546686673279138 16 17 21
0.8642562730831442 3.979086002012929 3.036977572771891 17 18 23
0.9167770058070832 3.9744106641357573 3.0496507983694663 17 18 23
0.9202252833282617 3.9876751726808055 3.0464858261684817 17 18 23
0.9312006433146335 3.9982183899808934 3.0457412613842467 19 20 22
0.8859044123315758 4.028944344432118 3.0269495242342996 22 23 25
0.7968940084145061 4.0750637518840644 2.9942220166627593 26 27 29
0.8338736625023138 4.076149383119274 3.0018559306043096 28 29 31
0.7586406224111497 4.1169381364808055 2.973661656240645 30 31 33
0.7878749206435187 4.120763501523681 2.9788227844619795 32 33 35
0.8071272311914333 4.128159300750001 2.980785412038483 34 35 37
0.6816357671253558 4.185870699528705 2.9367974433571975 37 38 41
0.707083187943251 4.1909581124834405 2.9407723874635034 40 41 45
0.7214199853236204 4.199934852197598 2.941212162337767 43 44 48
0.7875624108304528 4.191235769480203 2.958000231076849 46 47 51
0.8121344634325994 4.1968888754341656 2.961620292720593 50 49 54
0.8645150074840011 4.193206577527743 2.9739708983219777 53 52 57
0.9220702684191365 4.187952735842549 2.9878973391370525 55 54 59
0.9789742169203178 4.183103988513691 3.00156438697816 57 56 61
1.0202457578940616 4.183640391542289 3.0102831652957667 59 58 63
0.9824409811712682 4.2104686924898225 2.9942506322222338 60 59 64
1.1080390126829298 4.1833673260269535 3.0292463218656036 61 61 66
0.965443042114715 4.244467349130424 2.9805814743990378 63 64 68
0.9801972419197036 4.253819691690672 2.981000403222071 65 66 70
0.9581974472941631 4.275099005967518 2.9700015100389336 68 69 71
0.9931290406705345 4.277953292071521 2.9766740229714066 70 71 74
1.0354346995427481 4.2785509707969025 2.9855971744749903 63 64 68
1.1166287913234387 4.266901206980574 3.00649161128524 71 71 76
1.2000482608739012 4.254815772472858 3.0279929991979158 78 77 82
1.2883125425962594 4.241481637356617 3.050904182750805 83 83 85
1.347881595911567 4.237419297370895 3.0649128352423207 87 87 89
1.409207456187987 4.233000074699159 3.079404453298203 91 91 93
1.512662739140022 4.215743361476693 3.106738214320147 95 95 97
1.6136465922229615 4.199591489490916 3.133215020258628 92 92 96
1.6284755778912632 4.21012163861579 3.1333031491490124 85 84 90
1.706876263747112 4.201352896234688 3.152748262969741 78 78 80
1.7858204331998364 4.192673865147475 3.1722838486630867 79 79 79
1.8626197006341483 4.184894716559593 3.191093073479662 114 114 114
1.9215052230211087 4.182714389677241 3.2044004245058115 172 172 172
1.9107651466960922 4.201395466217232 3.1965885194360015 196 196 196
1.9126108071368773 4.216299439444519 3.1925960018684614 199 199 199
1.9405656250815966 4.223523873879999 3.1964808506457865 199 199 199
2.0705119640649436 4.201069223179253 3.231043241656349 199 199 199
1.345319831991134 4.427015090443618 3.0085225081292593 200 200 200
1.344628470659566 4.441581972662135 3.004083602582411 200 200 200
1.3694641923370026 4.448811369367548 3.007296128949384 200 200 200
1.3865290132753416 4.458318114903501 3.008166555967824 200 200 200
1.3413612884981307 4.485474683156742 2.9904537059829175 201 201 201
1.3824749486011885 4.48818395932963 2.998498577148555 201 201 200
1.3307809433601725 4.5169575880655675 2.978905789701568 201 201 199
1.31478807414752 4.535612442550651 2.969971827186531 201 201 199
1.2876219518405292 4.557275250585604 2.9577488050479457 201 201 199
0.4675294240778911 4.8216721706038985 2.7034922007910613 202 202 200
0.4855207207793364 4.829451394692992 2.705070681749814 202 202 200
0.2977767875877541 2.2987364732210067 3.4248743709440665 202 202 204
0.27799215775672215 2.3276498063742705 3.4120497219070596 202 202 204
0.26863408656422105 2.3499373320244215 3.403440658677237 201 201 203
0.2664847782267598 2.3676715571276237 3.397738012492474 201 201 203
0.25834002059196426 2.3890809391270675 3.3896511381580816 201 201 203
0.2500693362147503 2.410502276178021 3.3815334508912884 201 201 203
-1.110145955630104 3.276235323376975 2.8311825812049998 200 200 202
-1.089621131954568 3.27683155065386 2.835453301921977 200 200 202
-1.0675497089070678 3.276557717651803 2.840316032250155 200 200 202
-1.0459221876746465 3.2766299148453792 2.84498040525119 200 200 202
-0.9839625998105168 3.2524366494931134 2.865548580315071 199 199 201
-0.9707045922159009 3.2577816292987647 2.8668425887391265 199 199 201
0.9815827841743234 2.101703895461955 3.6312083359581373 199 199 201
0.9882961455888915 2.1153882778629605 3.62862175951044 199 199 201
0.9676333112061013 2.1453472546397157 3.6152980609187386 199 199 201
1.0446007780422464 2.117361039726022 3.6402378294556677 198 198 200
0.9011036057460388 2.219766889041313 3.578907697613555 198 198 200
0.6529503872580713 2.3830163471139567 3.4769360270789185 198 198 200
0.6889156312516824 2.378762370296973 3.485984264771194 198 198 200
0.1927971953662826 2.6850194173803117 3.2880591620129374 197 197 199
0.18260442040585312 2.7066679428746205 3.279457956084056 197 197 199
0.3972649649284876 2.5980790928784003 3.358031796307862 197 197 199
0.48972874565337804 2.5608817472540766 3.3890489909408883 196 196 198
0.48006241541337585 2.582735615743706 3.3805012028372743 196 196 198
0.9750122563974312 2.3330625249742654 3.5614636498679033 196 196 196
0.9489433844661308 2.365150360564268 3.5463400498285664 195 195 195
0.9245638879133625 2.3961385642945476 3.5319071858515874 195 195 195
0.9250495948201984 2.4129797603807233 3.527039141901679 195 195 195
0.8948083757977994 2.4470402963996367 3.510429038835827 194 194 194
0.9887593008175827 2.4115041773703045 3.5412778624761048 194 194 194
0.7107124269207383 2.583520405457997 3.4302407429959842 194 194 194
1.1240811681331275 2.3707414017498065 3.582633327337376 193 193 193
0.8755471158465724 2.5254760738801125 3.4830935988311227 191 191 191
0.8204113159381883 2.5726570156698902 3.45721547074604 184 184 184
0.7668554757228407 2.618704374102482 3.4320143993731 146 146 146
0.6911837826547371 2.6765686399868667 3.3985322544649765 87 87 88
0.6368874118572878 2.7224519353432077 3.373219192537798 79 79 81
0.5839370138272726 2.7673443630850825 3.348490348529454 91 91 93
0.5310717738370768 2.811935615930179 3.3238688925516175 94 94 96
0.5006925355162539 2.8441873694387243 3.3077630279319536 102 102 104
0.453104180558719 2.8854942565967288 3.285254717894457 95 95 97
0.4129589399713173 2.922602245992711 3.2655989415418114 88 88 90
0.3456479492817758 2.973938251094297 3.2358560000756853 82 82 84
0.29090656210663335 3.018312714398991 3.2108920877880185 77 78 80
0.9208137146414413 2.701771749261065 3.4408399600443174 73 74 76
0.9243192393505553 2.7330965516108545 3.432349103851454 68 68 72
0.7818611941143139 2.8237769865764952 3.3747066662674388 66 65 70
0.7153018102319812 2.8744891960762087 3.3453107729702865 64 63 68
0.7477734611725662 2.8737750010419942 3.352556796982162 61 60 66
0.5634320137815481 2.9846290165499036 3.2798828035565855 58 57 63
0.5409131321925018 3.0118318342688717 3.266970889649792 57 56 61
0.4316336195553796 3.083150435724012 3.222234349197688 56 55 60
0.4334411865039032 3.0975776092960126 3.2183655625316545 54 53 58
0.3837039995328687 3.1380518007278657 3.1956375975000038 52 51 57
0.3507542692074941 3.1698385194892293 3.17911215168427 51 50 56
0.31593003916706597 3.2024024451361055 3.161951075262096 48 47 53
0.27568892849735727 3.2375013969229522 3.142867805313288 45 46 51
0.20353682614654645 3.2882785259846514 3.1122410551041706 43 44 49
0.17673489585015634 3.3162710484324927 3.098167997691603 41 42 47
0.18620784691667158 3.326237638169247 3.097277177355378 39 40 45
0.3453963430883006 3.262691009175595 3.150531612893826 37 38 42
0.3317914551713719 3.2842829854564504 3.141207857605748 36 37 41
0.3359016559328767 3.297167002710535 3.138293646606914 35 36 40
0.250446462227108 3.3534762968324503 3.103151054826352 34 35 39
0.1787852020898596 3.4027488659767338 3.073074950364497 32 33 37
0.31715821655192156 3.350713863678381 3.1184201938880407 31 32 36
0.2274575147403537 3.4084175533295897 3.081946024252976 30 31 35
1.2698266712415367 2.9426956276170633 3.4453092690302443 26 27 29
1.293574953048628 2.9480980840910163 3.448859066237185 24 25 27
1.347796024228544 2.9392290353483674 3.463225355108631 24 25 27
1.0455899466927363 3.09756693356914 3.350993309894154 25 26 28
1.1162104409758662 3.0807090880255243 3.371271727033664 26 27 29
1.080661431991161 3.113429144399288 3.353907518170201 26 27 29
1.0996060065411564 3.1207754694791245 3.3558425396800358 26 27 29
1.1064833880977358 3.1337286032216176 3.353507439616409 27 28 30
1.1343168287740404 3.1370753937627893 3.358549350210247 27 28 30
1.1553340489846988 3.1436191265522284 3.3611704278905306 27 28 30
