ply
format ascii 1.0
element vertex 726
property float x
property float y
property float z
property uchar diffuse_red
property uchar diffuse_green
property uchar diffuse_blue
end_header
1.6045696891134495 3.716501405201242 0.3168825196878554 170 170 168
1.5861644821290113 3.686933190062566 0.32111467538165445 170 166 168
1.5621783190756684 3.5869428900741323 0.33007144848998143 156 155 158
1.5417518073071208 3.5278409320152644 0.33624033320739066 101 103 106
1.514015144829861 3.3717819876369903 0.34886174969225403 66 67 72
1.4871677725075627 3.2207261817549573 0.3610785224097517 71 71 74
1.463230596628943 3.1022553129736883 0.37106327957163215 95 95 95
1.4333900810295708 2.8970524086496146 0.3867310781000582 87 85 87
1.4062210058977425 2.720083893444233 0.4004438973948008 84 82 84
1.3759201824538356 2.489581844587844 0.4175927877979156 84 82 83
1.3588684958285335 2.4437875121174857 0.4225440721004434 66 64 67
1.3430495831175395 2.4143687084308088 0.42640581957954693 40 38 42
1.329096852644781 2.4123962820949867 0.42846943735177173 36 34 38
1.3130161011714545 2.3763919696237616 0.4327366016888404 31 29 33
1.295808174702477 2.3200093969658684 0.43830265833488335 33 33 35
1.2819085427085557 2.316064505252041 0.44046929368360055 44 44 46
1.2665471326102131 2.28662051778226 0.44426840797253697 30 30 32
1.2513636474296237 2.2585945378079746 0.4479632124649373 25 25 27
1.2371145286308278 2.245944819085505 0.4506662078143144 25 25 27
1.2232854075860164 2.2403879056715574 0.4529132397853067 27 27 29
1.2107209360207076 2.2590115398793755 0.4536292214929837 26 26 28
1.194015773505484 2.195695472478944 0.4595131481705532 24 24 26
1.1791152021958535 2.1655041163733095 0.4632896018585056 22 22 24
1.1653299088586795 2.1570971423831757 0.46569009116327287 21 21 23
1.1504517088214385 2.123725403647453 0.469641502536327 22 22 24
1.1391915459978414 2.171259191102571 0.46855604237606374 24 24 26
1.1284761055655528 2.235470507672091 0.4664604512397325 24 24 26
1.1172395150062937 2.2918065145828255 0.4648788005360404 25 25 27
1.1014426437634377 2.234356145233775 0.4703071235277188 25 25 27
1.0906365753109273 2.307118114258537 0.46774541494006444 25 25 27
1.0818737265304679 2.444420710883772 0.4612836572817949 25 25 27
1.0692297374174378 2.4794928207306297 0.46108971820432176 26 26 28
1.0553837984690486 2.4804974440636087 0.46297168334228644 27 27 29
1.0420975747351746 2.4999243939222353 0.4637437167237741 28 28 30
1.029087455410949 2.5310265467575706 0.463823332772212 28 28 30
0.975355391989307 2.0350679342765146 0.49911679647601837 29 29 31
0.936621513439207 2.071306343396013 0.502509735575417 32 32 34
0.9244471832026249 2.1296749510929227 0.5009455362130718 32 32 34
0.910304670450759 2.0758280538438925 0.5059404935328364 33 33 35
0.896524919762678 2.0350508575312376 0.5101528161920826 34 34 36
0.8832828158291341 2.026159608668183 0.5125043848167861 33 33 35
0.8701825691673042 2.0272887307848766 0.5142749929528119 33 33 35
0.8570811772846856 2.0284169568326935 0.516045811578723 39 39 41
0.8439530535913781 2.026272280560989 0.5180036423227113 40 40 42
0.8307182478275785 2.005431663668338 0.5210233084423256 41 41 43
0.8176987718875703 2.0162686061521042 0.5222390089193929 42 42 44
0.8045743033534853 2.0028148304302515 0.5248295945207632 42 41 44
0.7915097917852268 1.9996166595213816 0.5268375122275174 39 39 42
0.7784528307489175 2.0188979641836458 0.5275856079055844 45 45 47
0.7653581247065988 2.026325107818549 0.5290027752062516 42 42 43
0.7522438073873183 2.0332299970339545 0.5304519320461653 42 42 42
0.7392652963247108 2.0094100926404197 0.5336025495777409 41 41 41
0.724411889157326 2.278498412237841 0.5206138783002067 41 41 41
0.7104067986972588 2.340868843555541 0.5190818705484774 41 41 41
0.6960596759198923 2.417798572038673 0.5167824768782747 41 41 41
0.6811424875465824 2.5230179028899387 0.5129787736394288 42 42 42
0.6672614537047397 2.523547458233617 0.5148922535262448 46 46 46
0.6530283682843198 2.5480709341821237 0.5155114470362749 47 48 48
0.6389665636938652 2.5574302413262218 0.5169557995775285 48 49 49
0.6238934725768961 2.621674231992338 0.5154683834322031 49 49 49
0.608488587617603 2.6924723986733725 0.5136604044530146 49 49 49
0.5951548730022197 2.6546579319707937 0.5176443872854921 46 46 46
0.5818088796958073 2.622841795109109 0.5212942053074645 44 44 44
0.5681867860387464 2.6066702945796036 0.5241066330792207 42 42 43
0.5553478136601266 2.5624308021316073 0.5283811365327481 37 37 39
0.5415419227007218 2.5585237323793963 0.5305325316808447 34 34 36
0.5261332022005727 2.610093555353221 0.5298018036785175 34 34 36
0.5125617939542962 2.5966604817167642 0.5324537947831502 34 34 36
0.5023859562449039 2.4797559974392733 0.5404244629725381 34 35 37
0.4898225346385483 2.444234388869968 0.5441722252069866 39 40 42
0.4739173702948662 2.5059057856794986 0.5429453420834149 43 44 46
0.46324538496755263 2.421595311851947 0.5491603228460069 45 48 48
0.44674810744517535 2.494504647369536 0.5473870447410344 48 51 51
0.4315052999537031 2.5306339703545935 0.5474977006775578 57 60 60
0.4166842523191361 2.554024963986185 0.5482626146269187 132 132 130
0.40178556634182133 2.5775381585173096 0.5490315539745765 166 166 164
0.38695326603465263 2.597974394946389 0.5499634982832181 168 168 166
0.3715293175359534 2.629711198289073 0.550345475578218 168 168 166
1.6330004496459396 3.6508955329630175 0.33254887884101747 169 169 167
1.6246837980993907 3.7390182553044236 0.3289212599989426 169 169 167
1.6067819865901627 3.7165864353773923 0.3326450768972793 169 169 167
1.5878985931995884 3.681336384223677 0.33720310196266523 169 165 166
1.565069773812743 3.5958515913075124 0.3450441878262286 151 151 153
1.5436578347733958 3.5246984261952137 0.3519078926562662 93 94 97
1.5150766895631318 3.3581777898854988 0.36495938518058724 62 63 67
1.4931977463169697 3.272676223107722 0.37266850650357525 67 67 70
1.4647221886150306 3.0947138143660826 0.38632729023466844 94 93 93
1.4361339981049732 2.907216436638991 0.4005202233083489 86 84 85
1.4106251791842255 2.7544069453405196 0.41239649154867897 82 80 81
1.388790860331833 2.6472807913979564 0.4212750472545026 81 79 80
1.3612612966468676 2.4510956117857816 0.4357922257916994 79 77 79
1.3453227877048293 2.4201835692410882 0.4397024490766809 55 53 56
1.3313785987684925 2.418531003599785 0.4417429230512291 43 41 43
1.3154028409050802 2.3845129057365084 0.44582722578154715 38 36 38
1.2990608989553991 2.342689468807018 0.45038711087476146 45 45 47
1.2838262506385534 2.3170771082290695 0.4539107413743638 45 45 47
1.2682326846607146 2.2838189691717963 0.45790026282400376 31 31 33
1.2529191761760419 2.253560935345121 0.46168749901772754 30 30 32
1.2391304425305472 2.249238099020386 0.4638514028230093 33 33 35
1.2255486158970315 2.248486418634146 0.46579220760998147 31 31 33
1.2127312782318176 2.2624336834466097 0.46682692307724644 29 29 31
1.1968766461879712 2.216544000287866 0.4715397112793879 26 26 28
1.1801405558409566 2.149329415527737 0.47753518875313306 25 25 27
1.1665559950946016 2.144737144658694 0.4796851796806334 23 23 25
1.1532758932506864 2.1464966014896856 0.4814472522270945 23 23 25
1.1384538898687562 2.1129392595248864 0.485345108091057 24 24 26
1.123563274482569 2.0750960990963296 0.4894855716122143 24 24 26
1.1161447502949533 2.2194111779353634 0.4826772720056548 25 25 27
1.1027295758875673 2.2208326341241595 0.48447661589661106 25 25 27
1.083425573184202 2.4359725264247825 0.4754803800624362 25 25 27
1.0693739701432072 2.4289165033641815 0.4778296529942339 26 26 28
1.0569609232063018 2.4718839947558595 0.47723005300232907 26 26 28
1.0431910189122346 2.4750025246233918 0.4789867536149005 27 27 29
1.0297780038816036 2.490677526327931 0.48001086443569707 28 28 30
1.0180479660439063 2.569530276452201 0.477364724272113 29 29 31
0.9769148608894542 2.027269127528767 0.5126001965445863 29 29 31
0.9638518375268175 2.0304247993540057 0.5142559935136242 30 30 32
0.9376475083364529 2.0338773251439335 0.5177339653008288 32 32 34
0.925281819308706 2.077447277999119 0.5170949861134578 32 32 34
0.9121565755483129 2.082409911275092 0.5186612468345525 34 34 36
0.8982422046148313 2.033819366239499 0.5232494547043222 37 37 39
0.8850802333998449 2.0313127798951025 0.5252269366760729 36 36 38
0.8719927673546448 2.0344833934296638 0.5268853405439793 38 38 40
0.8589018147941558 2.0380927436609344 0.5285203790750388 41 41 43
0.8456346225514926 2.020900189159557 0.5313110210085055 41 41 43
0.8324441312953363 2.006631120997152 0.5339319904534034 43 43 45
0.8194307369965832 2.0190990018556967 0.5350745624853201 43 43 45
0.8062358177977388 1.986600837772404 0.5386872234628546 43 43 45
0.7932203580949675 1.9996037513510152 0.5398009959779219 47 47 48
0.7801652483769277 2.023980918941369 0.5403019242209754 52 52 54
0.7670568804478768 2.0344198411111756 0.5415680915517576 41 41 41
0.7539691778276004 2.0288902245303917 0.543699539106451 42 42 42
0.7408913792160097 2.025503517542592 0.5457130963646646 42 42 42
0.7263729534334831 2.2471469124538697 0.5356938348300294 42 42 42
0.7123270640800309 2.322170853364381 0.5335798181944321 41 41 41
0.6976729425813453 2.435360788154517 0.5294758927573131 40 40 40
0.6825378980472763 2.559129003406793 0.5248641271194022 43 43 43
0.6691788356389802 2.5145130410492547 0.5291585653568891 46 46 46
0.6553295537840134 2.513772391075476 0.5311361842852519 48 48 48
0.6410436751507205 2.5404430948568666 0.5316845885691899 50 50 50
0.6261376806143546 2.5974235797032055 0.5306718698509119 50 50 50
0.6106726492420993 2.6739937073371 0.5286723120304861 49 49 49
0.5974965630449415 2.62958279352453 0.5329300060526996 45 45 45
0.5842359480049281 2.5953719905349013 0.5366449691648892 43 43 43
0.5707528354216881 2.575038670089803 0.5396365717060833 41 41 43
0.5576087307163748 2.544178850196986 0.5431530514994602 36 36 38
0.5438447129702118 2.5397003408237766 0.5453219614106004 34 34 36
0.5286971539530001 2.583584536955196 0.5450550484497415 34 34 36
0.5143669891875925 2.5962036987505903 0.5463735963949983 32 33 35
0.5066004639948767 2.40360854319568 0.5579309774181921 36 37 39
0.4925173181479571 2.4164202841370392 0.5592045002582363 41 42 44
0.47646720769899736 2.4837446304472586 0.5577894590163486 47 50 50
0.4622860004942513 2.494762763461022 0.5591742136369964 51 55 54
0.44838994197028514 2.4975427641849786 0.5609669667574853 53 56 55
0.4330968693069208 2.5349299173674864 0.561073638047273 67 70 69
0.4181378656596112 2.5615181077046225 0.5617206906577299 146 146 144
0.40286476508907776 2.593442209219627 0.5621215810706512 167 167 165
0.38775420598780347 2.619539167310686 0.5628165416219092 168 168 166
0.3722662559324652 2.651998381721621 0.5632183941481312 168 168 166
1.6370519951030944 3.6720710506865926 0.3468426819045774 169 169 167
1.6278202617613147 3.7497521975639305 0.3440364105149551 169 169 167
1.6089803056523193 3.716497437775316 0.3484238877402766 169 168 166
1.5897218002195148 3.676838838755556 0.35320760388084294 168 164 165
1.5701376476321336 3.63153701275498 0.35833445839767764 145 145 147
1.5452975454649622 3.518214743176812 0.367783350584062 86 87 90
1.5201772620412108 3.3965222572403007 0.37771284285737144 60 61 65
1.4956889576422308 3.277891482850731 0.3873925194835853 62 62 65
1.4718090683121527 3.1622081760117102 0.3968316995707709 92 92 91
1.4400818448809296 2.9338068626064784 0.41331245602483657 85 83 84
1.4144654330170552 2.7806047858381637 0.424973073065723 81 79 80
1.391746615584969 2.6617795301567733 0.4344156467694565 80 78 79
1.3693892064368924 2.5425541350763443 0.4438288013679922 81 79 80
1.3481529953432496 2.4343290838549625 0.45250507960452285 83 81 82
1.3340448588739033 2.43054337222206 0.4546769328685154 59 57 58
1.3178616774989624 2.3937082158779934 0.4588818399711444 53 51 52
1.3020598384939572 2.3610790450643218 0.46281162099899853 54 54 56
1.285837443017703 2.319631196966623 0.467265276582038 42 42 44
1.269865396278595 2.280123799587677 0.47158159893331275 35 35 37
1.2545527936853826 2.249932631749231 0.47531441203169933 36 36 38
1.243192734787439 2.289615191250213 0.47480965328112085 36 36 38
1.228134875584508 2.2625456731114917 0.47834222409020943 33 33 35
1.2155868881794751 2.2821068520652594 0.47906470031421455 31 31 33
1.1909972258345478 2.0633211163366414 0.49404057337600177 28 28 30
1.177893891035116 2.066027852318359 0.4957295614374532 26 26 28
1.1644642413522068 2.0619282512101917 0.49782312195877165 25 25 27
1.1517813347077093 2.073925870375409 0.49896334994815256 23 23 25
1.1392244940137062 2.089631930343288 0.49989037717383317 23 23 25
1.1273806839094496 2.1233924947988783 0.4997655602565415 24 24 26
1.117049036864798 2.1970759899965464 0.49732387802168154 25 25 27
1.1042677681145594 2.2138997154038274 0.49822333437127037 25 25 27
1.0703668838368594 2.403868662353592 0.49294370966652235 26 26 28
1.0582016746393237 2.453006281594558 0.4920528581008453 26 26 28
1.0442479263384976 2.4492268396224963 0.49420279852812565 26 26 28
1.0311564187412567 2.4744374600153742 0.4947033110116916 28 28 30
1.0200738509540275 2.5752542182928417 0.4909356323092309 28 28 30
0.9791763343372575 2.048377248671963 0.5244394929181724 29 29 31
0.9657057072413916 2.0351917042074494 0.5270179612195426 30 30 32
0.9531595238550871 2.0635771023595546 0.5272748087312993 32 32 34
0.9393641323919251 2.032588690657732 0.5308375737982679 32 32 34
0.9265189315157177 2.0488900408745705 0.5317735166382628 32 32 34
0.9139855372532282 2.0873806883341444 0.531495640140839 34 34 36
0.900103409058641 2.042380836645625 0.5358094733109064 37 37 39
0.886833335410916 2.032871372417144 0.5381660347643256 38 38 40
0.8737678315004658 2.038303052610055 0.5397060247751202 38 38 40
0.8603909271474635 2.0136683729866496 0.5428752022023751 41 41 43
0.8470237207325355 1.980271431107138 0.546505132944536 44 44 46
0.8342049897533954 2.012948784206751 0.5465737288658824 44 44 46
0.8211644382263181 2.02193396431444 0.547922824307757 45 45 46
0.8080593802564137 2.019762704918587 0.549869311657255 45 45 45
0.7949428595449817 2.00594231828864 0.5524317594819331 40 40 40
0.7818819157540954 2.0375180950955945 0.5525923102793706 42 42 42
0.7687618182397831 2.0409254488507838 0.5542466920636835 42 42 42
0.755644130246138 2.040744916442217 0.5560899569308613 42 42 42
0.7428918440550918 1.962514371139091 0.5619983861680192 42 42 42
0.727927241874565 2.278842164089042 0.5474076441587474 42 42 42
0.7142646143661096 2.3003446985337597 0.5481835535393971 41 41 41
0.6995010371156423 2.4310702662298436 0.5433531021510968 40 40 40
0.6846798755183956 2.5292628564849395 0.5402464426337372 42 42 42
0.6709587482051993 2.516059391909816 0.5428608738659382 46 46 46
0.6576204627414985 2.4792300710048822 0.5466677803921371 49 49 49
0.6430224329702161 2.5292297935904977 0.5460715508597148 50 50 50
0.6279942451395297 2.5947662395577127 0.5447160695889703 50 50 50
0.612603907643785 2.6683659726241893 0.5429859677641844 49 49 49
0.5990515355793435 2.641993593872615 0.5462713178527385 44 44 44
0.5864235509783138 2.5781403843951782 0.5514041309155122 42 42 42
0.5728705228841223 2.5616138608147936 0.5541703165863296 41 41 42
0.5597183457199719 2.531576057576793 0.5575930319236703 37 37 39
0.5460037335674119 2.5259061788997212 0.5598092419939461 35 35 37
0.5308870029888038 2.569724822989481 0.5596115036443108 33 34 36
0.5166266706221105 2.5807876846878837 0.5610215404038124 33 34 36
0.5083594226607734 2.4033224475072306 0.5715364923004871 37 38 40
0.49463832193420476 2.4053748409790687 0.5733463479836807 43 44 46
0.4780678542328521 2.4883275417051722 0.5712879566090369 53 54 54
0.46409949383025595 2.493358836702605 0.5729752741945919 61 62 62
0.4490936449043028 2.5250710695310294 0.573400510086336 61 62 61
0.4345672793807014 2.5423133296425307 0.5745218435597979 80 81 81
0.41942681031293627 2.573057342374075 0.5750169607534475 156 156 154
0.4045486157195013 2.5955078874728863 0.5759127996109934 168 168 166
0.396042948990452 2.47413369944112 0.5835029198713733 168 168 166
0.37544594686255406 2.621836936874602 0.578592555154716 168 168 166
1.6396885113922206 3.6770211124655954 0.36223760922154513 169 169 167
1.6282793045323378 3.729365963292401 0.36115612392929153 169 169 167
1.609995165345433 3.7024095757181814 0.3650880447050974 169 168 166
1.5920915287932242 3.678945624667391 0.36878831597886613 166 163 164
1.5725571398881133 3.634454677459612 0.37379106535649814 138 138 140
1.5471344722995732 3.5142336687759617 0.38348687060737746 77 78 80
1.522103894376209 3.3939884612801583 0.39312913961923934 55 57 60
1.4981164628560466 3.2822347600570243 0.4021916932811658 55 55 58
1.4745652088639962 3.171415857890942 0.4111455383677728 88 88 88
1.4529464243564874 3.0820358098607885 0.41873370726322656 85 83 84
1.4206835393919774 2.8398518420496104 0.4356184693761658 79 77 78
1.3962459573256556 2.6982435888750667 0.44626974486652937 78 77 77
1.3766756754114962 2.6210956618823222 0.45294657575437736 76 74 75
1.3545807793118567 2.5023039005739176 0.4621044600431521 85 84 84
1.335619236927922 2.42568838679446 0.4686690418449464 65 63 64
1.3192187040829415 2.385468088329272 0.47301573795826657 59 58 59
1.3042330888686664 2.365975390228251 0.47610540886425357 57 57 59
1.2878222711508378 2.321719442257047 0.4806597999636797 45 45 47
1.2718134853102312 2.281829547121062 0.4849348843250787 40 40 43
1.2586626983397544 2.2897891462956976 0.4863651776395041 39 39 41
1.2455231708672483 2.298371487055766 0.48776207032187446 37 37 39
1.2306007198518827 2.274238502926895 0.49108007813848215 36 36 37
1.215634837679521 2.247720446370624 0.4945260518782264 35 35 36
1.1940473620099452 2.0882903233009844 0.5056900403386908 31 31 33
1.1809307465938228 2.091585339039832 0.5073539625126409 28 28 30
1.167644184990539 2.0914554142786015 0.5092166708198401 27 27 29
1.1541040946755339 2.0857038187201162 0.5114021141453985 25 25 27
1.1413987615121994 2.0984402551704466 0.5125260400843097 22 22 24
1.1288881350296636 2.116683333093456 0.5133413271965006 24 24 26
1.117304211316797 2.1590437621783747 0.5127945433750185 25 25 27
1.1048205695824032 2.1818601174870773 0.5133723249560346 25 25 27
1.059914722443725 2.448813823976755 0.5060017010715048 26 26 28
1.0462471588390179 2.4541283034853354 0.5076393751369932 26 26 28
1.0330252947901388 2.4750728931852075 0.5084159469562141 27 27 29
1.0202949275036688 2.5160164492011043 0.5081017307669485 28 28 30
1.0091213293929497 2.6212956557912435 0.5042819070891584 28 28 30
0.980284020594289 2.022188762811975 0.5389301269089694 30 30 32
0.9676295311272276 2.0428906421765194 0.5396398439574568 30 30 32
0.9542229647372766 2.0314067571198366 0.5420996065496997 32 32 34
0.9413107096946203 2.0429433254869016 0.5433137625937328 33 33 35
0.9282931535883704 2.050589587968734 0.544741458547811 34 34 36
0.9152562007841146 2.058403691904987 0.5461632859077642 34 34 36
0.9019964445287654 2.052797358036901 0.5483021437419209 36 36 38
0.8887938169881251 2.04993757501352 0.550292647349883 39 39 41
0.8755581280805222 2.043242944503868 0.5524837649074863 38 38 40
0.8622896687525503 2.0309000715111916 0.5549681366786224 44 44 45
0.8490173236216404 2.013094170623619 0.5577322614799638 45 45 47
0.8359624661329333 2.0183058570095884 0.5592895971433149 45 45 47
0.822996899191208 2.04331198608377 0.5598227840581715 46 46 46
0.8097995720511721 2.0258918723484984 0.5625567119939431 46 46 44
0.7966610468952775 2.0085482476219467 0.5652785162977023 43 43 42
0.7835826325156857 1.9955263809918917 0.567771042439028 38 38 37
0.770557419080997 1.9752772385440354 0.5706255159169215 43 43 43
0.757534417202681 1.978239585721082 0.5722933631117519 43 43 43
0.7445511738136641 1.970639204756317 0.574495507310717 43 43 43
0.7292124367973276 2.357364531630219 0.5568730875411162 42 42 42
0.7159736719024039 2.3072550064139445 0.5612835291144966 41 41 41
0.7011360487586967 2.447493618601149 0.5561888096538791 41 41 41
0.6875031329058156 2.4356194247846834 0.5587001404767291 43 43 43
0.6738495307454851 2.428674951643295 0.5609624077025129 45 45 45
0.6589031701672979 2.5152760155156497 0.558624242830386 49 49 49
0.6440929887635538 2.575621281749669 0.5576089634408125 50 50 50
0.6298326830790485 2.593123986911255 0.5587065119732901 51 51 50
0.6135665914649041 2.713865275730667 0.5548078324095802 50 50 50
0.6010971416164369 2.630767773962706 0.5607967887802026 44 44 44
0.5878764257077911 2.593821029794951 0.5645319716750848 42 42 42
0.5747026434261041 2.560011673360151 0.5681002492432168 41 41 42
0.5617444256146881 2.522085835931941 0.5718488029647582 37 37 39
0.5495105231728526 2.461895007928076 0.5766341160210606 35 35 37
0.533118487598243 2.55422518235028 0.5742050954722426 33 34 36
0.5180172433363498 2.594002679803798 0.5742816754078796 34 34 37
0.5107203200216464 2.384094839087069 0.5860292118061703 37 38 40
0.4966668961510544 2.396979574702976 0.5873338800237361 45 46 48
0.47867122983188215 2.5215002177657 0.5834836543961937 60 60 61
0.4656963251630567 2.4978781212739327 0.5865034884838934 68 68 68
0.4525800603517971 2.480012867095317 0.589248843115117 67 67 67
0.43594080007758274 2.552221683402786 0.5878827422861413 103 103 103
0.42044428375759485 2.5912835713838476 0.588051113929162 165 165 163
0.4051583848826599 2.6225938441839114 0.5885862410802489 168 168 166
0.39881965974859657 2.4510396832603556 0.5982397014620175 168 168 166
0.376066700719097 2.646824131591319 0.5914118206026293 168 168 166
1.6423284258683062 3.6819769057526033 0.37765282653610854 169 169 169
1.6304280755940612 3.728626915782611 0.377005896839987 168 168 168
1.612136414394788 3.7016700097621262 0.3808931899305177 169 167 168
1.5942213076009673 3.6781484503540383 0.38455793866333254 162 162 163
1.5744617147568767 3.6310345006309293 0.38964750556468813 129 130 132
1.549139701992365 3.5123724452691736 0.3990537151592402 74 75 77
1.523883111280644 3.3895783217041 0.40865524301071054 52 56 57
1.499638379511386 3.2747339861121296 0.417722168352068 50 52 53
1.476840522864502 3.174153829015725 0.4258813331008772 85 83 86
1.4562139566870327 3.098652498099214 0.43249651072901124 83 81 84
1.4357447133605747 3.021884600426996 0.4391523949194658 77 76 78
1.4020304996493802 2.7527822115490244 0.4571737981694812 76 76 76
1.382752196588089 2.6814698308642173 0.4633934946806805 72 72 72
1.3609057794584418 2.5682839752163034 0.47204355867579634 81 81 81
1.3400414099516071 2.464465879808657 0.4800930217638961 82 82 82
1.321731428335916 2.3954246666641765 0.48606516665255645 66 66 66
1.3031389918085734 2.3181775284380683 0.49248276375013733 62 62 63
1.291597889302743 2.353414946312943 0.49235036855543535 56 56 58
1.2761268367864365 2.3237301597031146 0.4959788819068813 48 47 52
1.2612701669758306 2.3030582297614557 0.4990756801523076 43 42 45
1.2473619261473932 2.2982002696926878 0.5012576178526902 39 39 39
1.2330742192938398 2.285967771688147 0.5038574140712806 38 38 38
1.2176337428236514 2.250896701471096 0.5077481676002344 37 37 37
1.197926154395028 2.1293758862994956 0.5165120606537371 34 34 36
1.1841253344363243 2.120117469337693 0.5188967332724419 31 31 33
1.1710607967008326 2.1256855794894216 0.5204450185185941 28 28 30
1.1572628973385566 2.1155946073592378 0.5228704775196693 34 34 36
1.1435837758479297 2.1073925778752263 0.5251858920916708 31 31 33
1.1301511800170096 2.1042935476817397 0.5272144001496537 24 24 26
1.117782343245706 2.126841873610144 0.5278254004976142 25 25 27
1.1060636545884495 2.167694906717448 0.5274399403956924 25 25 27
1.061029434011012 2.4264704609050174 0.5209226663553169 26 26 28
1.0469645054569647 2.417960846404036 0.5233071580652202 26 26 28
1.03512621235335 2.4835034085290304 0.5217167785105932 27 27 29
1.0224598712408186 2.5269820012905844 0.5213336989396681 28 28 30
1.0093772880412837 2.559928266410861 0.5215298564132462 28 28 30
0.9821186307225215 2.025729436954586 0.5517668108203864 30 30 32
0.9689489100599851 2.0243672628114737 0.5536726837871001 30 30 32
0.9560395527146159 2.034748983392496 0.554961132890532 31 31 33
0.9427445745028409 2.0273710227091555 0.5571821474257203 33 33 35
0.9298377101538737 2.0397063813022673 0.558373584229562 34 34 36
0.9167962829621181 2.0462317100956 0.5598712809457504 34 34 36
0.9036254852783172 2.045429338198572 0.5617496057430469 38 38 40
0.8903977033691177 2.040031046763858 0.5638632874889206 42 42 42
0.8771395755791335 2.030406168202696 0.566190333268269 42 42 42
0.8641916513637338 2.047684301877728 0.5671429378301944 45 45 45
0.8509224267008189 2.034042681230886 0.5696702775625805 46 46 46
0.8378732343083929 2.044988573252307 0.5709503327307301 47 47 47
0.8246772816176098 2.0350035502639514 0.5732865185846451 47 47 47
0.8114983101992445 2.020396066215155 0.5758490491626007 47 47 47
0.7983690503858826 2.005843440563499 0.5784019257280375 45 45 45
0.7852892233884967 1.9913466532352506 0.5809451387136121 43 43 43
0.7722535855620823 1.981861771322517 0.5832341983082311 45 45 45
0.7592422440005789 1.9757271363043303 0.5853540989265158 45 45 45
0.7462279112268847 1.9755701261143441 0.5871786495241142 44 44 44
0.7333071061555154 1.9598885607850987 0.5897582850483728 43 43 43
0.717922881180878 2.2823545403445773 0.575950568953929 42 42 42
0.7029096093804611 2.44942873533181 0.5697797164006704 42 42 42
0.6891849922126454 2.4454221413604706 0.5718938956643633 42 42 42
0.6749965662515398 2.4804831017006324 0.5721397939253323 46 46 46
0.6611960641270406 2.479652534600949 0.5741074196177418 50 50 50
0.6461306720369289 2.560844171396915 0.5721932360007445 50 50 50
0.6310473632393346 2.6279634467648707 0.5709778415270322 50 51 50
0.6158036085767473 2.6922646359070783 0.5699242814760169 48 50 47
0.6031925979899027 2.6168846501474334 0.5754144951842965 44 46 45
0.5897916050385942 2.588728468105576 0.5786783972378573 40 41 43
0.5767944304531142 2.5473651189767477 0.5825394057828527 40 40 42
0.5638486156238027 2.5093523397675446 0.5862274613446141 37 37 39
0.5514750077730618 2.4546030955458793 0.5906637431329256 35 35 37
0.5354169349155357 2.5361560679409885 0.5888702577372575 34 34 37
0.5201078887469086 2.584039884616239 0.5886381293544489 35 34 39
0.5125269199196063 2.3822010167894696 0.5996832302071989 38 38 40
0.49848289714562316 2.3949072361480233 0.6010150628058296 49 49 51
0.4807561012228072 2.5124603920560276 0.5976732714764555 66 65 66
0.4689117584127439 2.4579533906097484 0.6020236826788112 73 71 72
0.45367652043305584 2.497427123026616 0.6021973743112287 80 78 79
0.4370278398135562 2.569485090652683 0.6009561413357063 136 135 136
0.4220299230787192 2.5959050699943047 0.6017425914251789 167 167 167
0.4061706386237784 2.6405420625442555 0.6017479254905946 168 168 168
0.3996900391855736 2.4706981849862046 0.6110563325613536 168 168 168
0.37761237799608194 2.651930137996606 0.6051711451175108 168 168 168
1.644093551747182 3.676991697085254 0.39368681881937084 169 169 169
1.6326397828726145 3.7286102411495787 0.392814760029667 168 168 168
1.6142780578368063 3.7009311798189533 0.39670066383730407 168 166 167
1.5961144875975117 3.674510932645386 0.40049869201540156 160 160 161
1.5761744896424417 3.6252796967109586 0.4056360120369562 120 121 123
1.5510296450379506 3.5090751848575015 0.4147040041332273 71 71 73
1.526013581104665 3.389658232822676 0.4239077422491513 49 52 53
1.5017967439468116 3.2755448989625027 0.43274621531729 46 49 50
1.479024683406502 3.1756563282937806 0.4407025024659055 79 78 80
1.4564990489151133 3.074664656120931 0.4486771947084778 83 81 84
1.4389765107819636 3.038539978710226 0.4528501423008513 76 75 77
1.4192588312842664 2.9695253570918796 0.45890305827734923 75 75 75
1.388081567914053 2.730581695135594 0.47468549640373464 71 71 71
1.3669590385461132 2.6297727381008484 0.4824557100948842 70 70 70
1.3460089714404921 2.5265569381932527 0.490317029334517 82 82 82
1.3269054736541523 2.446950376695098 0.49679107661304484 79 79 79
1.3085705691943204 2.375491866763278 0.5027680297539258 70 70 69
1.2934842364604149 2.3537229651135188 0.5059142164192918 62 62 63
1.279929248595805 2.356653141467261 0.5076649581044421 55 55 58
1.2650058050500717 2.3358667579772847 0.5107414091720563 49 48 53
1.249214534438779 2.2982687482693653 0.5147433386874609 44 44 48
1.2342457299867606 2.2735548998232473 0.5180140418846677 42 41 45
1.2210977586809562 2.281918860051549 0.5194480043390477 39 38 43
1.2008741701889711 2.1518193754809376 0.5284943284843917 37 37 39
1.1871600500955386 2.1451426296056106 0.5307269484143462 33 33 35
1.1745367443501904 2.1608349023352353 0.5317370685940326 30 30 32
1.1605150431803597 2.1472167377238214 0.5343447347215153 29 29 31
1.146133978171137 2.124462034485139 0.537439704532557 24 24 26
1.1319911421897213 2.105489471897525 0.5403204703228117 24 24 26
1.1194368124034422 2.123516483477398 0.5412092539431658 24 24 26
1.1104453212452317 2.2329598334403964 0.5372268593609479 26 26 28
1.0970339046301112 2.2352495947861923 0.5389882156229696 26 26 28
1.0863689740381317 2.313234332549979 0.5367445235880315 26 26 28
1.0710563179024637 2.264584266107135 0.5412085123012118 26 26 28
1.0543518542859136 2.1690677250329684 0.5481091619552036 26 26 28
1.0433911450548055 2.246033509130659 0.5459554872447215 26 26 28
1.032150775758661 2.321884983638886 0.5438941439460736 27 27 29
1.0206604001532398 2.3974777040702593 0.54188005806168 28 28 30
1.009616716061438 2.4989107181734393 0.5385672327112354 28 28 30
0.9838640410795193 2.025624245978408 0.5648059353142917 29 29 31
0.9708290824553 2.0301149320203824 0.5664094635186757 30 30 32
0.9579930622143686 2.0442833901078012 0.5675221703696324 31 31 33
0.9447883407985093 2.042325392146806 0.56945794212621 33 33 35
0.9317181608462115 2.0471379719799336 0.5710509815657177 36 36 38
0.9185063801736746 2.044365463557411 0.5730267113903571 38 38 40
0.9052857178293209 2.0402660915371182 0.5750671689584792 42 42 44
0.892063871334237 2.0349328372253273 0.5771668314140024 45 45 45
0.8787517874977269 2.020518378009496 0.5797136062405456 46 46 46
0.8660753673701121 2.0619986847720764 0.5794972113956146 48 48 48
0.8526753360048119 2.0367969288183687 0.582572413481168 48 48 48
0.839592034520876 2.043636048945702 0.5840703160276457 48 48 48
0.8264167962328882 2.03767872166686 0.5861933376452018 48 48 48
0.8131812015602835 2.0114297763655635 0.5892957071722043 48 48 48
0.8001574636634745 2.036448104233212 0.5899154485475078 47 47 47
0.7870321462885546 2.0329268253804544 0.591914944287148 48 48 48
0.7739113601696943 2.0412063331504253 0.5933491552982024 49 49 49
0.7608012959466053 2.03495230871668 0.5954772815892571 47 47 47
0.7477222263588078 2.026618668095218 0.5977005910548912 46 46 46
0.7349830950599389 1.9630380445492803 0.6025199762418343 45 45 45
0.7197827568018127 2.2684356134113095 0.5900275679837927 44 44 44
0.7045961671020233 2.4613562999844323 0.5829151173350334 44 44 44
0.6908981473406279 2.4526740292926066 0.5852414530457885 43 43 43
0.6769119126062242 2.4704246684072113 0.5863432142323448 46 46 46
0.6629219994588849 2.4844582557468717 0.5876233447577357 50 50 50
0.6481991029651101 2.543686765988599 0.5868432083728079 51 51 51
0.6332592512192681 2.604637942251774 0.586010910288014 50 50 49
0.6180563355408549 2.669358581835806 0.5850349461091716 48 50 47
0.6054056646541724 2.5968908592095237 0.5902672272701913 43 45 45
0.5907961976004154 2.6255094705664086 0.5909359119349783 39 40 42
0.5786869860212318 2.5430619427381167 0.5965701794486313 39 39 41
0.5660297788954751 2.4933403682164474 0.6007149982117526 36 36 38
0.5536531070316412 2.4391653346017135 0.6050337741113755 35 35 37
0.5379077924618506 2.511002025015568 0.6037929816529037 35 35 37
0.5223600197071913 2.5685272242767847 0.6032094183546867 36 35 40
0.5100470259323495 2.517047507494051 0.6073903435608767 40 40 42
0.4992683711414245 2.424099482244009 0.6133414312696266 55 55 57
0.4851911698616489 2.4353168162389585 0.6147684927930455 72 70 72
0.4700535430877576 2.474936477110006 0.6149844705475556 82 80 81
0.45477775053381553 2.5149178468194036 0.6152024153870426 100 98 99
0.43823455594078453 2.583901405268214 0.6142094474578033 161 159 160
0.42331199221163124 2.607994812941255 0.6151383349439918 167 167 167
0.40840985949638664 2.6298560700517437 0.6161711778258294 168 168 168
0.3924003589091356 2.675256944905806 0.6162321599293352 168 168 168
0.37732603734730197 2.697110103762036 0.6172894109777747 168 168 168
1.64614765443867 3.675289089454653 0.40951730260255875 168 168 168
1.6346508001777698 3.7262761810478717 0.4087635090642193 169 168 168
1.6168122716157944 3.7047929190768643 0.4122432051614358 169 167 168
1.5981136720209428 3.67215256004226 0.4163584571749279 159 159 161
1.5786996540118303 3.6294551064278284 0.42103825997320754 112 113 115
1.5530186574307976 3.507020794073424 0.4302769819568151 67 66 68
1.5281842502208642 3.3902400302583735 0.4391363898332121 48 50 52
1.5040140218125737 3.277106808631438 0.4477346259777091 42 46 47
1.4812152124979314 3.1772260324156503 0.45552917900883494 73 73 75
1.4588391541048322 3.0786320011758432 0.4632053276927201 84 82 85
1.4419187076103694 3.0510756691371044 0.4668377227792039 75 74 76
1.4221008511316733 2.981182835877016 0.47283073582762564 73 73 73
1.3931910673712826 2.7761820219723314 0.486335617189528 70 70 70
1.3724846244611923 2.6830155488227994 0.4935281623814741 67 67 67
1.3516023865847078 2.582529994773562 0.501083486787899 75 75 75
1.3315851839206936 2.4904023575757197 0.5081319354452422 85 85 85
1.3132246799046658 2.419952185795319 0.5139475448742628 80 80 78
1.2945341856056012 2.340280237029943 0.520235367755438 73 73 72
1.2754370750147874 2.2493366736481932 0.5271008253269258 63 63 64
1.2638735351392718 2.2839475880678375 0.5271132004525418 54 54 56
1.250845655242033 2.2943722147919807 0.5284475514674852 49 49 50
1.2367063176263353 2.2849343683725043 0.5308548471346379 47 47 48
1.2231973954392064 2.286814588914635 0.5326511624006474 43 43 44
1.2062578086379554 2.2216834311372806 0.5380228548681978 39 39 41
1.1909606557650898 2.185401164466122 0.5418322485289673 35 35 37
1.177373019519933 2.1822979454229348 0.5438698610074026 32 32 34
1.1636981832378206 2.1770376436403356 0.5460193254418584 28 28 30
1.1491438397845584 2.151644927951099 0.5492218754895486 26 26 28
1.1345465142853364 2.1232825080740207 0.552567670919627 25 25 27
1.1220179390739238 2.142584668471305 0.553422115359699 24 24 26
1.1123882597118027 2.236226471614505 0.5504366170611336 26 26 28
1.097856644788556 2.2093616936225895 0.5537040342436674 26 26 28
1.0877617806660569 2.301388909262558 0.5508580079830582 26 26 28
1.0737025553779636 2.288423147754691 0.5534171883562746 27 27 29
1.0573548651946623 2.205455189905142 0.5595307465535987 27 27 29
1.0427673981731698 2.1694496666522665 0.5632284157624545 27 27 29
1.0334316737650635 2.304006554321726 0.558310929760245 27 27 29
1.0208846967867804 2.3409843948921085 0.5583510068814153 28 28 30
1.0093107153965788 2.418543322144412 0.5563798711239694 28 28 30
0.9997423900179908 2.5853878658042846 0.5500025436281173 29 29 31
0.9726537533465389 2.0333867749795376 0.5792911677139219 30 30 32
0.9596150596393812 2.0385465539041885 0.5808703563817175 31 31 33
0.9464581845445883 2.038605802670635 0.582701755895192 32 32 34
0.9336724217311874 2.058302681354044 0.5835738105992316 36 36 38
0.9200967842680217 2.0355420186134503 0.5865182759328557 40 40 42
0.9068940255730265 2.031871817354174 0.5885284391694251 44 44 46
0.8937183043925687 2.029111144677775 0.5904927967426998 47 47 48
0.8804437683413395 2.0174039376606006 0.5928844195609313 49 49 49
0.8673535794074854 2.0191495460195017 0.5946285826911372 49 49 49
0.8543547547333835 2.031284914578862 0.5958798163784744 49 49 49
0.8412067589060441 2.028380054114309 0.5978469729462866 49 49 49
0.8281027883794319 2.0309528536444854 0.5995548262736516 48 48 48
0.8150688053776387 2.0513290087658125 0.6004300894598056 48 48 48
0.8018822284049469 2.0378954573699684 0.6028892383106861 47 47 47
0.7887415178536541 2.0245092712265693 0.6053398040182398 48 48 48
0.775635664371866 2.0297626021047113 0.6069240313394806 52 52 52
0.7624906082364309 2.0463274508423033 0.6079909292420006 48 48 48
0.7494564977504025 2.0203245501665177 0.6110097522480022 48 48 48
0.7366675802883502 1.964955896871127 0.6153516171435407 46 46 46
0.721279085127097 2.305531325901796 0.6017561772926063 45 45 45
0.7064187580887036 2.458166279875753 0.5967733200112106 45 45 45
0.6926380261891545 2.4576653514068565 0.5987175786669239 46 46 46
0.6790409876719672 2.442022601391925 0.6013360525209753 47 47 47
0.664791782467527 2.478766143321953 0.6016242580344414 51 51 51
0.6512336413437623 2.4619788037159602 0.6042902099009921 52 52 52
0.6355301147746054 2.577226458006269 0.6011528611497621 51 51 50
0.6203874144094713 2.6416766360339077 0.6002850823781478 48 50 47
0.6074644340781603 2.5842629935320964 0.6047401514295466 44 46 45
0.5930408232250451 2.6053523551144133 0.6057761731794786 39 40 42
0.5809186657631913 2.5240294520828126 0.6112246388406501 38 39 41
0.5678720883998407 2.490792179427964 0.6145795571955364 36 36 38
0.5554231978756748 2.4390060028080667 0.6187084460313805 35 35 37
0.5399792501578062 2.5005123760214687 0.6180187191753813 35 35 38
0.5258913128058249 2.5095050279433364 0.6195670306497258 37 36 41
0.5127382453308786 2.4876333439111042 0.6224115007763329 43 43 45
0.49795622309201837 2.517732934445587 0.6230810532054917 59 59 61
0.4851928428023345 2.4863300353725037 0.6263117115184222 77 76 77
0.47116942263188577 2.4928484088452034 0.62796538488342 91 89 90
0.45588383872019067 2.532484036353756 0.6282644009715916 134 132 133
0.4407587666292579 2.5648413312331235 0.6288774300331206 168 166 167
0.42452318051796545 2.621957429146969 0.6285009710056213 168 168 168
0.4095140741688259 2.6458668893222486 0.6294882749161126 168 168 168
0.39448062775176873 2.6686470650499703 0.6305311651037332 168 168 168
1.6550980571109688 3.751300931683633 0.4209213012202141 168 168 168
1.6366614562341435 3.723942377751969 0.42470950345600467 169 168 169
1.6186581150728343 3.700573892231369 0.4282594452864698 168 166 168
1.5999680043885445 3.66807152737519 0.4323123086770986 156 156 157
1.5804947438877466 3.62472106237296 0.4369579515154654 103 104 106
1.555007413007862 3.5049665858554535 0.44584800147418413 65 64 66
1.530355847972284 3.390822179877202 0.45437148806621636 49 49 52
1.5066979002667735 3.284684084166856 0.4623995810308378 42 42 46
1.4837810025451865 3.183734096308412 0.47009311924651964 68 68 70
1.4614584469374612 3.0863351295260846 0.4775455325210116 85 83 85
1.4456279886905619 3.0741108505731596 0.48029589073731616 74 72 74
1.425920846572865 3.006563260887392 0.4860529828916905 71 70 71
1.408143832004356 2.963687191959453 0.49044117235658213 70 69 70
1.383101536843986 2.8112228135204673 0.5007276484199308 67 67 68
1.3589856060597094 2.665249104117078 0.5105956770654169 71 71 73
1.338435596254629 2.567281889229396 0.5178264956996546 81 81 82
1.318174672224917 2.4688073720082455 0.52503966108395 88 88 87
1.2998131693667259 2.3961435076750814 0.5308374114094766 81 81 80
1.283068452392039 2.346652995134271 0.5353767085025506 69 69 69
1.2671589307473348 2.3087769419217996 0.5392818064070729 59 59 58
1.25303466936064 2.3004181835828184 0.5416221262762599 53 53 51
1.239474017580613 2.301836188339557 0.5434480178190908 50 50 49
1.226214334211388 2.3089720334206554 0.5449770427940097 48 48 48
1.209750721700831 2.2541288351827315 0.5497158376871206 44 44 45
1.1945729269743601 2.221507889861119 0.5532846923218906 38 38 39
1.1805897225499953 2.2114603234837165 0.5556806599552586 34 34 34
1.1678355025805929 2.227086909677283 0.5567606962227727 30 30 31
1.1529234923822231 2.1957040503736973 0.5602373227344072 28 28 30
1.138113247320122 2.164263158024626 0.5637023599826648 26 26 28
1.124262455124778 2.153356445798459 0.5661181878472947 25 25 27
1.1142153442626341 2.2365490361790936 0.5638085618988609 25 25 27
1.1025980952886332 2.28580196981967 0.5632309237115105 26 26 28
1.0903990132206838 2.3235015074925784 0.5632494665638144 28 28 30
1.0765583672224446 2.3179128872745958 0.5654267653185363 28 28 30
1.0616518810714555 2.2799330957051427 0.5691967570830099 27 27 29
1.045902453765042 2.211619391000931 0.5744366639521636 27 27 29
1.0351504735178358 2.3008128456186188 0.5719576742267827 27 27 29
1.0235405792078078 2.3700708719473687 0.5704870523449939 28 28 30
1.010502753962369 2.3947646139544974 0.5712023235925254 28 28 30
0.9999369782658855 2.51959662781881 0.5671083916759367 30 30 32
0.9744971739148708 2.037364080624586 0.5921534866270689 31 31 33
0.9615568609999143 2.047286242130049 0.5935137881633933 31 31 33
0.9488428075946842 2.069620687904964 0.5942891482102748 34 34 36
0.9352927963488358 2.0516093753778453 0.5969798446921013 37 37 39
0.9217790729057508 2.032192809752291 0.5997281414326113 42 42 43
0.9086496788121396 2.033019009419976 0.6015203416449274 46 46 47
0.8953551251057427 2.022183339308528 0.6038555131719434 50 50 50
0.8822247757592023 2.021456263654642 0.6057171017293885 52 52 52
0.8690932560085542 2.020177453765803 0.6076034532895201 50 50 50
0.8553947808239495 1.9572698754367703 0.6123166040575588 50 50 50
0.8426803439005529 1.9955536827015556 0.6123808896823703 49 49 49
0.829748759227517 2.0180290994682877 0.6131802682902756 49 49 49
0.8166386315584536 2.0162107004014613 0.6150876981977265 49 49 49
0.8035379585051241 2.0147730922274905 0.6169768328234159 48 48 48
0.7903875433211555 1.9675965140209495 0.6209122422564051 39 39 39
0.7773571815287195 2.014178985948882 0.6206505296686915 52 52 52
0.7642117564571567 2.044301802471582 0.6211387265082113 50 50 50
0.7511719327828028 2.0186813830889703 0.6240976136951553 49 49 49
0.7383516282194564 1.967210449909093 0.628178506576747 48 48 48
0.7221341976419752 2.43911515868327 0.60939710637595 47 47 47
0.7082663107330822 2.4519177538398256 0.6107581982048016 47 47 47
0.694661372578367 2.434663731563671 0.6134227814781819 47 47 47
0.6810127568436322 2.4261583364276382 0.6157033778491271 49 49 49
0.6673834240915604 2.4184616883215715 0.6179452286517666 51 51 51
0.6529339559526774 2.467796751852581 0.6177584810883098 53 53 53
0.638434617904239 2.5106806909557857 0.6178663145566718 54 54 53
0.6231342712529455 2.590388411039156 0.6164438881156517 50 51 50
0.6096463168662108 2.5651421938232293 0.6194485193660333 45 46 46
0.5951050387224308 2.5933003737027325 0.6202187670317403 39 40 41
0.5827130745466294 2.5237698059093128 0.6250452061686071 38 38 40
0.5708599309783517 2.4414821196256864 0.6303653795333153 36 36 38
0.5569768403074616 2.4471526153835623 0.6320465854618402 35 35 37
0.5421282835891489 2.4870873325000273 0.6323345638878834 35 35 37
0.5281326659046994 2.4936543160273636 0.6339914744540149 38 37 40
0.5148682451537671 2.475987207383688 0.6366270388388849 46 46 48
0.5003370241498178 2.499075517079316 0.6376219337477564 62 62 64
0.4865324341211022 2.4987890083334534 0.6395578064559921 83 82 82
0.47326702791926445 2.483519848047774 0.6420865917511159 122 121 120
0.4581709142998829 2.5186416762274053 0.6426236473535774 165 164 164
0.4429537918251766 2.5540441696810268 0.6431650466203841 169 168 167
0.42558823850153227 2.6396763974247155 0.6417661675802041 168 168 167
0.4105783135667338 2.6629933808326895 0.6428175542845235 168 168 167
0.3955209447528678 2.6857469270564356 0.643900672079786 168 168 167
1.675678185531417 3.776668410519511 0.4331359296448837 168 168 168
1.6568011777044145 3.745458514996254 0.43710445099231693 169 169 169
1.638671751041735 3.7216088312618703 0.44065274320502346 169 169 170
1.6206207056693103 3.697731393629122 0.4441913159733626 168 166 169
1.6020775648871477 3.667039960582113 0.44809108856299057 150 150 152
1.5822054138688824 3.618980941440578 0.4529218975892969 94 95 97
1.5577802035414117 3.5126161615311813 0.46089106300695415 62 62 63
1.5326403291968924 3.392818288367807 0.4695367349254953 46 45 50
1.5091750333282614 3.2895442642328296 0.47723950580613095 41 40 44
1.4862296647871929 3.188653358332342 0.48476753007787704 62 62 63
1.4640694079117273 3.0938715904786327 0.49192384023016067 85 83 84
1.4481514785147265 3.080683726022799 0.4947062886301753 74 72 73
1.4286721463446495 3.0167380525363696 0.5001648217423778 71 69 70
1.4093723239548483 2.952342669998334 0.5056176821477281 69 69 70
1.3882933488082188 2.858583911852616 0.5125795217535953 62 62 64
1.3654911971770347 2.734146061467804 0.5210990644309764 64 64 66
1.3445875761517463 2.6328077465604554 0.5283620715185946 73 73 75
1.3245201538158835 2.539481073131818 0.5351645307795034 80 80 80
1.304949336000105 2.4492658711436683 0.5417642039279449 88 88 88
1.2868033848540916 2.377967618915963 0.5473529435694753 80 80 80
1.271255068260803 2.3473692803239143 0.5508318020921239 65 65 64
1.2552313828794073 2.306543523894811 0.554816155002626 57 57 56
1.2422314110159987 2.3184043049915006 0.5561164276721494 53 53 53
1.2288549105889277 2.3238621301901374 0.5577441557327453 51 51 53
1.2125712154673935 2.2732516338930937 0.5621850073118886 48 48 50
1.1977572964667418 2.248722109266138 0.5653009438338591 42 42 43
1.185154827495524 2.268242118881234 0.5662168782105881 37 37 36
1.170992459359632 2.2556714135217555 0.5687284215797314 33 33 33
1.156611271435033 2.2372873150620998 0.5715201408070569 29 29 31
1.1420130496665737 2.2124811802744073 0.5746179314576294 26 26 28
1.1295579524211636 2.2368944564130295 0.5753031603139267 25 25 27
1.1163011291141736 2.243283993263663 0.5768742063420303 25 25 27
1.1039074475951929 2.2724935648714766 0.5773448611559695 26 26 28
1.0929811517446644 2.343850792422782 0.575800791380735 27 27 29
1.0788027686822317 2.3297442866181273 0.5783805343247373 29 29 31
1.0643574900597184 2.30630214903941 0.5813984431464028 29 29 31
1.0509581268396897 2.312958183486671 0.5829778850593575 29 29 31
1.0379594329813453 2.3333605584840984 0.5839110767718919 29 29 31
1.0211241028584315 2.223232746467668 0.590985280990188 29 29 31
1.0039766657486697 2.088519069196004 0.5991590168303713 29 29 31
1.0054507948545424 2.6620802694765877 0.5743165545164741 30 30 32
0.9625303786240726 2.012684726622692 0.6081862880008936 32 32 34
0.949604223362717 2.022021287839207 0.6095847120531893 34 34 36
0.9368022359850118 2.0392624398331574 0.6106263097987544 37 37 39
0.9235037654440377 2.0313056721964666 0.6128193972418485 42 42 43
0.9101874555025546 2.0204661492390934 0.615138796517973 49 49 49
0.8968737459062345 2.007195211241525 0.6175622749085825 53 53 53
0.8839243475223526 2.0189441904033365 0.6188603095846515 53 53 53
0.8722563819002151 2.148971014453783 0.6148993442705679 54 54 54
0.8585124409492286 2.1047508261536683 0.6187121369708002 53 53 53
0.8443509605745255 1.9893459147193928 0.6256407865603383 52 52 52
0.8313900020215526 2.005142545173836 0.6267665642203437 51 51 51
0.8183241386867679 2.008878635012042 0.628425004812952 49 49 49
0.8050576726511699 1.9503247083947017 0.6327870311620666 51 51 51
0.792113932920224 1.9820973136421252 0.6332241658592561 43 43 43
0.7790701976565236 2.014114637789327 0.6336647092577556 41 41 41
0.7659253052877817 2.0463806011736874 0.6341086546646895 51 51 51
0.7526741268341814 2.0800654016188163 0.6345064504014294 52 52 52
0.740050798765784 1.9667271433850855 0.641132198048026 50 50 50
0.7240640383230729 2.4184957749420644 0.6239520833686416 49 49 49
0.7102626734427809 2.4272968470431984 0.625495348891564 48 48 48
0.6965389092830394 2.4255796816098973 0.6274796209806344 49 49 49
0.6827837881574255 2.4273182092468306 0.6293198194912559 50 50 50
0.6693980607606789 2.4005067676685625 0.6323349541694894 52 52 52
0.6548622997166172 2.4582538872114417 0.6318779853525728 53 53 53
0.6409249164302939 2.4679353850903256 0.6334023676845377 54 54 54
0.6252785977807687 2.571654374508218 0.6311252860884958 51 51 51
0.6118067008677803 2.5467449043182095 0.6340707176589756 45 45 45
0.5973809407504602 2.570997653965787 0.6350371816595011 40 40 40
0.584852146746845 2.508341492083439 0.6394727262499552 38 38 40
0.5730133644238681 2.4256898056634935 0.6446711181224594 35 35 37
0.5587492746770097 2.4470048699440157 0.6457412635701713 35 35 37
0.5444216343952345 2.4682351156787345 0.6468238993789615 35 35 37
0.5302281420082782 2.4826065517505116 0.6481824794702559 39 39 41
