ply
format ascii 1.0
element vertex 733
property float x
property float y
property float z
property uchar diffuse_red
property uchar diffuse_green
property uchar diffuse_blue
end_header
0.7942234737370989 4.120643043983757 2.0520643475055365 94 94 94
0.8842488752984135 4.129857508563902 2.0618819992476447 81 82 81
0.9860594326954072 4.138940126881176 2.0732076081994686 82 82 80
1.1486454951414247 4.146337279483369 2.092477061526552 179 179 177
1.256030117706553 4.155961994085597 2.1044152785829815 207 206 204
1.391621267471507 4.165076338728036 2.1199950594672505 208 207 205
1.5605208996200202 4.173669375453578 2.1398615391738747 208 207 205
1.3369100868152444 4.20644143330666 2.1062109508312057 209 208 206
2.6686682094755687 6.6243403069331634 1.8716600524973666 196 195 193
1.260319754841175 2.2947881753232275 2.4294140216560725 205 205 205
1.2492003416634674 2.3122808697610204 2.4250744768534918 205 205 205
1.2446675892946786 2.3280731892013424 2.4218600490597657 205 205 205
1.2404947413622582 2.343747691457884 2.418711255620161 203 203 203
1.227998548245126 2.361449555182893 2.4141609393633052 137 137 140
1.2163483196526064 2.378887926999414 2.4097626553878224 99 98 102
1.2049196479484285 2.3962192525193635 2.4054105362704705 90 89 93
1.206886017161755 2.410262341534026 2.403318196538333 84 84 88
1.1981525934609256 2.426866134909657 2.399431770131676 78 79 83
1.2555176359384692 2.427690014717461 2.406621896204165 75 76 78
1.3109999991467536 2.4291466133565147 2.4134659468222392 70 71 73
1.3323169133014814 2.4387994182681365 2.4145780325148687 67 65 70
1.417904462931686 2.4335479450970303 2.4263870633604974 61 60 66
1.4406426600927262 2.443107557349614 2.427696250945674 52 52 60
0.9797286773886653 2.5636755844513193 2.3487002187887183 49 49 57
0.9653209035517958 2.5809846122324323 2.3439712803494515 48 48 56
0.869519219424395 2.6166197400164375 2.325787092653921 46 46 54
0.9485372531370184 2.6127199230568205 2.336531390869661 46 46 54
0.9851915730116052 2.6185058425691055 2.3402479322134195 47 50 57
0.9611372728278017 2.637806315043236 2.333954446101272 50 51 59
0.9471042412806443 2.6548172681761275 2.329323118800319 52 52 60
0.937796518134942 2.6707413615547857 2.3254767619780865 56 55 63
0.9340443953185411 2.6854241795824 2.3225472032474563 57 54 62
0.9283602387840351 2.700495459725195 2.319306026364227 57 54 62
0.9131081337368148 2.7175647356755763 2.3145092458205636 54 51 57
0.6899407322763942 2.778308349013071 2.2758656789527203 50 49 54
0.6945570844639313 2.7907462687709788 2.274379710408873 48 47 52
0.7207734068366551 2.798719142387025 2.2763979775461576 47 46 51
0.7473796896030092 2.806690764964675 2.278466265672267 47 47 51
0.690942471555527 2.831641360130088 2.267093400689357 48 47 51
0.6719713681426934 2.8488271945480212 2.2618021166077695 51 50 54
0.4608078917696161 2.904388392173128 2.2255567342016107 55 55 58
0.49317802113403014 2.910909112648406 2.228603403696877 60 60 63
0.4860388180877745 2.925299061875491 2.225290064930397 60 61 63
0.4905316322777441 2.9373862019187356 2.223846854340265 61 62 66
0.4836326149733165 2.951679071426511 2.2205803967914064 60 61 65
0.4814821514097576 2.965028078827262 2.2180780154898128 61 60 64
0.4633522452345168 2.981392156890261 2.213031318156052 63 63 66
0.43995803004454653 2.9986739850185957 2.2071590213390406 69 68 72
0.4218115977724267 3.014887152819032 2.202135396990764 58 61 63
0.4036282939811975 3.0310347020496247 2.1971180132566186 50 54 55
0.39348331587148033 3.0456386266175417 2.193385018700253 34 34 36
0.38907713550298695 3.0591568970557828 2.1905662531102363 24 23 25
0.38451768375801687 3.07267712973073 2.1877275816967003 22 23 25
0.3718343544228112 3.087616796686201 2.183614317942588 23 24 26
0.35539625806789765 3.103164667529976 2.1789199356739473 23 24 26
0.3676481400895779 3.1136386304950796 2.1787370497517986 25 26 28
0.6805928439617982 3.0721667203846557 2.225632393465744 24 25 27
0.7793043009194975 3.068411086549436 2.2388682012719303 19 20 22
0.8771133982920198 3.065130537926573 2.2519094622971103 19 20 22
0.9628211685483874 3.0641992381862964 2.263012897219405 21 22 24
1.0178089177023808 3.0686483973236123 2.2692943676693123 27 28 30
0.9911045308264947 3.0867037733773794 2.262870150746514 35 35 37
1.0044563673302298 3.0981389852537733 2.2626673556171233 39 39 42
0.979667871623481 3.115750842783938 2.256561882690953 44 43 48
0.8881363267088127 3.1439061009877305 2.2401713920825608 49 48 53
0.9153232826230808 3.1530200025330517 2.242123229391414 50 49 54
0.9904316002609396 3.154736585060398 2.251430846478919 51 50 55
1.0156254175655435 3.164398303985507 2.2530366670253765 53 52 57
1.0207607589189212 3.1771957233534205 2.251556998935592 47 46 51
1.021532090732089 3.1906580717048314 2.2494089234533337 42 41 46
0.9435748493967815 3.215869285758497 2.2352436716571513 45 44 49
0.9849858932363534 3.223181455969373 2.239313119341871 47 46 51
0.5374398401467649 3.3020112826324737 2.16898995084783 47 46 51
0.4885668340751583 3.3217940848302203 2.1594457162167506 45 44 49
0.4349758085754295 3.3420767471100254 2.1492154009465905 43 42 47
1.2895732305379952 3.234106051843134 2.276396968828879 39 40 44
1.2959618942658988 3.2471629339711305 2.2750340966155846 30 31 35
1.3042092844334596 3.2599735819085667 2.273949743471923 23 24 26
1.2669202959012869 3.2789943214941992 2.2660123852138816 20 21 23
0.7011992157992311 3.3688854999994247 2.1787480171157654 17 18 20
0.7506595710477134 3.3752477509581706 2.1840041794301164 15 16 18
0.7499284030459771 3.3883410969901537 2.1817257590034798 14 15 17
0.5651567912328312 3.4252369191905467 2.1519664699530368 13 14 16
0.5559652435198019 3.4390806710350996 2.1484821213223824 14 15 17
0.6344955405855855 3.441821867329904 2.158055862419391 15 15 17
0.6293082555245959 3.4552304706742056 2.155155622465672 15 15 18
0.6377518951246524 3.466937554758601 2.1542805007926087 16 16 21
0.6711692744887273 3.4756362771898455 2.157097476490437 18 17 23
0.7048471172950943 3.4844033800242973 2.1599363115502754 18 17 23
0.3540758567409049 3.5385835649332242 2.1060883694310064 18 17 23
0.351202043497416 3.551167402471688 2.10362128179333 20 19 25
0.36053578762789434 3.562332999245623 2.1029502226944246 21 21 24
0.39821832716688477 3.5703174816233187 2.1064312081565397 22 22 24
0.41013659570674676 3.581283001147098 2.1061236764013893 32 32 34
0.41905647736025387 3.592606276543209 2.10537343843681 39 39 42
0.42870079334901356 3.6038703919714323 2.1047256098936438 47 46 51
0.43351979566931137 3.615669318877219 2.103372162605191 52 51 56
0.44543025845837353 3.626731016218671 2.1030475835722284 50 49 54
0.4429402088261084 3.6393065556524453 2.100630901385072 50 49 54
0.4323268192058157 3.6526883458235573 2.0970420238760275 49 48 53
0.4288711775362408 3.665310665087783 2.094494193605377 47 46 51
0.4252592505273175 3.6779270321773865 2.0919273932783815 47 46 50
0.4253838169552632 3.690160635168957 2.0899017557663324 49 49 51
0.41473430091290986 3.7034079780658566 2.0863307002129194 47 47 49
0.40988998033833424 3.716068755242051 2.0835990669461464 45 45 47
0.4096367057448639 3.7282826681203796 2.0815284512015406 44 42 45
0.45438643656449157 3.736430418848935 2.0858849293559136 42 40 42
0.4530332612448932 3.7487930394405002 2.083648999621289 40 38 40
0.45417057077734674 3.7609249256102943 2.0817697010197396 36 34 37
0.45488249988311114 3.7730867779114363 2.0798310650070477 33 31 36
0.43555282098034476 3.786917240328536 2.0750539237095085 36 34 39
0.42850625512199236 3.7996677856979497 2.072026002560233 40 38 43
0.42465378366403617 3.8121288268703557 2.069454396762435 42 40 45
0.41893844074724396 3.824714336288716 2.0666240627802908 43 42 47
0.4679587960451659 3.8330466461440618 2.071495256676483 45 44 49
0.4747790952556329 3.844716297952159 2.070419021735977 48 47 52
0.5032044370588071 3.8547998760193267 2.0723672261914228 47 46 52
0.5168180326049683 3.8660367179750197 2.0722309713343825 46 45 51
0.5490316720748736 3.875991289656235 2.0746846086991435 46 45 50
0.5814922609566753 3.8860222246765126 2.0771570469936655 49 48 52
0.5943532200013754 3.8974711884418296 2.0768892539249992 54 54 56
0.5974975186659224 3.9095921294251554 2.075268147829888 55 55 59
0.6065302606905663 3.921334238405311 2.0744624311273703 59 58 63
0.6155768962676352 3.933094371599546 2.073655481251004 64 62 67
1.0876244896407254 3.929638125244495 2.134530016009969 69 67 72
0.6576169241629128 3.967624646523986 2.073263103587376 71 69 73
0.6972608140997787 3.9777595806925543 2.076635756913362 71 71 73
0.7439373577671325 3.9876256384558855 2.0809516077348467 72 72 74
0.7729351090408237 3.998570319301865 2.082829228608635 73 73 75
0.8250148492725637 4.0084064306205525 2.0878402628667656 76 76 78
0.8510018616426587 4.019702483647489 2.0892746650397394 78 78 80
0.9022306889848242 4.029848952047097 2.094125214047992 80 80 80
0.8666581324188223 4.044212012936159 2.087184382503039 83 82 83
0.8748603249754369 4.056471792761194 2.0861861850901264 87 85 88
0.8807504275868605 4.068848288192952 2.0848731716145292 89 87 90
0.8754011656830598 4.081706076464628 2.082044161558181 92 90 93
0.9058521463078433 4.093087237551068 2.0840345729887977 94 93 96
0.929456988708075 4.104820835137278 2.085091667234173 96 95 97
0.9251869821841741 4.117659340034494 2.082403735609271 84 83 86
0.9841195430207882 4.1282145101895065 2.08817012901055 63 62 64
1.0800434309634008 4.13768105485678 2.098843339094613 102 102 100
1.2996559289911966 4.1434071283009475 2.1259403232693836 174 174 172
1.309630590918027 4.156318567163385 2.1250597859130314 207 206 204
1.3219529588909833 4.169181589402455 2.1244872163337636 209 208 206
1.7696648849375767 4.169932510818333 2.181551101618306 209 208 206
1.25612629407218 2.2977527578786505 2.443034483216917 205 205 205
1.247882080625838 2.3145124538055835 2.4391638533470115 205 205 205
1.2426673687540222 2.330473031010884 2.435818883027608 205 205 205
1.2340019827630035 2.3472598381119285 2.4318892251510893 194 194 195
1.223859598212209 2.3643680680321197 2.4277146945739725 116 115 119
1.2114246343504211 2.3819897090870947 2.4231576492107085 94 93 98
1.2081376942554578 2.397331607858378 2.4201656058377763 88 87 92
1.2048165715111248 2.4126579289604706 2.4171717460603848 83 82 86
1.1971547022698972 2.42900038874101 2.413446266674614 78 79 82
1.2602333168439435 2.428477635058282 2.4216949680570914 73 74 76
1.3145209951750814 2.4302382449965894 2.4284242623081713 69 70 72
1.3326882658671695 2.4406412762567804 2.429034305200697 65 64 69
1.4443382149627628 2.42934812948784 2.4453692044741704 58 58 63
1.453969690641209 2.4419861981556874 2.444500936141764 51 51 58
1.4604051257657402 2.455377557815676 2.4430931282955815 49 49 56
0.997600070720253 2.5754926096114312 2.3631186323281876 46 46 54
0.9908325388461084 2.59106918837954 2.359636999685335 45 45 53
1.0116501073711892 2.600432747395143 2.3607638522416683 45 45 53
1.0506337702501773 2.6058197269943357 2.3649063723772725 46 48 55
1.012244481221618 2.6283895782869022 2.3561634435174064 49 51 59
1.0057926588119395 2.643828171536194 2.352745743651039 53 53 61
1.016036132284452 2.6556092362317796 2.352100037683152 57 56 62
0.9874228655089964 2.6757799372974955 2.3450233400763394 61 59 63
0.9744018421642187 2.6925099341037897 2.3405396454198586 63 62 64
0.9785161704737632 2.7055530466997446 2.3388897913322175 62 61 63
0.9509665906030379 2.7252523547386627 2.3320295820304136 59 58 62
0.7436012480155555 2.782321713570949 2.29565224946276 57 56 61
0.7785440541967222 2.788582102392179 2.2991258296684878 54 54 59
0.8086242017132861 2.7959479184601026 2.3017853257853313 52 51 56
0.776780801452416 2.8159924418674005 2.2943118169156804 48 47 51
0.7635138073020552 2.832172303763168 2.289888338218042 45 44 49
0.7316246613829194 2.852016767776846 2.282442381562936 43 42 47
0.4576363614124922 2.919706777745827 2.23566834716718 45 45 50
0.48805023758740235 2.9266591740333894 2.238440188876053 51 52 57
0.4836781512390009 2.940477724576436 2.2355626103903696 55 56 60
0.48682810051933073 2.9528187270926995 2.2339054492775507 59 60 65
0.47492099598279625 2.9680399445483787 2.2298183016730877 62 62 65
0.46274472697636737 2.9832607627780847 2.2256963958026317 66 66 68
0.4484886461072351 2.998820067207785 2.2212487692095886 65 65 67
0.4362765110727628 3.0139395257616366 2.217139180871119 65 67 68
0.4203414401703677 3.0296935392613107 2.21244174731055 62 64 66
0.40537127565670905 3.0452063288301106 2.2079095132481017 55 56 59
0.38768986680734696 3.0611485986203415 2.202954638687514 37 39 41
0.37818084478538705 3.0755541852750303 2.199314218872592 25 26 29
0.36841189821067727 3.089963129175502 2.195639607795862 24 25 27
0.3544628898442336 3.105064129666079 2.191308387298113 25 26 28
0.34661416918469246 3.1190440201959477 2.187954001698529 31 32 34
0.3528770297680585 3.130550865222339 2.186839154011861 27 28 30
0.7185622579462396 3.080630510468035 2.24250418013704 18 19 21
0.777259396081577 3.0838907584478035 2.2495530829217447 19 20 22
0.9094128815784885 3.0750294693009637 2.26813391105396 20 21 23
0.9740056855148299 3.0778091295979655 2.2760260119226197 23 23 25
0.9615325938386925 3.0934487503850483 2.2717956348695725 31 31 33
0.9611934315127999 3.1070631976547376 2.269473991916622 37 36 39
0.9663292925351963 3.119784669883506 2.2680101178087506 42 41 46
0.9569155513097726 3.134827736261313 2.2642753722482105 48 47 52
0.9551526961272863 3.1486231369213815 2.2617392545971717 50 49 54
1.007881283987839 3.153911679458977 2.267676590672192 51 50 55
1.0463474579435674 3.161563812665793 2.271373186102605 51 50 55
1.0365403382460114 3.1766927224871844 2.267573182403813 46 45 50
1.0250147006170265 3.192036642745681 2.2635148610211497 44 43 48
0.9740588325573558 3.213210146734017 2.253379657564258 47 46 51
1.1068533036093997 3.2071102943076717 2.2715814163141075 49 48 53
0.9921806759437397 3.26447891155251 2.2471467924524795 45 44 49
0.9928434409951186 3.277850415734631 2.2449954264731162 51 51 56
1.3598208517003334 3.2402536031279756 2.298765850965117 36 37 41
1.3752369007328265 3.2521878021121164 2.298763763479961 26 27 28
1.369302881613733 3.2670607470818602 2.2955076937119903 23 24 26
1.3687185327526874 3.2811848124413707 2.2930690664986777 18 19 21
0.7735149183388764 3.3740693686500225 2.200520360537693 15 16 18
0.8692220995353157 3.3745848910963043 2.2128169051579993 14 15 17
0.9747869133475712 3.374132981011297 2.2265507068069588 13 14 16
0.5258892705249365 3.444721843936219 2.156661546393939 14 14 17
0.6436491563821775 3.442495099195851 2.172270110036126 13 14 16
0.6233604100063704 3.4577942094863148 2.1670854963553765 13 14 17
0.6505128607316268 3.467201230267961 2.1690246977743795 13 14 18
0.6958409061880488 3.474489457099472 2.173669979655102 13 13 18
0.3606230332231346 3.5273050309849663 2.12146249939719 14 14 19
0.3582771128523305 3.5398524381901755 2.1190597387687773 14 14 19
0.36304564245716325 3.551556876105993 2.117718493210134 16 16 21
0.3725587335549915 3.562724389625929 2.117080938866889 18 18 21
0.39122881714755575 3.5728810322282603 2.117797258725139 18 18 20
0.4337264982027945 3.5804424469314142 2.1220306365555475 20 20 22
0.4612107640537929 3.589775831832642 2.124025088536068 27 27 30
0.47693138196233875 3.6004570314694666 2.124272039522604 35 34 39
0.4971273262627493 3.6107044177065477 2.125170596570353 37 37 41
0.5075039727028325 3.6220339445959477 2.1246176652085307 41 40 45
0.5081553952474275 3.6343877750465166 2.1226350933411036 45 45 49
0.43981508399090635 3.6537193817705664 2.110558812626673 47 46 51
0.4162478272132135 3.6683574888426267 2.1050606074231006 50 49 53
0.43037468113478955 3.6792148379369456 2.105071883276021 52 51 55
0.42426193586369043 3.6920586434422216 2.102132174177672 52 51 54
0.429673833418343 3.703780647237439 2.100871230046457 53 53 55
0.42281761125717754 3.7166526403914135 2.0978306124363124 54 54 56
0.4253292415219857 3.72863524427789 2.0961508260690036 54 53 57
0.4213865301997808 3.7411961026858536 2.0935392188596316 52 50 55
0.42851149526242194 3.7527574370267573 2.0925267957217164 50 48 54
0.4389968921484466 3.7640407590536 2.091995665010614 50 47 53
0.4404531645295724 3.776115695807238 2.090163886522063 49 47 52
0.4282581326943974 3.789323925938014 2.086376268586621 45 44 49
0.43509064528590624 3.8009266320199853 2.085319085652357 42 40 45
0.4233994868152708 3.814026562199838 2.0816147789938335 41 39 44
0.43542438079862944 3.8252157538718654 2.08129858006957 40 39 44
0.43035314042795697 3.837749332768912 2.0785455254182557 38 37 42
0.4448937605810814 3.8487791718871502 2.0785814768090347 39 38 43
0.481236487387702 3.8582384629888926 2.0817009901712487 42 41 47
0.5322735020075746 3.8667449239755505 2.086881094007885 44 43 49
0.4930124206907961 3.8817728985881232 2.0792871624930798 45 44 49
0.5473706521131313 3.890213447502889 2.0849079996618607 47 46 51
0.5745170656974959 3.900649991807532 2.0866741758278398 60 60 62
0.5962622481719666 3.9115184540104204 2.087669267582704 44 44 48
0.6183552108887589 3.9224242595105334 2.088703108157676 40 39 45
0.6461386838369918 3.9330350535981977 2.090522555574911 41 39 45
1.0475105398353084 3.920970324536665 2.1444713665163597 42 40 45
1.063298951101074 3.93304663817973 2.14449367957598 47 45 50
1.0904749486027092 3.9445055574948267 2.1460926351954153 48 47 51
1.083488572332663 3.9579577895508784 2.1429381012632978 53 53 56
1.1309418952127088 3.968408726276553 2.147329219627635 60 60 63
1.1118658947648252 3.9825219553437226 2.1424999170729344 62 62 65
1.025000396347437 4.0000445702549285 2.1283294620389834 62 62 64
0.8685601765894104 4.020742292018175 2.104626074600211 66 66 69
0.9234508264864406 4.030753331783123 2.1100530466296274 70 70 71
0.8914121223275716 4.044977627651742 2.1035280205335836 74 74 75
0.8898599612673537 4.057718275515138 2.101195628057881 77 75 78
0.9041784651165439 4.0697547947657355 2.101034419231857 74 72 75
0.9136649154205503 4.082028544294485 2.1002083395304227 74 72 75
0.9348316299562834 4.093851970710751 2.100968817871414 79 76 81
0.9473495791187898 4.106066497607134 2.1005448680176833 72 69 75
0.9562546761869708 4.118444313154326 2.0996261608895272 54 52 57
1.0306801206431406 4.128513294675054 2.1075708912986855 94 92 95
1.151972914872782 4.137216262987465 2.1218079572739432 99 99 97
1.2910712972990355 4.145714837069078 2.138382943368248 166 166 164
1.4482331910892583 4.154084698983097 2.1573165582497444 207 206 204
1.6112606835494838 4.16276689029813 2.176956822288584 209 208 206
1.665076237353746 4.174969405363972 2.181878051967844 209 208 206
1.3432458081412748 4.197123565762184 2.136532466508442 209 208 206
1.261854624521042 2.28349490704746 2.460832678753753 206 206 206
1.3003461203885391 2.288448495709351 2.465045287056722 206 206 206
1.2475204697558573 2.316503193503669 2.453418048729205 205 205 205
1.2388384115535815 2.3333294004469614 2.449458209102686 205 205 205
1.2301825303109366 2.35010619821296 2.4455100867546995 171 171 171
1.221551043037551 2.3668342183921043 2.4415733421271755 104 103 106
1.212944909224119 2.3835134088964405 2.437648109677077 92 92 97
1.2043650899155167 2.400143723665608 2.4337345230540026 86 86 89
1.198936933555019 2.415971767148957 2.4303684572933 83 81 84
1.2093487483164609 2.4279768508091206 2.4297190955244656 78 77 79
1.270353625010014 2.4279835936231287 2.43771132082189 73 73 75
1.320199785016949 2.430822978209929 2.443766323462065 67 68 70
1.3606438128113414 2.4360251339580845 2.4481930764664046 63 62 67
1.451296049199618 2.429687158754721 2.4611341347537876 57 56 62
1.4510620652294455 2.4446161738210463 2.458599445085873 50 49 57
1.4385455639631282 2.4623435743520203 2.4539860290253253 50 50 57
1.4255503591792436 2.4801236991003943 2.4493010459386726 46 47 52
1.2660630292210167 2.530873472141538 2.4198914989225067 45 46 51
1.2547338547263802 2.5479117685824972 2.4155492389461024 45 45 52
1.1907419980694314 2.5765891036364037 2.4023544788514073 45 45 53
1.1362042156137573 2.6029504096875815 2.390786934232271 49 49 57
1.0938403620702077 2.626450653538847 2.381294400586724 53 53 59
1.084861174674849 2.6425546575447614 2.3774167631642875 57 57 62
1.0740822816678146 2.659002801405117 2.3732455913519184 63 63 65
1.068209432798532 2.674355149313538 2.3699010463734873 66 66 68
1.0700802388921298 2.688036608373516 2.3678513949812454 67 67 69
1.0331463264714797 2.709858001823122 2.3593519286575293 64 65 68
1.0443776001742413 2.721513175301879 2.358868629220885 64 65 69
0.8406785775781643 2.7775711720381486 2.322775761905922 64 65 69
0.5731981593098245 2.8459769296614494 2.2762546565945727 63 64 67
0.5471109515398184 2.8644423415715052 2.269739309907904 60 60 62
0.5057117275844067 2.885889833680812 2.2607174762234425 57 57 61
0.8071860798549333 2.8387448970478197 2.3081266842109085 52 53 58
0.7447895554672268 2.864628998250514 2.2956094643275162 46 47 52
0.4529512127403198 2.935301129465424 2.245516648242277 40 41 46
0.49555091160552045 2.9399247218240245 2.250322896795887 42 43 48
0.48937468553180297 2.9540853875062805 2.2471384807236556 48 49 54
0.4778232732350703 2.969241104621265 2.243082864790712 54 55 59
0.4624604049155699 2.98506832350164 2.2384152103900608 61 62 65
0.4532227047549072 2.9996829826309326 2.2347535070851836 63 64 64
0.44228027359881 3.01457242103745 2.230822347530302 67 68 68
0.43162557266553736 3.0293608804458247 2.226945825857528 65 65 69
0.4120340378806822 3.0457338661956723 2.221632556084506 63 63 68
0.39845687442297995 3.0609419088968304 2.21730273319357 57 58 60
0.3751727488265583 3.077832346446619 2.2114188383133677 44 44 48
0.3689635848060536 3.0916030254615126 2.208295518579588 32 33 35
0.3610885150962967 3.1056349222153194 2.2049101044693815 27 27 29
0.36612644408065065 3.1173817103701347 2.2035999360659866 29 30 32
0.3582412015908991 3.131362834134289 2.2002217051462014 22 23 25
0.6527789668621672 3.0936826213722566 2.2451345147573716 18 19 21
0.7290788646731132 3.0938713036863694 2.2551003018487545 19 20 22
0.8418865090811505 3.0881975984006593 2.2708329248722463 18 19 21
0.9030112586691968 3.0914539289082272 2.2782958062741208 20 21 23
0.9042953525834881 3.1047163957523263 2.276239556282283 27 28 30
0.9333764885753714 3.1134611073922205 2.2785832606412435 34 35 38
0.9233233847785542 3.1285772426608642 2.274730604332263 40 39 45
1.0169098484932368 3.1271780965688536 2.2872277433379877 47 46 52
1.0046456749919634 3.1427258615987514 2.2830129777534274 51 50 56
0.9765920330020481 3.1606774851553006 2.2763261501144183 53 52 57
1.0259975210895607 3.1666036548975796 2.28180566844111 51 50 55
1.08744960439774 3.17085026207661 2.2891453414996006 45 44 49
1.0549954185491526 3.189428170065479 2.281776872567671 45 44 49
1.0166039833319973 3.2087701791987056 2.273502294777929 46 45 50
1.174376098708171 3.199096560993666 2.2957974313842526 48 47 52
0.9588421033934005 3.2577001361490807 2.257726881729426 47 46 51
0.9842521755708957 3.267508015214016 2.2594112491995944 46 45 50
0.9991986686942931 3.2788599025615124 2.2594656180269097 44 43 48
1.0201474086941231 3.289416772516623 2.260439797771749 36 36 40
1.0190847279972712 3.3030524515205233 2.2580134556764873 28 28 28
1.0317104138193411 3.3148178875986862 2.2576943692297866 23 23 23
0.9132297116492747 3.344169134261778 2.237247001766703 18 18 20
0.902528866666171 3.3588635319145292 2.233380210823758 15 15 17
0.9360400950679684 3.3677380157995076 2.2362826154150794 15 15 17
1.0256627719775784 3.369477833646667 2.2477338909704776 14 14 17
0.6785437191475393 3.42709136865133 2.192588052986184 14 13 18
0.710707625351551 3.4358986074418594 2.1953251994029217 13 14 16
0.6768487287571747 3.452986795539921 2.18802254328601 13 14 16
0.6688205675639294 3.4667928522126013 2.1846549498490804 13 14 16
0.7186356646034114 3.473581252761341 2.1900435172295656 12 13 15
0.35536285203897366 3.5296954460902343 2.1330325652795885 12 13 15
0.3490434482372656 3.5427008727134846 2.1300231561730545 14 14 16
0.3461976337370976 3.5552733810346826 2.1275414980778002 14 14 16
0.3550569256439294 3.566490854725424 2.1268208172680327 16 16 18
0.4205570887115392 3.571357214161499 2.1345869522105922 16 16 18
0.48624382834977464 3.576407594576928 2.1423466682518457 17 17 19
0.5144250807727848 3.5857581845814908 2.1444708390595055 19 19 21
0.5348306264591879 3.5960271049954193 2.1454221425923374 23 23 25
0.5578291924570323 3.6060778926178108 2.1467497920152505 28 28 30
0.5803414379655187 3.6162443090001783 2.1479943254481335 32 32 34
0.5746169991858402 3.6293724591009804 2.1450422892030176 37 37 39
0.546201897069568 3.644763831912917 2.1387375288224795 39 39 41
0.5234080132032898 3.65949363499572 2.133280270817958 41 41 43
0.4757898269509941 3.6765658119246383 2.124177445942548 43 43 46
0.509017517055087 3.6857009171889423 2.126998985229213 46 45 50
0.48760117331658387 3.7000982196808105 2.1217779938074677 50 49 54
0.4326481425428963 3.7175307806687954 2.111653650892189 54 53 58
0.42241160045451764 3.730694075758587 2.108104507248785 58 58 60
0.42207061676097885 3.742927162718713 2.106007983365842 58 58 60
0.4376093163054341 3.753751503085472 2.1062284329189733 58 58 61
0.4479304009453712 3.76506699874921 2.1056828469664697 59 58 63
0.4623024310810577 3.7760624931110662 2.1057217224667237 59 58 63
0.4698999932560007 3.7876578738700237 2.1047723335059842 59 58 63
0.4690662940312942 3.799955374679369 2.1026004459365417 55 54 59
0.47015167324238527 3.8120868167614703 2.1007078645594284 53 52 57
0.4797516271446629 3.823544936871718 2.1000438679000886 50 49 54
0.4926974987346778 3.8347673870744425 2.09985780936855 47 46 51
0.5090716335385106 3.8457641190203558 2.100158809364902 45 44 49
0.5006152955223986 3.8586283864653326 2.09689307822766 43 42 47
0.5630380949838928 3.8663605031108337 2.1037753208493806 41 40 45
0.5171784061352344 3.8818929555559243 2.095161165336068 43 42 47
0.5588804236580365 3.891255167411392 2.0990549876868045 47 46 50
0.6015740291595022 3.9006746812069997 2.10306912477168 46 46 48
0.628155243255883 3.911275846503014 2.104773887568907 46 46 48
0.6525616956411944 3.922090992952726 2.1061578044783045 48 48 50
0.6771022354633136 3.9329658305331527 2.107549278673461 51 50 54
1.0328709961302507 3.923814288393795 2.1556999824590246 51 50 55
1.0892163477948749 3.9334760720200546 2.161462246901404 52 51 56
1.0930422818248007 3.946325686988834 2.1598082968218377 50 49 54
1.0972388388112628 3.959156202615649 2.158206112300018 49 48 53
1.136781823475936 3.9700706537880053 2.1615566847657366 53 52 57
1.1194285057956033 3.9840985883129707 2.156930017919855 54 53 58
1.0576719808244226 4.00032991819797 2.1461157072176626 57 56 61
1.1042171358637607 4.010991775768248 2.150426128441564 64 63 68
1.114161279911869 4.023545166386436 2.1496235215769843 64 63 68
0.9195413039292992 4.045599219018011 2.1204237179988477 68 67 72
0.9214217107583502 4.05823120664364 2.1185513515370453 71 69 72
0.9383961765549897 4.070207255505491 2.118766751788793 71 69 72
0.9305587105114315 4.083258665219128 2.115550721086695 67 65 69
0.9478592734983889 4.095269327357525 2.1158030435948487 50 47 53
0.9581216762535103 4.107594874217595 2.1150803536230747 36 33 40
0.9703505166777585 4.119870116738673 2.1146237598499655 68 66 70
1.082871549862636 4.128636439024447 2.127896815016376 98 96 96
1.1829430539953192 4.138166742234998 2.1394104895162163 94 93 91
1.283762186149679 4.1479779147304825 2.1509750143645325 157 156 154
1.3960573439983048 4.157745432911646 2.164050543754886 206 205 203
1.5113064022787985 4.167769966426338 2.177470008293985 209 208 206
1.4613048847975665 4.182673768731785 2.1684185995893808 209 208 206
1.5397921702911712 4.194090870543172 2.176787662658374 209 208 206
1.260619690062629 2.2857110282785906 2.474973154572998 206 206 206
1.2926425906022114 2.2923098526433723 2.478112170213012 206 206 206
1.2606670065786618 2.315098235404477 2.470037863289488 205 205 205
1.2442087143094545 2.3338879189059627 2.4646947065775158 205 205 205
1.2261178285438596 2.353012093000357 2.459078699964697 143 142 143
1.2197998531364798 2.3691626037556186 2.455524694790962 101 100 103
1.2134954657374055 2.3852752705322895 2.451978856010637 90 90 95
1.2072074407308837 2.401349535435416 2.44844164552679 84 84 87
1.209380022162504 2.4153513704461584 2.4463754313623713 81 79 82
1.2014250960554194 2.431770429429882 2.4425590866522793 77 75 78
1.272146239401182 2.4294716603292112 2.4523285485148114 71 71 73
1.327234075081413 2.431091360326095 2.4593649587776087 66 67 69
1.3492295671161727 2.4406314367801967 2.460679007202293 61 60 65
1.4492620043539746 2.432117542974084 2.4753824363217882 53 52 58
1.430833256009477 2.451236702928462 2.4697224469973134 48 47 55
1.4266642240625438 2.4670180811397024 2.466515623538755 47 47 54
1.4164840834064618 2.484136721841653 2.462286411593403 46 47 52
1.2869370070828434 2.5280919141908194 2.4377075457861053 45 46 50
1.2946098296308766 2.540918023775416 2.436568777777988 43 44 50
1.2350327571326156 2.5686717146549927 2.4239975130720315 45 45 52
1.1953049528697284 2.591839513873019 2.414830881396112 48 48 56
1.1930059920015355 2.606687053857535 2.412029197685189 52 53 59
1.1378048996063697 2.6329716562709 2.4002855480982466 58 58 63
1.1273371928060367 2.6494428304298205 2.396127057290715 64 64 66
1.1206520692744526 2.6650597627534993 2.3926140640169558 68 68 70
1.1242484684701983 2.6784682110219324 2.390836534827537 68 68 70
1.1314154932567986 2.691128440787261 2.3896585535037707 68 68 71
1.0830914917863272 2.7153410518005066 2.3791757338605803 68 68 72
1.012918862516729 2.743881586763725 2.3650663947470605 67 67 71
0.7142532707115519 2.818900299355467 2.312826312389616 68 68 72
0.6372054500355311 2.8479375867831145 2.2977212776801514 67 67 69
0.5495821170492978 2.8788259918028714 2.28090186638012 63 63 67
0.5342710763404107 2.8949857813027586 2.2761531475973893 58 59 64
0.4818174750802691 2.91842385349351 2.2652526756354385 55 56 61
0.442878295484066 2.9390233456543258 2.256622545053408 52 53 57
0.43647187818983235 2.95315958991451 2.253395512326658 48 49 53
0.4836024692103872 2.956955335735215 2.2590102862981105 43 44 48
0.47976779964734984 2.9706268148724204 2.256202611745108 42 43 47
0.46895605110567595 2.985593923484154 2.2522513895177902 49 50 53
0.45911894348119653 3.0003307118934437 2.2484682068073885 57 58 61
0.4490161257497554 3.015072574473151 2.244648917814623 60 60 63
0.4386365981215418 3.0298202355962025 2.240791941338299 63 62 66
0.42350377397466205 3.0453885190198036 2.23616633136965 65 64 68
0.4088589550738676 3.06080657215291 2.231630729197254 65 64 68
0.39392216702567545 3.076216515017679 2.227057753841715 57 56 61
0.37128374555543736 3.0929301772723967 2.221243740329234 44 43 46
0.3629646957557672 3.107042947526466 2.2177668966641275 30 30 32
0.3656997681082811 3.11919526996977 2.216086313351921 26 26 28
0.35374774091484407 3.1338748010731647 2.2120321620911194 18 19 21
0.5747540457528015 3.1087913225593713 2.245572015521552 18 19 21
0.6518065149796146 3.108739975387004 2.255803572510607 18 19 21
0.7570886951740116 3.104220641452809 2.2705318101409615 17 18 20
0.8303231035885676 3.105346200651853 2.280058905368614 19 20 22
0.8483712268216347 3.115742772575036 2.2807052144110216 23 24 26
0.879966995495069 3.1239936201318743 2.283509766516022 30 30 33
0.8847481080434343 3.1366396546834654 2.2820176216850863 38 37 42
0.9335897023980331 3.1422988524882167 2.287546056288629 44 43 48
0.976331550476575 3.1490684999461025 2.2920784818603366 47 46 51
0.9628253450367723 3.1647073108656345 2.2876568237791495 51 50 55
1.0508154685249649 3.164694121897137 2.2993331156739636 48 47 52
1.1192953299660662 3.167929455671543 2.307874635719878 42 41 46
1.0906967749546754 3.185974357206565 2.30104600966743 41 40 45
1.0494880262070838 3.2057866592239317 2.292247133370656 42 41 46
1.01706159373559 3.2241592861092445 2.28485553610542 45 44 49
0.9584830904371457 3.2596451022684145 2.2711165705534686 46 45 50
0.9867518740167579 3.269053371042906 2.2732850907830455 45 44 49
0.9911248822531161 3.2818973202893957 2.2717055206869206 41 40 45
1.0119238989058021 3.2924673195608336 2.2726876415703163 36 35 39
1.040707637055944 3.3020015290388707 2.2749033059055384 27 27 27
1.0831736103570915 3.3097686351778974 2.2792314034250203 21 21 21
1.0003635960790467 3.334410301687159 2.2641010108234285 17 17 19
0.9527868252661118 3.3541152860201087 2.254475304192636 15 15 17
1.0177204776503377 3.358985779116766 2.2622713734100763 15 15 17
1.0605297982864885 3.366907439360233 2.2666190356249083 15 14 17
0.6871792313114863 3.453545530996311 2.202516295229595 13 14 16
0.5993957419108848 3.4771051173048035 2.1869080035333686 12 13 15
0.6603095777035828 3.482454929993859 2.1940901449077552 12 13 15
0.7236692543416666 3.487704280033786 2.2016136809559703 17 18 20
0.7712830471644816 3.4949962475843197 2.206704660856912 16 16 18
0.47008490823179916 3.542725832401467 2.1587173423452137 14 14 16
0.5330936627072465 3.5479836534687803 2.1661928954223755 15 15 17
0.4800197750101946 3.5664657883296575 2.1560434864989966 15 15 17
0.5111120689857426 3.575455758196658 2.1586569540012315 15 15 17
0.529763521255056 3.5858928237459144 2.1593765004621943 16 16 18
0.5798523470491437 3.59300702827435 2.1648257464444836 18 18 20
0.6247142514352191 3.600827185762359 2.169462802915116 24 24 26
0.6227037923433528 3.6136604788108593 2.167038099296303 29 29 31
0.6430116558511603 3.62419118764738 2.167961663356651 34 34 36
0.6079342303678221 3.6403595945336757 2.160588993913149 36 36 38
0.48838606659111733 3.6647786415858072 2.1406218080999753 36 36 38
0.5415444354101415 3.6719552752424858 2.1464678074700694 36 36 38
0.5771357249837978 3.6809793954489383 2.1496724359125277 37 36 41
0.5664775244703066 3.6944689661333525 2.1459900391816835 40 39 44
0.5294023349607953 3.7103610713859223 2.1383987779032623 44 43 48
0.46317471087277295 3.728776096491547 2.1265154840801443 50 50 53
0.46662501280550617 3.7407370329498075 2.124961975996913 58 58 60
0.4578686541710937 3.7537706066685734 2.121608583400486 63 63 65
0.47568996701423927 3.7644759080123196 2.122172886405503 66 66 68
0.4880560160400104 3.775690080552843 2.1219278446468515 65 65 67
0.5010934438413717 3.786878561779252 2.1217761980396177 65 65 67
0.50144903793255 3.7991302980366166 2.1197632010632677 64 64 67
0.505118907758604 3.811109040901882 2.1182358298975106 64 64 66
0.5200053400769286 3.8222138136520796 2.1183435755325037 63 63 65
0.5234956452747066 3.8342280347319555 2.1167864148666236 63 63 66
0.5548787753710781 3.8441554392313466 2.119280835853848 63 63 65
0.5755520504758619 3.854958341195208 2.1202071105391136 62 62 64
0.5992945070836201 3.8655978004745464 2.121568071838994 55 55 58
0.6282238948097244 3.875940216037618 2.12366715732443 51 51 53
0.5868966483237162 3.891173268199526 2.1156225773830366 50 50 52
0.6261465535757056 3.900878817428987 2.1191980271719935 49 49 51
0.6415515203192326 3.912255455660286 2.119328854071084 48 48 50
0.6613076019513942 3.923394525881608 2.1200769123219434 51 51 53
0.7044466650071839 3.933136395686937 2.124162247995898 50 49 54
1.0876825218718162 3.922454949737631 2.1768041228978916 48 47 52
1.1054273108444121 3.934489458981938 2.1771347618227703 48 47 52
1.1257355850875574 3.946423281803801 2.1778224415031664 50 49 54
1.1217962182829828 3.9597603925956517 2.1750571015522726 52 51 56
1.1125782304706457 3.9733596168496947 2.171547346129019 52 51 56
1.0980157099482677 3.987199230155419 2.1672880834509574 53 52 57
1.0645150613030314 4.001945201788296 2.1603638004142662 53 52 57
1.1587442446367853 4.010280290788178 2.1714640642521825 52 51 56
1.15705397363886 4.023478241086712 2.1690205230492943 53 52 57
0.9317474420409432 4.046968874567542 2.1351779806524367 60 59 63
0.9094709372359595 4.0606967392431566 2.1299140574206072 64 64 66
0.930056313484908 4.072503674728512 2.130659838141856 64 64 66
0.9512461863792007 4.084340541781827 2.1314807872436394 60 59 63
0.946388486174192 4.097269970176384 2.1286621608934704 37 35 41
0.9524736273608696 4.109755918197987 2.1273699469820824 29 26 32
0.9992376595232527 4.120761746851221 2.131723685376731 73 71 75
1.0811267972708083 4.130674540125468 2.140921438956668 93 91 92
1.16661779201714 4.1407147598665475 2.150575641041004 92 91 89
1.271603493286794 4.150392528682181 2.16287724735747 151 150 148
1.3766324623328416 4.160389007110738 2.1751310020029013 206 205 203
1.484243194039638 4.170631084221385 2.1876859932154935 209 208 206
1.5311689089220288 4.182848720700963 2.1918574128097927 209 208 206
1.5180185345210797 4.196740066946871 2.1877768072816792 209 208 206
1.2725577663687586 2.2845719908404187 2.4914480394123433 206 206 206
1.285608159069794 2.295998948939928 2.4912746561692054 206 206 206
1.2614195288011736 2.3168128361951434 2.484516815115389 205 205 205
1.2382133774034507 2.337284195927932 2.4779486854510115 201 201 201
1.2223290580928112 2.3558482751058634 2.472685566065293 118 118 119
1.2160166497072504 2.371990369875205 2.4691164602534696 95 95 98
1.2097205761208039 2.388093974234058 2.4655560372211967 87 88 93
1.2034381227428428 2.4041598759220113 2.462003799543034 82 82 85
1.2027983886893545 2.418833466378362 2.4594442174540196 80 78 81
1.2424291715808435 2.42387117504813 2.4639182578485634 76 74 77
1.289097376736503 2.427365850654567 2.4695977017082664 70 71 73
1.325458505910337 2.4334375339492382 2.473458249495215 64 65 67
1.3358888490780536 2.4456831902510405 2.47279492081155 59 60 64
1.446424308092223 2.4347338905014926 2.4894880913780795 49 50 55
1.4239837638293376 2.454768467503717 2.48309643183802 48 48 55
1.4202091212528125 2.4704479157114463 2.4799461962979357 47 48 54
1.4119304558379646 2.4871229217715816 2.4760231413480263 46 47 51
1.3092045652505846 2.5250068703010395 2.4558383660282037 45 46 50
1.3078274688200149 2.5398948566473836 2.4531435973468665 44 45 50
1.253185510680213 2.5665654919964567 2.4413078798300534 45 45 53
1.2391118875204092 2.5841178207010493 2.436458536304385 47 47 55
1.2289772923511406 2.600750291144051 2.4322933595756995 51 52 58
1.2030660562104347 2.6207487181016775 2.4254416035588924 57 58 63
1.1667715384984665 2.64287395573589 2.416836608905969 65 64 69
0.9405474530317209 2.7052960799128214 2.3759266890761013 69 68 73
0.9834314168885454 2.7100996963648925 2.38087716645801 71 70 75
1.1543562200255266 2.6882218263995203 2.407524281938722 71 70 75
1.164416143486668 2.700335965313804 2.406833368706998 71 70 75
1.2263526053684304 2.7017858982713574 2.4149083763850734 70 69 74
1.2623581241061013 2.708734021852738 2.418573408856881 69 68 73
0.8013036740853694 2.816483862988246 2.3384793050769415 69 69 71
0.7015756417094896 2.8500656165781693 2.3194224658580214 67 67 71
0.5680413563034485 2.890026545108611 2.2947493083245174 63 64 69
0.47659249517119867 2.9212100702961314 2.27720883442844 59 60 64
0.4807479086591373 2.933357972317498 2.275719123326553 58 59 61
0.42461235542423825 2.9572063753390005 2.2641585506453548 56 57 59
0.47068951496049233 2.9611962421198155 2.2696751254417546 51 52 54
0.4659436197316206 2.9750193525103206 2.266707367832595 47 48 52
0.4677538250622055 2.987577052062543 2.264833560415354 43 44 48
0.46204177828532245 3.001538206268247 2.2617127560908354 43 43 49
0.45174963076002567 3.016318680400182 2.2578386233352665 50 49 55
0.44125632312197743 3.0310903512323515 2.2539389543793127 60 58 62
0.4322727491244856 3.045540716026189 2.250296241291234 65 63 65
0.4163986371469577 3.0611928581188312 2.2455253829227706 65 63 69
0.40185998018086905 3.076541821167444 2.2409850151307187 65 63 68
0.3866349985577114 3.091952331727075 2.236342083188116 61 59 62
0.37117879939330367 3.107341194824182 2.2316717429179476 47 45 48
0.3592570524683236 3.1220535374359137 2.2275902044691223 31 30 32
0.34814553890240496 3.1365757237510308 2.2236495545214585 19 20 22
0.3531233315130558 3.148310882451822 2.222339886748761 17 18 20
0.6111877398390801 3.117395159942522 2.262215363869799 17 18 20
0.6658427457906635 3.12128049819471 2.268901754209743 17 18 20
0.7231171220312875 3.1249065194047083 2.275983699123299 18 19 21
0.7669751756254091 3.1309079616719724 2.2808630906141802 20 21 23
0.8166601226497778 3.1361031307740324 2.2866610829352183 27 28 30
0.8285350347771915 3.1475088325075786 2.286333390047369 35 35 37
0.8799662042628381 3.1526756190696092 2.292370723309576 41 41 43
0.9688137094414995 3.152138050417843 2.3043955286566313 43 43 45
0.9400028147842782 3.170135685547492 2.297491574897787 44 43 47
1.068834892699082 3.1638397293634615 2.315857931990652 41 40 45
1.1801959891924705 3.160615030140012 2.331359802445028 39 38 43
1.1260407699555146 3.1825913936951697 2.320380817951003 39 38 43
1.0743481737076435 3.2040098236034638 2.309826673740506 39 38 43
1.0590504318799103 3.219903846893004 2.305092458650691 42 41 46
0.9701251615360575 3.2598694092430835 2.2864104962166087 42 41 46
0.978377004114154 3.2721416726830053 2.2854500613834636 41 40 45
0.9767562572304924 3.285813130504808 2.2829276456009215 38 37 42
1.0071963902437717 3.2950305916838794 2.2854625623170866 32 32 36
1.3685537104102274 3.2590862484101004 2.340060276808 24 24 24
1.3698518256494063 3.272969649009399 2.337894199701771 17 17 18
1.370209777067162 3.286971180422868 2.3355819235095825 15 15 17
1.0023060649263686 3.3494885382655344 2.2756252453678747 15 15 17
1.0748986393306066 3.353460645952556 2.2847064199824465 15 15 17
1.1445397252137801 3.3580410266672995 2.293288602735487 15 14 17
0.7599844724296495 3.472308304148235 2.2223713316716833 12 13 15
0.7603473074471326 3.485206630652947 2.2202456880687573 15 16 18
0.7708984623944141 3.496904300439653 2.219690965813553 16 16 18
0.8080979587557934 3.5055541397253154 2.223229503200506 14 14 16
0.7148440357211467 3.5291392370718255 2.2067275010779994 14 14 16
0.5338305926083972 3.562235940309511 2.176834004427599 14 14 16
0.5933883965139826 3.5681810582952798 2.1838317142991768 15 15 17
0.5848401106046719 3.5817150947500878 2.180401943262702 15 15 17
0.6526441317198914 3.5870352242019665 2.188612661908899 16 16 18
0.7499659996500272 3.589454404732024 2.2012773170937106 20 20 22
0.7116836812420841 3.606257969365687 2.193302436471804 28 28 30
0.7581925209735803 3.614262497107093 2.1982002099865126 31 31 33
0.44252851651763614 3.6588223197882668 2.148287732809828 35 35 37
0.3441602159282515 3.6808491238855847 2.1313614515083312 36 36 38
0.2515688531946892 3.7019834115079 2.1153615996663313 36 36 38
0.26116378488827185 3.7130315804630674 2.114787927369713 36 35 40
0.6074285980854188 3.6924438514058275 2.1647695899547257 38 37 42
0.5357522044091951 3.711591785260242 2.151913937039783 38 37 42
0.5255703682855554 3.7249141225916156 2.1483004320376393 41 40 45
0.49694334753554276 3.739837873058121 2.1419393674313176 43 42 46
0.504305701117245 3.751508224124112 2.1409609240517 47 47 49
0.5051509786094176 3.7637523115800775 2.1390103737603505 51 51 53
0.5219445456231586 3.774644607765805 2.139429914020947 58 58 60
0.5156520719457796 3.787490036583465 2.136419232837803 62 62 64
0.49507639384940605 3.801463014124337 2.131299921287619 65 65 67
0.5170300113016744 3.8119803499243257 2.1324757805765295 66 66 68
0.5515771516541093 3.8215781973984604 2.135498234167766 68 68 70
0.5508371057736163 3.8339673603113282 2.1333102833222393 70 70 72
0.5954422148746182 3.842960408989771 2.137785700390961 70 70 72
0.6099320614457012 3.8542857297525988 2.1378228014725633 66 66 68
0.6759650589020711 3.861967169025312 2.145397566478484 64 64 66
0.6962653007469803 3.873042711926751 2.146257239187228 60 60 62
0.775538591153115 3.880151726038214 2.1557069666190665 59 59 61
0.6439500643396547 3.9015459241988895 2.1344251187586614 59 59 61
0.6460265177784654 3.9138217022010093 2.132634600252782 59 59 61
0.648102101263319 3.926094106257042 2.1308445336675916 56 56 58
0.6501772934528264 3.9383631067927136 2.129054988283103 56 55 59
0.6522516160769233 3.950628734889199 2.1272658946174627 54 53 58
0.691327629562845 3.9607230104153524 2.130812988836384 54 53 58
0.7537593828464465 3.96960083138058 2.13770234297315 53 52 57
0.89298390178759 3.974413407528154 2.1555919749253687 52 51 56
1.1416479255562497 3.9737709850453364 2.189101345616547 53 52 57
1.065603535288414 3.9908643656412153 2.176005327736956 53 52 57
1.1919551547121698 3.9974592312341786 2.191865389227973 54 53 58
1.1597623127963317 4.012219293959127 2.185052950291788 54 53 58
1.1689191290413408 4.024904577583267 2.1841444470979376 53 52 57
0.9384033186385506 4.048599404991596 2.1491866428721726 57 56 61
0.8985026616614012 4.0631134755053075 2.1413803430805802 59 60 62
0.9198144614559972 4.074877729930814 2.1422597884237033 59 60 62
0.9568645206305947 4.086052293170872 2.1453526389516715 57 58 61
0.9589408552837362 4.0987161178285305 2.143496688172332 37 35 41
0.9588270104324523 4.111459325054538 2.141333165705075 28 25 32
1.012823961343987 4.122224201503261 2.146771422577179 61 59 63
1.0738088280041236 4.132906142745832 2.1531622920086138 92 90 91
1.1511650431329339 4.143226388510226 2.1618131693049416 89 88 86
1.2559041269324962 4.152913753586721 2.1742488608970616 152 151 149
1.3425059686510339 4.1634656057017265 2.184102586258267 205 204 202
1.4262050259095058 4.17436199009536 2.1935083228056804 209 208 206
1.5205024408155987 4.185225514189558 2.204343192472308 209 208 206
1.5081057852537492 4.1990786007427685 2.200342715387428 209 208 206
1.2616923552224228 2.289241573929079 2.5038862991207145 206 206 206
1.2772277856368164 2.3000254548104073 2.5041761386485257 206 206 206
1.2534687948756766 2.320712337715051 2.4974494764902846 205 205 205
1.2298638091496201 2.341264880074568 2.490766458396715 188 188 188
1.2123527026928778 2.3602142585095716 2.4851829649450545 107 107 107
1.1972360477539397 2.3785015395110407 2.4800369416744528 95 95 97
1.2062125955787033 2.390846325117357 2.479171172025137 87 87 90
1.2012501085807663 2.4065860059915787 2.4758363635947935 81 80 85
1.2543321085782695 2.408340013479784 2.4827574878078975 77 76 80
1.2666247547846265 2.4200031448945585 2.4824578097849037 74 73 74
1.2844049206071395 2.43039658205437 2.4831188522047523 69 70 69
1.3191037352401396 2.436860405061288 2.486744440698946 63 64 67
1.3277672315172466 2.4495108878477176 2.4857844415864823 57 58 63
1.2721977913322198 2.4770628812692 2.473572287014246 49 49 56
1.4171430673963454 2.458295560951382 2.49645223095195 48 48 56
1.4169346893255699 2.473149332016567 2.4939135602738545 48 48 55
1.408422305878899 2.4898707211506976 2.489930160551563 46 47 51
1.3242686067603477 2.523551636805631 2.4727955968651587 45 46 51
1.3898771832233867 2.5235264923813285 2.4817206418644426 45 46 51
1.3507908573684884 2.546885261968622 2.4724583646879688 45 45 54
0.9558447954008784 2.648232000032932 2.401629623189825 47 47 57
0.9486880787046805 2.663724558963716 2.398038229879325 50 50 59
0.959059567763549 2.675392583305577 2.3974765052749305 57 57 64
0.962496537092263 2.688571346638251 2.3957165743051507 65 65 70
0.9676656827263537 2.7013818725410754 2.394254400648439 71 70 75
0.9946932352941283 2.709587762280524 2.396542512781231 75 73 77
1.14406274749784 2.692279338651294 2.419777461457264 75 74 78
1.1348565789502651 2.7083766529998563 2.415805198550987 75 74 79
1.0499580061118645 2.7400059351794313 2.3989160874072786 72 71 76
1.0198321453094876 2.7601548972964762 2.3914146326166854 70 69 74
0.9596395825055215 2.786272381616822 2.3788163091347947 70 69 73
0.800977394820836 2.831927219062146 2.349527195992612 70 69 74
0.6471362871662742 2.876067755979339 2.3211495268165327 67 67 72
0.4965429495242578 2.9190297097639846 2.293412641331978 64 65 69
0.45472880128341553 2.9402001445168744 2.2841492982394844 62 63 67
0.45746807628189895 2.9525831657742656 2.2824289849002133 60 61 65
0.49043566069496336 2.95915868044146 2.285800301822798 56 57 61
0.448006304082116 2.9801889183652235 2.2764770026107026 55 56 60
0.44678290000077747 2.9932896528525466 2.274096587994162 53 54 58
0.4487275305567253 3.0057831487324225 2.2722495562973184 50 50 55
0.4571754557223354 3.0170677231387057 2.2714910891229034 46 45 49
0.44647110906513693 3.031885781730484 2.267531317546396 47 46 48
0.4360890718671162 3.0465980967115915 2.2636332414017555 55 55 57
0.4206119077551109 3.0621823673566677 2.258895017600581 62 62 65
