ply
format ascii 1.0
element vertex 732
property float x
property float y
property float z
property uchar diffuse_red
property uchar diffuse_green
property uchar diffuse_blue
end_header
0.8001766327628346 1.6173627199348 1.1860798080947845 16 16 18
0.7986690368538067 1.6393226512633432 1.1867531816520476 16 16 18
0.7780285791000803 1.6261384925802473 1.1881786885062524 19 19 21
0.7658960573384248 1.6285491944663995 1.1892689224135953 21 21 23
0.7675659067939233 1.656574360609111 1.189823068125478 19 19 21
0.7610152913527195 1.6694407355125858 1.1906989020532452 18 18 20
0.7354846591024344 1.6468226123265108 1.1923054352590907 18 18 20
0.705232007229248 1.6151027910696956 1.1940869653730941 17 17 19
0.6894016740810888 1.6860909166899856 1.19719424917005 14 14 16
0.6969254162278902 1.7260871280968921 1.1975485279666094 11 11 13
0.6792345910832664 1.7178168985454112 1.1988455634199946 11 10 12
0.6373815471683084 1.688376099994955 1.2016688656884122 12 12 14
0.6257547167053057 1.6915243133455318 1.202734468095504 13 14 17
0.6061021509710539 1.6789512620861249 1.204091252972369 31 30 32
0.5729159388630785 1.691355128123842 1.2072176592013408 46 45 46
0.5561480958992489 1.7102428383088768 1.2091107327472495 51 51 52
0.5572664617593086 1.7387736243625258 1.2097242700733073 49 49 50
0.5490775445691698 1.7487600115794206 1.2106677187932646 33 32 34
0.5444200363102187 1.7659149257554658 1.2114892773856285 26 25 28
0.542309631441833 1.7883295354384965 1.2122251363702945 20 19 22
0.5338871479991204 1.7980206511970753 1.2131810883787286 13 13 15
0.5321825709829973 1.8214845332241993 1.2139085389543323 17 17 19
0.5294638595113773 1.8430098955844998 1.2146739760452603 27 27 29
0.5319147202558963 1.9027855060655283 1.2159502642911078 52 52 53
0.7989088517657759 3.8269903760719286 1.2410599952591643 161 159 158
1.0960424430364628 1.7966728963230105 1.1777848290459854 123 121 122
1.0477323727139853 1.7373685082623822 1.180290920278672 65 63 66
1.0123149749261655 1.7000815380414467 1.182290713532711 53 51 55
0.9777640691103306 1.6639833955513397 1.184248842485653 41 40 45
0.9440412554013735 1.6533106803641284 1.1868047724594413 31 31 33
0.9205732398798536 1.6361297006624185 1.1883274218093134 27 27 29
0.9223895065368519 1.6637731432634482 1.1889003422251467 25 25 27
0.9445007809669289 1.7278432061530367 1.188722682325066 21 21 23
0.9293871610546058 1.725594773228589 1.1899347190762024 17 17 19
0.905326540183976 1.7071733842602344 1.1914746447025157 15 15 17
0.8804745147342862 1.6871324396680702 1.1930386127012698 15 15 17
0.809879003118283 1.6083908842810097 1.196908671133394 17 17 19
0.7955401431982638 1.606814471645748 1.1980731915418996 17 17 19
0.7839067726637106 1.6101456941435424 1.1991390099088446 17 17 19
0.772768723800082 1.6143692885143295 1.2001865972463328 18 18 20
0.7624578413955183 1.620109669457057 1.2012044368311916 19 19 21
0.750493090801261 1.6227768986313393 1.202280693857542 18 18 20
0.7392467761421825 1.6267579529753156 1.2033310194570377 18 18 20
0.6825256154631465 1.6963601256721492 1.209928417119491 12 12 14
0.6370864005379282 1.685683749474887 1.2134696042165822 11 11 13
0.6290154285886218 1.695752033492024 1.2144126785344205 13 13 15
0.6111589207387464 1.6867187902068839 1.2156772847607433 28 26 27
0.590915923779921 1.6728794283746469 1.2170164299152484 47 45 46
0.582811957646806 1.6828091463105888 1.2179586415515162 54 52 53
0.5741262412643242 1.6916200209905492 1.2189204077806235 52 51 51
0.5662166589480655 1.701996785930558 1.2198580071210168 52 52 52
0.5604481860846422 1.7166820509308616 1.2207286410422171 56 56 56
0.557699457848337 1.7374887114939515 1.2215060064221681 41 41 41
0.5498954143896653 1.7482474594430826 1.2224447573598698 30 28 31
0.5465122782956262 1.7679753617441307 1.2232471581276627 28 26 29
0.5402178417809551 1.7819117785439607 1.2241423677243164 18 16 19
0.5329830273885672 1.7939987393012666 1.2250681132727639 18 16 19
0.5284242472798204 1.8116084161597197 1.2259137804769498 24 24 26
0.5244599322276675 1.83053492757076 1.2267440212457135 35 35 37
0.5203353118962913 1.8492381394809105 1.2275818818980953 45 45 47
0.5343509544773656 1.9056048481265024 1.227882846281872 55 55 56
0.5486051840280568 1.9628866956170044 1.228187768766361 54 54 54
1.0569144386896512 1.7512472868223625 1.1921677580128258 76 74 77
1.0060463120552037 1.687058776831252 1.194627737867775 57 55 59
0.9814326380835213 1.668342905978567 1.196159576777419 45 44 49
0.9497006204286564 1.6856931938888207 1.1992821054786635 30 30 32
0.9260599616879466 1.6682290327991236 1.2007675507048423 26 26 28
0.9405125641811473 1.7186227235867588 1.2009583619173358 23 23 25
0.9226504838730746 1.7114182203031123 1.2022464740481802 19 19 21
0.8971241399331887 1.6903166416130755 1.2037883048453741 17 17 19
0.8121287837868894 1.6104213332445023 1.208655616942459 17 17 19
0.8140586452083451 1.6385973634835225 1.209274511270723 17 17 19
0.8069781034776844 1.6504120700271778 1.2101910399212619 18 18 20
0.7929589532730177 1.6494902295691543 1.2113329694125206 18 18 20
0.7760125246726808 1.6431008651633963 1.2125673852953127 21 21 23
0.7658330651631957 1.6491782400665937 1.2135832281921466 20 20 22
0.7389578364898787 1.624137627154405 1.2151283974128027 19 19 21
0.6981544830715869 1.724189489676925 1.2212946049788014 18 18 20
0.6695791334653893 1.6949915073975905 1.2228663204826682 12 12 14
0.6383775484956664 1.686068479342476 1.2252177216001674 10 10 12
0.6273166699006538 1.6903204287338125 1.2262564564335035 10 10 12
0.616397063018602 1.694834964207151 1.2272906924459699 17 15 16
0.5967499102599814 1.682208942185138 1.2285774474067803 29 27 28
0.584898519791198 1.6847950851723503 1.2296359204355445 54 52 53
0.5748930036302788 1.6910064069295108 1.2306409844840596 58 56 57
0.566241893501118 1.6999107704339642 1.2316077749722076 52 52 52
0.5620708859597561 1.7177757337323811 1.232449418497453 47 47 47
0.5569872963593223 1.7339103710099582 1.2333191803430958 25 25 25
0.5531005971666323 1.7525353014293341 1.2341581757932674 19 17 20
0.5461304570218786 1.7650380073498084 1.235084547069809 23 21 24
0.5389895477241948 1.7772482556578846 1.236017047032821 22 20 23
0.5361360919122558 1.7982384812523189 1.2368354451228374 24 23 26
0.529869203555654 1.8123747865998532 1.2377484535979637 33 33 35
0.5303683398783872 1.8404669450627822 1.238484170008553 44 44 46
0.5466306491112167 1.9012328209012632 1.2388112669266484 51 51 53
0.5437325588330564 1.9227965320884661 1.2396492496912386 56 56 56
0.760705435740856 3.279830605325318 1.2591287335201247 62 64 63
0.7374617885597543 3.261123248185072 1.2605467198791822 63 63 65
0.8032159331824205 3.831571259992968 1.2708548057470934 153 151 149
1.072542491005988 1.7763231265246724 1.203895910688028 91 89 92
1.025772489553332 1.7194088725624785 1.2060965362586877 67 66 70
0.9937070777168964 1.687774538935196 1.2078201174484802 49 48 53
0.9592234715564548 1.7004862885247432 1.2110329795949024 35 35 37
0.9693310517050536 1.7431188445789858 1.2114396907849283 31 31 33
0.9370268048377601 1.7103046004525515 1.213148643163178 27 27 29
0.9144333908042317 1.6945966254229088 1.2145545286478598 24 24 26
0.8942787803968586 1.683108937953409 1.2158820955900755 21 21 23
0.875991059796218 1.6748578611606957 1.2171498848304094 18 18 20
0.8108025841889885 1.6059405662427264 1.2205199457642715 18 18 20
0.7964705651338376 1.6043810496405064 1.2216562334031564 18 18 20
0.7758624390356061 1.5912501145602402 1.222973394378146 18 18 20
0.7643338261102297 1.5946909605744717 1.2240239928710732 20 20 22
0.7669629485692812 1.6242865567124773 1.2246680805319716 26 26 28
0.7691020660838896 1.6531579660997813 1.2253315036427113 26 26 28
0.7650981013407181 1.670762950357444 1.2261737038451364 25 25 27
0.7345684452179142 1.6388406891443774 1.2277622896690643 24 24 26
0.7263024859550515 1.7501596442599563 1.231681764426354 22 22 24
0.6922373237542726 1.7107292737390551 1.2333434563182113 23 23 25
0.6627174038644239 1.6796773568777 1.2348741070860696 12 12 14
0.6388409688914445 1.6848476319800267 1.236993066025404 10 10 12
0.6268870078295012 1.6873616801487004 1.2380517757312446 11 11 13
0.6159862967720753 1.6919063607056724 1.2390827123223316 14 12 16
0.6025098101845343 1.6913861657152847 1.2401786938152628 14 12 16
0.5894872549448831 1.6917080360714136 1.241261742825549 21 19 23
0.5730848825073257 1.6852995771138444 1.242427685102713 35 33 35
0.5662178486831024 1.6977275088607686 1.243355354134991 41 41 41
0.5618470125286847 1.7151858569462766 1.2442235369962982 33 32 33
0.5577967801837799 1.7333801662465242 1.2450866937189355 29 29 29
0.5542849408260565 1.752757018172374 1.2459398577897254 28 26 29
0.5489085394177086 1.7684802116868334 1.2468404768760513 27 25 28
0.5408251617547044 1.778797048649677 1.2478070253928992 33 31 34
0.5378165606457375 1.7994776611829588 1.2486566211543255 38 37 40
0.5297268599437946 1.8098961539744804 1.2496266478819156 48 48 50
0.5319175122797655 1.8414464598779294 1.2503637437397608 55 55 57
0.5454436018112896 1.8965649784061653 1.2508517870355882 62 62 64
0.5435735851943084 1.9202361320175096 1.251694495097506 56 56 57
0.8065844669527464 3.8368505698991227 1.2857587336563137 145 143 142
1.0892465680893682 1.8032521445227654 1.215692289848933 90 88 91
1.045857165930682 1.7523627418605952 1.2176813955733705 86 86 88
1.0069462169749326 1.708882255322849 1.2195309760816402 63 63 65
0.9449221737217568 1.6486612396490914 1.222756409012929 40 41 43
0.9542268898621395 1.714161053757113 1.2239950631167582 34 35 37
0.9410617754305468 1.7154151740543493 1.2251078830692133 31 32 34
0.9127903970644166 1.6895646717217276 1.226626857740496 31 31 33
0.893926662161608 1.680389751975497 1.2278866640763013 28 28 30
0.8749508445438527 1.6708949124615768 1.22914585941713 24 24 26
0.8508532074775007 1.651996003078981 1.2305362290449333 22 22 24
0.8355794924176635 1.64896039180031 1.2316902954359659 21 21 23
0.8033955579753265 1.6149645430259383 1.233280140326448 20 20 22
0.7860509426714567 1.6078701709030985 1.234479421920533 19 19 21
0.7731290064425114 1.608816047521017 1.2355629899848692 26 26 28
0.7609556458316126 1.611106357890545 1.2366264708649262 31 32 34
0.7519476022521102 1.6192409765341842 1.2376098776515896 31 33 33
0.748278197541951 1.6373368903978078 1.2384614115264632 32 34 33
0.7343386995125074 1.636323495051425 1.2395682658262765 30 32 31
0.6840222680552714 1.6928770711561336 1.2454004010199202 21 19 20
0.6529834036535225 1.6588506944189754 1.246895851805682 16 15 16
0.6440173107718412 1.6927598728849842 1.248662107571934 13 13 13
0.625767911128126 1.6830627230329618 1.249855839641713 15 15 15
0.619180853829407 1.6960218385588777 1.2507888159036007 16 14 15
0.6026184569936973 1.6894724776142989 1.2519408773091654 15 13 14
0.5875229645578457 1.6857109617167687 1.2530582525385587 20 18 20
0.5768272104110033 1.6905703544067023 1.2540795001914988 23 21 22
0.5631952502872084 1.6895920062859737 1.2551623217972496 21 19 19
0.5611347435096631 1.7116233956164748 1.2560025890721431 25 23 23
0.5587834955535359 1.7332042672040915 1.2568528438072406 33 30 30
0.5532152064578608 1.748447940049871 1.2577723584485567 38 34 33
0.5488031407309693 1.7661008824003843 1.2586709965561398 40 36 36
0.5446215847005293 1.7843169119756497 1.2595679974332248 46 41 44
0.5408843376370757 1.8035376798012006 1.2604593832804138 51 47 51
0.5368866635068299 1.8223356555498071 1.2613591280846237 59 57 58
0.5391102526848904 1.854001179099391 1.2621436159725608 65 63 64
0.5465548670294407 1.8966335164660397 1.262836504936073 67 65 66
0.8100681420332159 3.8424086505515533 1.3006854332055495 136 136 134
1.0602689373229226 1.7754008078610939 1.2295372907145303 89 88 91
1.0211691940130498 1.731697926995573 1.2313011743499849 82 82 84
0.9843598952150434 1.6916403725533709 1.2329963761405596 67 66 68
0.9532233670264224 1.6612374426623466 1.2345414640692978 54 55 57
0.9318757228904438 1.6478894833396973 1.2358401281118268 45 45 47
0.933060843789286 1.699045239679998 1.2373775037109176 36 36 38
0.9068493842172631 1.6768365153908231 1.238786265380836 34 34 36
0.8625523273131732 1.6218899366160904 1.240611117554116 33 33 35
0.8727440758408528 1.6648280816954493 1.2411584545083738 30 30 32
0.841175265029626 1.6323803363657303 1.2426731889550806 29 29 31
0.8239665975006729 1.6257564286514357 1.243852105292977 29 29 31
0.8103465167826359 1.6255878025364654 1.2449471625384083 28 28 30
0.7967524009605054 1.6254189936551444 1.246040116103609 27 27 29
0.7802400100847257 1.6198316700440756 1.2471958690064797 29 30 32
0.7545130873689907 1.5971298549010957 1.2485497405652521 33 34 36
0.7361203947634587 1.587807160628635 1.2497381630138837 35 36 37
0.7331877973832931 1.6071523555051073 1.2505926914985792 35 37 36
0.7298097096892158 1.6257703328618551 1.251459997432798 34 36 35
0.7332895266487758 1.6573586728590093 1.2521872897368234 32 34 33
0.7453350659379898 1.7052883603753046 1.2527442019149782 30 32 31
0.6839220227087222 1.690569200054125 1.2572361928947904 26 25 25
0.6578326793891696 1.6660635566229722 1.2585617598608987 25 25 25
0.6485019117838458 1.6993260666484131 1.260377536366087 23 23 23
0.6318067340154696 1.692688051809315 1.2615145147024176 19 19 19
0.6206291421159792 1.6967236670427843 1.2625464487600297 17 15 16
0.6029811443209618 1.6880573889580983 1.2636956590913009 20 18 19
0.5738558988586611 1.6566787845173638 1.2650470964870288 29 27 28
0.5641584723353316 1.6633989567581586 1.2660451433717481 28 26 28
0.5602170641778612 1.6815492770252627 1.2669430332631721 27 25 30
0.5569624500143342 1.7011678252221467 1.267832305939557 30 29 33
0.55468491613163 1.7228530782473728 1.2687086137356571 35 34 38
0.5551133026906175 1.7501032328115629 1.269543952823774 43 41 40
0.5492887016181487 1.7649144427286947 1.2704873963146261 50 47 48
0.5455104493110159 1.7839431596489863 1.2714001464330347 55 53 54
0.5433354830059869 1.80634011018883 1.272290887906647 62 59 62
0.5545727029055187 1.856262504201823 1.2729767250083595 65 63 64
0.546523245035043 1.8669983734536508 1.273969823114755 66 64 65
0.549580895589652 1.9006439141567795 1.2747968998906183 59 57 58
0.5589713772266269 1.9476127139061319 1.2755376526754287 49 49 49
0.579888415550672 2.0470282259442665 1.2770214533621325 69 69 69
0.756776265007248 3.262342529283798 1.3015281645405434 65 65 67
0.7245916906986062 3.22266299571315 1.3028617778002973 57 57 59
0.812719116111134 3.845912072978762 1.3156384713623304 125 125 123
1.071956812501211 1.7936741803973615 1.2415439065714193 62 60 63
1.0329763035986326 1.7502700830141653 1.2432138758245013 94 95 97
1.0076780041504545 1.7305247163675912 1.244578565969318 79 81 83
0.974591199630739 1.6968471741648952 1.2461015425626503 67 66 68
0.952899337970982 1.6830367257504097 1.247375722624659 57 56 58
0.9334143906662044 1.6729955515766914 1.2485991001255519 50 48 51
0.8938079304358932 1.6514015241318931 1.2510463554682505 41 40 43
0.8719675332622484 1.6367479780338243 1.2523043016993192 38 37 42
0.866870091169295 1.6521470515299004 1.2532254008895645 34 34 38
0.8480301865052057 1.642725052670767 1.2544178407297288 38 37 41
0.8318577325140656 1.6380341506972862 1.2555547202444879 60 60 62
0.8173464311552685 1.636292753080337 1.2566571069076442 37 37 39
0.8026856608799654 1.6342173258369002 1.257760308620795 34 34 36
0.788062001341716 1.6321473953814967 1.2588607259162752 34 34 36
0.7480963112668302 1.583209343818996 1.260424956145073 36 37 39
0.7331730050220404 1.6050491526570791 1.2623465761897341 37 39 38
0.7236719898047539 1.6122170022184645 1.2633453639784193 36 38 37
0.7185840913698347 1.627674151212289 1.2642676364286196 35 37 36
0.729542225581856 1.673429409383238 1.264916979433506 35 37 36
0.7208832366455662 1.7334337706721308 1.2676101988078725 32 33 32
0.6890999551351067 1.6983622347344636 1.2689824532493004 32 30 31
0.664150985751464 1.6760932052020179 1.2702350595038114 29 29 29
0.6435069606008014 1.687529108400794 1.2722672533626969 30 30 30
0.6192996693397067 1.6662462728488785 1.273493431911247 29 29 29
0.6117759309680832 1.6773138412215505 1.2744641304864985 30 28 29
0.6021274373921793 1.6842582774037511 1.2754672625031043 31 29 30
0.5688526635346725 1.6447152052505112 1.2768096920170728 35 33 34
0.563792857335728 1.6605549523938077 1.277742475221717 33 31 33
0.5588602615982676 1.6767278611575915 1.2786761944157805 34 33 35
0.5533969836653021 1.691927239687293 1.2796198904810225 37 37 39
0.5516943434020035 1.7147241591063414 1.2805161833572694 43 43 44
0.5488451472653568 1.735356376601582 1.2814319856544734 50 49 50
0.5486107318505798 1.7613817384182666 1.2823185147231253 59 57 58
0.5456837962798994 1.782120107387304 1.2832440732379256 65 63 64
0.5421645814129172 1.801775850173048 1.2841808968022628 67 65 66
0.562321807681339 1.8698797121856012 1.2848397856845397 62 60 61
0.5541595346335417 1.8804438369204723 1.2858447604144487 55 53 54
0.5551105243706795 1.909804283326681 1.286747698278454 47 45 46
0.561936590700171 1.9515017519676516 1.2875921758847064 50 50 50
0.5710699518130766 1.9982845326719194 1.2884217052628777 57 57 57
0.5824800071940507 2.050151636604581 1.289238700528068 78 78 78
0.7539743297897454 3.253041303416312 1.315633356844872 68 68 70
0.8157112122847918 3.8502513758751613 1.3306095554329591 114 114 112
0.7837681062333457 3.8108954234774135 1.3318517323417098 163 163 161
1.0861365371219327 1.8162780357799753 1.2535776185896426 76 73 76
1.0540390408416647 1.7850224513057706 1.2550313346569313 63 62 64
1.0193832983574616 1.74898885603331 1.2565214165669243 92 93 94
0.9906029757179794 1.7229909820613762 1.2578953796556758 83 81 83
0.9664166509217205 1.7048771403756517 1.2591798386552853 67 65 69
0.9405509758456652 1.6835946335955536 1.2604870519008256 58 56 60
0.9186229890079993 1.6691238679567708 1.2617194264538671 51 49 53
0.8983888125832715 1.657527294516567 1.2629176655442467 49 48 51
0.8936382834502378 1.6736182188549287 1.2638530034696533 46 45 48
0.875063290210444 1.6648490602634185 1.2650182214355545 42 42 45
0.8591010285212045 1.66069670521072 1.2661371574041071 43 42 46
0.8403765570396772 1.6514441784383402 1.267297401961037 47 47 49
0.8252840555880406 1.6487012208662546 1.2683964985138485 38 38 40
0.8105822328493011 1.6466059929725734 1.2694871931201037 38 38 40
0.7964778508219053 1.645546526712837 1.270566611448769 38 39 41
0.7382438735890902 1.5876084043669196 1.273161250643313 41 41 43
0.7263576100252152 1.590291795872194 1.2741952363053837 39 40 41
0.7329173656205661 1.6274095901524155 1.2749664166697923 39 40 41
0.7087023076925248 1.6320874733719728 1.277045462413554 40 41 41
0.6992732688359413 1.741435370190947 1.2815929754283584 38 37 38
0.6155180755705797 1.6567810959998426 1.2852786759367882 37 37 37
0.6098033502426491 1.6713438997441274 1.2862371999342121 39 37 38
0.601163400901461 1.6802447354379733 1.2872304039636724 38 36 37
0.5635799162160071 1.6580136456568015 1.2894320121220813 44 43 42
0.5551504772981769 1.6672422346115114 1.290419949683854 44 44 42
0.5545885334014828 1.7447333055415688 1.2931582587844848 57 55 57
0.5557020825818147 1.7735123801588641 1.2940705823356604 63 61 63
0.5538381888641497 1.8233195261558968 1.295949549166485 58 56 58
0.5639715007057486 1.8710392822446376 1.2968064690743866 50 48 50
0.5605187701804379 1.891262532562953 1.297782749422312 46 44 46
0.5562464061990042 1.9099166104447618 1.298769347768235 46 44 45
0.5640519976269522 1.9536314657395788 1.2996712650102684 49 49 49
0.5741364488200478 2.002387773786989 1.3005680856850141 66 66 66
0.7773740297471032 3.269170591448636 1.328520855031966 45 46 47
0.752052685534062 3.245796615926568 1.3297122827581944 69 70 71
0.8187259867463414 3.854642370806568 1.3456010378024532 102 103 102
0.786981125517014 3.8158198803569476 1.3467637959479044 162 161 160
1.0682085509252783 1.8076955736373366 1.2670876396451585 60 58 59
1.0354695202761157 1.7751315208572347 1.2684733346810513 66 64 65
1.0064928496588639 1.7489022670064682 1.2697935919134147 89 87 88
0.977771780840863 1.7228776384386753 1.2711012356293618 87 87 88
0.9540755714121133 1.7055300191774532 1.2723293168767167 72 72 73
0.8996537290601285 1.682341071547743 1.2757523195380913 50 50 50
0.8819315963224714 1.6751528738105133 1.276880138343777 47 47 48
0.8672678867193033 1.6733989179025075 1.2779650633909483 46 46 48
0.8530850837816701 1.6724585686654432 1.2790417648847598 44 44 46
0.8382404638818495 1.6702567632483565 1.2801246534269088 43 43 45
0.8161244728614695 1.6546740415789292 1.2812928389959157 43 43 45
0.7999764494577335 1.6498954940029797 1.2823845695714924 43 43 45
0.7763443913179058 1.6312192666832175 1.2835595539221574 44 44 46
0.7591101327621661 1.6242049553058695 1.2846554565790658 45 45 47
0.7561753852019302 1.643689194834496 1.2855902875434422 44 44 46
0.7457984979469214 1.6493813597527462 1.2866089123729325 44 44 46
0.7551192976702483 1.6920022332982176 1.2874211007458447 44 44 46
0.7430687373710408 1.6946855065667632 1.2884619288429446 43 43 45
0.6257443432966123 1.6745398315156685 1.2969212585607186 43 43 43
0.6142716475608156 1.6779426134787532 1.2979428651103322 43 41 42
0.5985485441905911 1.6729995330727316 1.2989953648036965 43 42 42
0.5575639176741344 1.7221674658805741 1.303984113645804 53 51 51
0.5557565878575514 1.7449207034683416 1.3049489327238952 53 51 54
0.5613065908076796 1.7826379204397245 1.3058790025007991 53 51 54
0.5584850435581505 1.8305713739659075 1.3078343431784234 46 44 47
0.5689947644072872 1.8790798190098776 1.3087664506027412 45 43 48
0.5667963612022122 1.9019059536904401 1.309764534216928 47 44 51
0.5706627505699955 1.9373464609012416 1.3107440782168287 51 48 53
0.5729895021882575 1.9698504791040359 1.3117379482490947 61 61 61
0.5772312408763831 2.0065461497762884 1.312733512222043 78 78 78
0.5870829394074405 2.0551811961964215 1.3137217334614812 79 79 79
0.5968088929986701 2.1039082993113527 1.314723133292432 81 81 82
0.7749460178567613 3.2607711763889506 1.3426309772605447 46 48 47
0.7495259559390516 3.237146642102354 1.343766945023303 69 71 70
0.7899819652708866 3.8202156939429575 1.3616957608477822 157 156 157
1.0819511087150553 1.8296067754871195 1.2792387763617081 82 80 81
1.0493696783006936 1.7974198425773997 1.2805531180545828 64 62 63
1.0185937878772382 1.7681208738790053 1.2818361482511884 65 63 64
0.9900075946393607 1.74242317141522 1.2830849216808269 80 80 80
0.9664077284893751 1.725333550882888 1.2842710044361227 88 88 88
0.9454481343124508 1.7127709506341307 1.2854227274142074 78 78 78
0.8907551498765497 1.688973969780689 1.288765931967109 54 54 56
0.870492277722634 1.677147828614068 1.28989136047885 51 51 53
0.8645727865317572 1.691240659063484 1.290879980462479 50 50 52
0.8664893428728104 1.719686925240524 1.2918011331783572 50 50 52
0.860713657917324 1.7342242681938695 1.2927953248950705 48 48 50
0.7696879429472745 1.6667294915328403 1.2973107092396674 49 49 51
0.6454899155476783 1.685007597736515 1.3076218542321885 48 48 48
0.6324259194181766 1.685400726774479 1.3086489376677148 46 46 46
0.617774032595847 1.6826524335358606 1.3096809366671192 45 43 44
0.56486038774837 1.708336391244383 1.3147468915375995 50 49 47
0.5628454061303854 1.7305732900409674 1.315739200269685 50 49 47
0.5627300896304054 1.7567546492212833 1.3167326312887602 50 48 51
0.5662534295368961 1.790431730065534 1.3177259717152794 44 42 45
0.5625321325508692 1.809681931169588 1.3187381905768896 38 36 39
0.5695323006908659 1.8508173439940225 1.3197425741628468 42 40 44
0.564619339201616 1.8679460436557365 1.3207673578782169 45 42 49
0.5673515504611362 1.9008227254259276 1.3217919038049712 49 46 55
0.5668352714816849 1.9272415188459984 1.3228253327535189 57 55 61
0.57336706049954 1.9683825816095992 1.323866222472825 74 74 75
0.5830633798589224 2.016376725897728 1.3249195954550297 78 78 78
0.5939741478350126 2.067248563326662 1.325987073103399 76 76 76
0.7725226838142012 3.2523874543054885 1.3567164111455758 47 49 48
0.748209823450311 3.231320409256183 1.3578081795197698 71 72 71
0.7928495370091286 3.8242782841430083 1.376646089134367 153 152 153
1.1308575497701 1.887796387220097 1.2901974891229127 168 166 167
1.0674066806805664 1.8269509926680567 1.292687280176121 71 69 70
1.031895202514355 1.7894405097130806 1.2939458273971476 62 60 61
1.0062656168145012 1.76906613234195 1.2951155300276538 57 57 57
0.9603220739899585 1.7371754897280378 1.2973931087130306 78 78 78
0.9393287072340539 1.724513450194224 1.298508356833525 81 81 81
0.9242513299386379 1.7223272421407934 1.2995788830466537 79 79 79
0.9090604138266505 1.7198725359953597 1.3006476355393377 68 68 69
0.9006968206802984 1.7297030378677234 1.301672410561636 57 57 59
0.8856632487265312 1.7274492762775635 1.3027369424790085 54 54 56
0.8779416275062015 1.7636445341782727 1.3047413414349585 54 54 56
0.7835841999731831 1.6904672531586367 1.3091192143594503 52 52 54
0.57064966380252 1.7971107470587762 1.3296044529242026 37 35 38
0.5676382098307564 1.817824067544136 1.3306436130278378 36 34 37
0.5625718223306487 1.8888178585905153 1.333802411470341 56 54 59
0.571413141232978 1.9344210800027966 1.3349042164321427 69 66 70
0.579699153338456 1.9792061392618254 1.3360166641579811 75 74 75
0.5927313228059525 2.0341506409749375 1.337161723355846 54 54 54
0.6035009920644401 2.0847928508279763 1.3383123376194146 79 79 79
0.7701032675979299 3.2440176502795013 1.370777216398628 45 47 46
0.745903904607175 3.2231934722439393 1.371819724785503 72 73 73
0.7955322816541155 3.8278807270899375 1.391612036168293 145 144 145
1.0535195161858582 1.825398882503302 1.3061015462486876 66 64 65
1.021004080977624 1.793005500414304 1.3072571760905844 56 56 57
0.9985970829513304 1.7782498990240148 1.3083595924575397 55 55 57
0.9759849225361673 1.7629683867734238 1.3094562970493535 58 57 61
0.9544376698815553 1.7494259074086083 1.310542579666173 63 63 67
0.9420974163690263 1.752254944723318 1.3115927949715902 73 73 75
0.9284526977597127 1.752708551784755 1.3126458602504836 78 79 81
0.6477734610208453 1.736876127329188 1.3332902792363897 35 35 35
0.5693158565781588 1.9004036368379387 1.3458536322808967 67 64 67
0.5786769778197365 1.9471146268208912 1.3470329219902752 71 66 70
0.5879692011142228 1.9940206063299093 1.3482253225599048 42 41 43
0.6011752356080149 2.0493755490141217 1.3494626356103439 65 65 66
0.6133326374742303 2.102958750056298 1.3507078135765058 59 59 61
0.7667403653371044 3.2334671399363466 1.3847965397482345 47 48 48
0.7436133311040485 3.2151069122746083 1.3858077737072778 74 75 75
0.7987542972185007 3.832810323296214 1.406608562868035 135 135 134
1.0695652625176864 1.851514731837446 1.3184041802736257 81 79 80
1.011636885524748 1.79926331418814 1.320561623854826 56 56 58
0.9852406662932292 1.7773371066514296 1.3216235453448293 53 53 56
0.9649818866700307 1.7661635095630226 1.3226752815122296 51 51 55
0.9362443021791527 1.8917691442558284 1.3300891991049337 46 46 51
0.8726414000143339 1.8004080179819362 1.331034944606639 42 42 44
0.6829982816075568 1.7771751971743264 1.344286547659503 37 37 37
0.6703447500829448 1.7787117676136353 1.3452999576947504 38 38 37
0.6189407537416726 1.7565925400089477 1.3482295142651632 35 35 35
0.6051854163901115 1.7820843116611589 1.3503284436981315 36 34 35
0.5849426420203251 1.930153372408782 1.3580456308644702 64 63 65
0.5946029044527112 1.9775932711401325 1.3593071187178694 38 34 37
0.6046860428223424 2.0262484235259643 1.3605877649056344 53 52 54
0.6147755789645323 2.075270359529073 1.361883286525046 71 71 73
0.7682395012609892 3.2341817365591568 1.3988901953386534 47 49 50
0.7429360143457345 3.2107773418968835 1.3998082722034064 73 74 74
0.8011049376288895 3.8355859229636113 1.4216027395996866 123 123 122
1.038184255572233 1.8442104400660249 1.3328815665798666 63 63 63
1.0143838240382799 1.8270901102683683 1.3339059524213261 55 55 57
0.9880384779931396 1.8052437574843678 1.3349145432199145 53 52 55
0.9480218616714663 1.8089224378886575 1.3380421087744296 51 51 53
0.947106993764546 1.832613159163742 1.3391354462669245 51 51 56
0.8764500094377613 1.805290206692217 1.3431939015627448 48 48 50
0.8547089982899041 1.7906633639859302 1.3441734577672404 46 46 48
0.8068936315266195 1.7274490259275026 1.34498398813984 39 39 41
0.6571407896354209 1.856376349626885 1.3616730109154906 37 35 36
0.5802995741748411 1.8638666031819424 1.3676971187244185 63 62 63
0.5898817551588686 1.9105762202358643 1.3690082062604576 54 55 57
0.6014708134727462 1.9617258785348595 1.370362620078111 36 36 38
0.6138969283724404 2.0149674277739553 1.371745492621883 52 51 54
0.7674110296652495 3.2295068278861265 1.4129306771379038 47 48 51
0.7424092525108524 3.2067998766131294 1.413802353619088 72 72 74
0.8036209021697986 3.838766202755769 1.4366170804924203 112 112 111
0.77328849907743 3.803259505833717 1.4373301202911675 164 163 161
1.0570748688307485 1.8755570646465736 1.3453293984079981 79 79 78
1.0325239709705984 1.8572339283614925 1.3463110123813413 65 65 65
1.0050580780190608 1.8335158177509692 1.347265244159614 57 56 57
0.9583989713613015 1.8002750200863056 1.3492015522825793 51 51 53
0.9404655862246132 1.7931395176067206 1.3501979458008644 49 50 52
0.9285827067045229 1.7968750564088267 1.3512365544720775 48 47 51
0.8943374034514896 1.8361032896039187 1.3555022209443093 45 45 47
0.8731635195919409 1.8226572015251508 1.3564541731499218 46 46 48
0.8369205034973014 1.7810805056143475 1.3572537905065343 49 48 51
0.8059801366790003 1.7490124959984366 1.3580895704654807 45 45 47
0.7860188800287383 1.7371882495357474 1.3590250855253267 44 44 45
0.6056275290763246 1.9130207073439771 1.380117703201804 43 42 44
0.6158711819676459 1.961270809358774 1.3815234749263008 29 30 31
0.6240626912075332 2.0056734228141053 1.3829077589022984 49 49 51
0.6359549658020762 2.0579900326354474 1.3843744082635994 67 66 68
0.7665835947090429 3.224836594952875 1.4269595773298043 49 50 54
0.7408725125794587 3.200476686252103 1.4277564016078328 72 73 74
0.7759789607941139 3.8069053098619094 1.4522932252885654 160 160 158
1.051381563391792 1.888633436577898 1.3588403052966305 84 83 81
1.0084496813845718 1.8627447336824998 1.3607595525699385 58 56 59
0.996354194370937 1.866437494183205 1.3618070762533165 54 55 57
0.8611279729695105 1.7982616547253485 1.3684689499259572 44 44 46
0.8453696542456604 1.794628585617151 1.369444171910901 47 46 51
0.8084312437887944 1.7514550507511986 1.3701314296011629 47 47 50
0.6312441089761407 1.9627262675398636 1.3927270326357712 28 27 29
0.7657564335412618 3.2201692694311506 1.4409768885317322 50 51 55
0.7380836725379606 3.191247631146186 1.4416496187172128 71 73 73
1.055291535319944 1.9189065917238852 1.372510812199152 101 100 99
0.8358189453373731 1.8003432241938868 1.3826075876019601 50 49 52
0.6725772455109214 1.8270609834694902 1.3955813156198924 47 46 46
0.6553965909636361 1.8463652706940614 1.3977309897103045 42 40 41
0.764929928442925 3.2155057334926025 1.4549826347192887 50 51 55
0.7368150431877316 3.1855550440375566 1.4555740770952366 72 73 74
0.7796426266116743 3.809936442696146 1.482193789761082 150 150 148
0.8624646291039516 1.7710055074622941 1.3914922968750207 51 51 53
0.8907270089711233 1.8486723901289661 1.3932931353267215 50 50 52
0.8650778309747016 1.8269074432347208 1.3940448373573304 48 47 52
0.829435381373292 1.7863153677150578 1.3945826720684755 47 46 49
0.6886952607620487 1.88316330029429 1.409299123736414 19 16 18
0.6777099411531422 1.915207072616342 1.4116468922023766 20 18 21
0.651217883002003 1.971151005288601 1.416264013789375 43 43 45
0.7636079243666631 3.209699049313838 1.4689558199728792 49 50 54
0.7219507025500059 3.148297299712653 1.4689007611867515 72 74 74
0.7812514129812396 3.810897080609413 1.497148403341338 145 145 143
0.8672437336222074 1.828774845583953 1.4062615493186938 47 46 51
0.846007638919421 1.8150264355812942 1.4070559623331849 37 37 39
0.830017335646768 1.8109245726276202 1.4079691339469087 22 23 23
0.7965725885192414 1.7739955804422909 1.408450370553441 19 19 20
0.6993992433733716 1.902034560519596 1.4217086617370158 17 16 18
0.7016115819493596 1.933319945447654 1.4231303884970505 18 17 20
0.7036146661665555 1.964394523029338 1.4245561465914205 21 21 23
0.6913007079277931 1.9671500692060497 1.4255574315572652 23 23 25
0.6971940227567606 2.006297656909953 1.4271175852520193 24 23 26
0.8184877770342951 3.227663682107472 1.4801750943875593 39 40 41
0.7634137411064454 3.206501647853125 1.4829657484244225 48 49 53
0.7344125151325844 3.1744915643159084 1.4833836753907526 72 73 75
0.8821073197406091 1.880054827703991 1.4201714806995187 30 31 31
0.8513969419984853 1.8487177254401783 1.420672977753245 34 35 34
0.8383214400776151 1.850158965198963 1.4216525743898445 27 26 28
0.7402405434300787 1.9801857646937144 1.4351783318832234 35 35 36
0.8150305839896325 2.68752670848797 1.4666562866824762 32 32 35
0.8327688851466537 3.2224737108873547 1.4931492679693983 40 40 41
0.7722489826931067 3.189033276515362 1.495604791139912 42 43 48
0.7512184229582201 3.175582306292285 1.496363226994587 48 49 52
0.8933317608500806 1.9248726163255205 1.4341593548491958 46 47 46
0.8626410442818944 1.8935938279260005 1.4345925505401675 42 41 43
0.8465624423184104 1.8895229827330593 1.4354752253736072 40 38 41
0.8522203714076984 1.9264472144824696 1.4370542911234048 32 31 36
0.8559486863894867 2.1221557780179325 1.447219388302718 28 28 28
0.799628534530607 2.6522530193295877 1.4792941780759736 63 62 65
0.8240547534808432 3.1999630430267754 1.5067854701304066 39 39 40
0.7701012232798783 3.181357489187911 1.509484078392782 42 43 48
0.749542330498843 3.1689749080673653 1.5102305666857863 49 50 54
0.9056863424172567 1.9720963455315799 1.4483512037387072 54 53 55
0.875368537849798 1.941550193617896 1.448729283210728 37 36 38
0.8754988638717697 1.9682327018979395 1.450179109958 14 13 19
0.9036699514010886 2.240568950295091 1.463163772124031 21 21 21
0.8310489207692121 2.5923881178154224 1.487301808901022 22 21 24
0.8445822269882788 2.651546558638481 1.4896216196713492 22 22 25
0.8222409070110643 2.635497623220313 1.4902534071873745 24 23 26
0.816751732620499 2.654942515132016 1.4916871697195224 25 25 27
0.8130432138970385 2.67828163489673 1.4932135342122481 27 27 30
0.8024323288419251 3.1828576964501614 1.5215135147301595 38 38 40
0.7950343856876925 3.2008420905184263 1.5229963717958563 37 38 41
0.7668601272709465 3.1711732713033376 1.523277618495959 42 42 47
0.7467276029016957 3.159742646317162 1.5240126706008121 49 50 54
0.8905852641308075 2.5611446814435377 1.4949233791873413 11 11 13
0.8871812401202245 2.5843970365521276 1.4964547172299747 16 15 20
0.8587957570055228 2.6171542154871954 1.5001859195719687 18 17 22
0.8633332522784413 2.657408079482873 1.5021410220208724 19 19 23
0.8703593971962565 2.703167337682088 1.5042388818164536 22 21 25
0.8155504291461976 3.1752191448042413 1.5343730742899577 38 38 40
0.7977968440959939 3.169572361008356 1.535240848020097 37 37 39
0.7902690083326529 3.1872034179315767 1.5367320240833569 39 36 42
0.7642610672002541 3.1624701981520884 1.5370799619878912 42 41 46
0.7439740148604802 3.1506569088511402 1.5377708868201294 50 50 54
0.7583815073920399 3.7785828177857406 1.5720300047043023 160 159 158
0.929832838919517 2.5784743006237054 1.50668796996576 8 8 10
0.9517999781766704 2.6534309185761407 1.5095516347378601 10 10 12
0.93012581625611 2.6396297855136144 1.510185972668554 13 13 15
0.8868321376271472 2.581225456300916 1.5096794929626591 16 16 18
0.8579331211969725 2.5823377248340313 1.511647604466485 18 18 20
0.8634058687303207 2.6242750115871414 1.5136989962866838 19 19 21
0.878328569954819 2.686254704488273 1.5162804581633134 22 22 23
0.8863460504500538 2.7342075236682115 1.5185101572689326 25 25 27
0.8391302910803964 3.225942229369613 1.5499028900614409 39 39 41
0.8002759025865371 3.1724918264815103 1.5493888289189153 37 37 39
0.7873650501158073 3.177829482871384 1.5505465087553667 39 37 41
0.7613121316251323 3.1529686341575673 1.5508332702076282 43 42 46
0.7405620218320451 3.1400576621270604 1.5514579197226022 51 52 54
0.7609288020530753 3.781887653778414 1.5870302815949069 155 154 152
1.0305355994899672 2.598396358579907 1.5147243800260983 8 8 10
0.9828777056482867 2.5929965001907154 1.5175067281923305 6 6 8
0.9744480461612766 2.6060633332689207 1.5188253004345444 7 7 9
0.9667180361651717 2.6205960566601245 1.520184751241469 8 8 10
0.8892987805553632 2.6448576642559996 1.526651570603847 41 41 43
0.8984678896733427 2.6947388791192433 1.5289949610629598 38 38 39
0.8851112483520334 2.729099682994927 1.5318891185266443 32 32 32
0.8364914747531258 3.2172230036194316 1.5638216213851306 40 39 44
0.7917142831060094 3.1502823575073013 1.5627894228265353 38 37 42
0.7857500307200407 3.171407306730215 1.564422530662564 40 38 41
0.7586494211503768 3.144129824880198 1.564577991107266 44 43 46
0.738980025846146 3.1336848747092025 1.5652420651542798 54 55 55
0.7634786015223693 3.7851953297547283 1.60204732222342 148 147 146
1.0471457060066567 2.510791858420846 1.5218980878198247 17 17 18
1.0240004010109551 2.553419805440596 1.525957872166584 13 13 15
1.0231420500260007 2.581323717450694 1.5276973779875784 8 8 10
1.0223271099261395 2.6094862007321793 1.52944970376989 7 7 9
0.9902248297993622 2.605276208598051 1.531257496882763 6 6 8
0.9713570823827959 2.597395132507864 1.531993639865108 7 7 9
0.9723288617905208 2.629474976779377 1.5338676701501441 8 8 10
0.9682445171625081 2.6515066121171005 1.5354599104349662 10 10 12
0.9616205271919214 2.6684910686294794 1.5369106068680858 12 12 14
0.9295048272840937 2.6334201359615803 1.5368563916026288 18 18 20
0.8819360299522617 2.6271301946951464 1.5395320429911767 34 33 34
0.8321577810294639 3.1355882046682204 1.5734215272738665 46 46 48
0.8214428167711079 3.1804001922692264 1.5768147496048204 40 40 43
0.7885872696053529 3.1404508587295017 1.5765135778567887 40 39 42
0.7888334578839011 3.1757245700411127 1.5786270052744056 40 39 42
0.7581565345484382 3.1402761244085893 1.57845758975068 44 44 45
0.736579161736056 3.1254278449290562 1.5789472075124797 54 56 55
0.7662142251041972 3.788960149345342 1.6170967989357155 140 140 139
1.5028310075212132 2.7797551920485115 1.5230470374931546 77 75 76
1.346598160670711 2.8158322241010634 1.5351812936950644 42 42 42
1.083936651675585 2.5800289718321796 1.5372640422861956 22 22 23
1.0425947854714945 2.528720541683953 1.5367148371603163 30 30 32
1.02653739835006 2.526572887696001 1.537600170347642 17 17 19
1.0238798242910034 2.55076207251589 1.539263271071612 22 22 24
1.0318303540037426 2.5960847168161427 1.5415596242731737 10 10 12
1.0334880529681463 2.6292183063625716 1.5435017986173327 7 7 9
0.9683802423132575 2.619040936510269 1.5470007699069028 9 9 11
0.9626474894644351 2.6376871568577536 1.548516345021957 14 14 16
0.9444600896643298 2.63107053638695 1.5492605899967318 17 17 19
0.9215044854603744 2.6145938547127936 1.5496979000979068 24 24 26
0.9067056517245281 2.614671754983717 1.550640954861652 29 28 28
0.8932884851181768 2.6175429382540467 1.5516690048872825 32 31 30
0.8928071940714631 2.6471625676959176 1.5535296685081958 51 49 50
0.8364320688570954 3.142479746434533 1.5877086965897624 48 48 50
0.7999226079853426 3.0946216388491004 1.5870663084355403 45 45 47
0.8050422825715006 3.140540780539672 1.5895789935941513 42 42 44
0.7867714877841925 3.1336071842114963 1.5903089403496027 40 40 42
0.7772005616525303 3.1464226751715363 1.5917075829302942 40 40 42
0.7444077592350524 3.106011124076912 1.5912896707061672 46 46 47
0.7321543754242801 3.112511528336392 1.592468181074677 54 56 55
0.7685615366155449 3.7917592844294 1.6321296198367392 130 131 128
1.04136558732078 2.523910764971416 1.54993271051651 29 29 31
1.0210560530820327 2.513408241094119 1.5505395623302267 27 27 29
1.017282642988422 2.5353452166001875 1.5521623810213334 30 30 32
1.0172317431482087 2.5647696149742845 1.5540255925215767 16 16 18
1.0138864333290283 2.58783535826792 1.5556929788775549 8 8 10
0.98518058123393 2.650503373030345 1.561450567979927 10 10 12
0.9630655852085813 2.636070039127915 1.561921905227502 18 18 20
0.9486024441032417 2.6370376863085228 1.5628880241996104 23 23 25
0.9259409421191798 2.6212000219195777 1.5633047830042845 31 31 33
0.9140832927091409 2.6273496096502855 1.56443544779384 40 39 37
0.897624052724037 2.6240105074210414 1.5652542157119043 51 50 48
0.9259061358117908 2.7131822754007153 1.5691215045034685 69 67 67
0.7920891626685408 3.074276577461987 1.60032048193592 47 47 49
0.7914331758544217 3.1070261547299247 1.6024317504233985 43 43 45
0.7789473045325114 3.113107703039623 1.603597421666691 42 42 44
0.7595348977155073 3.103364664918775 1.6041961506843492 43 43 45
0.7411753685184522 3.0958882763219866 1.6048722851882966 48 48 50
0.7254823265452284 3.094426259878777 1.6057617701827231 55 57 56
0.7702199758697339 3.7928494256053136 1.6471125126686168 126 127 125
1.552198512240206 2.776448258861756 1.5481582052158622 89 89 88
1.5323650932583628 2.7699493486010165 1.5489626146770221 73 71 72
1.2511064707004103 2.6607529014515268 1.5592688433204873 49 49 49
1.2425628840701932 2.673915827603011 1.5606471592268445 46 46 46
1.0547564909782272 2.518405350000721 1.562190031557773 24 24 24
1.0320345964421032 2.503275009034069 1.5626148421057269 27 27 29
1.0252695915512007 2.5192686806720475 1.5640663278605955 26 26 28
1.01318190607463 2.5248545136374796 1.5651736741063889 34 34 36
1.0010097943334086 2.530264276135835 1.5662748516554375 13 13 15
0.9898289830816209 2.5376317587379185 1.5674413731635284 9 9 11
1.0162886666141495 2.620046555005242 1.5711350217559987 7 7 9
0.9882506079868563 2.5939867274847885 1.57118157147015 8 8 10
0.9996977813793153 2.6470229597221318 1.5739030645654863 9 9 11
0.9920250190501102 2.661850514459344 1.575335217249877 9 9 11
0.9944211979239975 2.697149349342494 1.5774689749077435 12 12 14
0.9783723185071846 2.725869296018372 1.5803162563260622 21 21 23
0.9560900738893556 2.7110691675033065 1.5807352680687534 30 28 32
0.9323738123115648 2.6931348962570256 1.581040225470395 45 43 46
0.9123945907922555 2.6827260581869075 1.5816009012669796 56 54 56
0.8963280817930788 2.6803023419598406 1.5824361636166058 57 56 56
0.9122702510867026 2.7445774572648625 1.5856066148364465 56 56 55
0.7951921354885625 3.044569290363987 1.6122261887584721 51 51 53
0.8043572321894776 3.0992296514241735 1.6151935576470167 49 49 51
0.807360659562322 3.1403657985644036 1.617667144728849 46 46 48
0.7901039996491501 3.1357579030578115 1.6184347017581493 45 45 47
0.7746285895848344 3.1351131732783952 1.6193484628678585 46 46 48
0.7301870152896661 3.0679892453512028 1.6177533903575771 48 48 50
0.7147020518470893 3.0668918531975384 1.6186384814615091 56 58 57
0.699741000636279 3.066934628480447 1.6195649264902907 64 65 65
1.5751513693506063 2.814800867893933 1.5635210949159055 77 77 79
1.2447175063983495 2.6171889762843774 1.5705919878257124 37 37 39
1.2264581101464955 2.6118793852276347 1.5713533579870906 36 36 36
1.2108245769023265 2.6114403810102216 1.572276568040028 35 35 35
1.1556016153451574 2.5938419192275535 1.5744774603816916 23 23 25
1.1573517472099346 2.6265146671071165 1.5765293985593936 23 23 25
1.023665091750919 2.484529871796281 1.5752917624077245 25 25 27
1.0127166452292058 2.4922465888625953 1.5764684218839946 26 26 28
1.0113437824591092 2.518824682201507 1.57830793121067 31 31 33
1.016485896107083 2.558443393692485 1.580612156685205 15 15 17
1.022558791939514 2.6001773627458866 1.5829994349229006 14 14 16
1.0269840950868314 2.638913051330926 1.5852889829566383 12 13 15
0.9734490709933301 2.5619239557450646 1.5834634039876843 10 10 12
0.9875745036565888 2.620200328348463 1.5864530946825304 8 9 11
0.9454523159069096 2.6867533691831653 1.593415537009518 15 15 17
0.9230347460699097 2.6714067569374476 1.5937670756296067 20 20 22
0.8066164387012453 3.0336392747508336 1.6247889355034892 44 44 44
0.812990166185256 3.0818057302971487 1.6275828549157563 42 42 43
0.8142829226512318 3.1188894937872913 1.6299540662828518 46 46 48
0.8150324435814583 3.1550078951557623 1.6322945882737223 54 54 56
0.7958290541075822 3.146051700336596 1.6328725414433742 56 56 58
0.768160124364324 3.1176372072020184 1.6326805979731682 55 55 57
0.7236451768879442 3.0502996258958883 1.6309432513207176 54 54 56
0.7100065226867567 3.0533830696438464 1.631977668230403 61 61 61
0.6965590187925278 3.056874069820641 1.6330273678364327 66 66 67
0.7488478186007843 3.617758753496787 1.666897573775772 48 49 51
1.6585460741735687 2.9018216087046653 1.578687972437643 105 103 103
1.1398834713046524 2.5035214789341396 1.5829660705507325 21 21 21
1.162705593213429 2.575845181928673 1.5864762122836509 19 19 20
1.1486016497011233 2.578027788397943 1.587470850650375 20 20 22
1.147080750503226 2.6043494187218577 1.5893387105398573 21 21 23
1.0401487933193767 2.5143192992609475 1.5896866507761565 22 22 24
1.0308884718701559 2.52547047479594 1.5909955987665054 21 21 23
1.0253702749120996 2.544022877251328 1.5925792493237647 15 15 17
1.0140362267381708 2.551178069485047 1.5937430866509785 17 17 19
1.01801552632583 2.5887220007041805 1.5960379185021958 17 17 19
1.0169315873484135 2.61642954340509 1.5979730642683354 15 15 17
0.9638509717495725 2.5402909467692014 1.5960233065934546 11 11 13
0.9753633752603506 2.5932182442189897 1.5989038151761774 10 10 12
0.9768694232769944 2.626343181026858 1.601048989171178 9 9 11
0.9304821744817142 2.6842541438613554 1.6077443243235658 11 11 13
0.9108229658837527 2.6744925400686275 1.6082665761881434 14 14 16
0.8292409393306661 3.0140066209970993 1.6360821628055429 68 68 69
0.8331684698074553 3.056348590974073 1.6387039319493597 62 62 63
0.8225224125716689 3.066473331045767 1.64002685586491 53 53 54
0.821340536672212 3.0978389491030454 1.6422147746637914 44 44 46
0.7754715962443914 3.131605268366893 1.647249411397326 59 59 61
0.7386871435362754 3.0820726827383487 1.646116300869006 65 65 67
0.7092566890042998 3.0489628236105837 1.6456497753606407 64 64 64
0.6971338472301498 3.0555033648331014 1.6468195177446867 64 64 65
0.7525149184856137 3.6237640368950697 1.6818451570857782 48 49 51
1.136049888681939 2.4652525222007604 1.5940568782775761 25 25 25
1.1328249193743973 2.4877404496714566 1.5957977718617142 20 20 20
1.1281284360650716 2.507550012508025 1.59744125990677 19 19 21
1.1196180866419194 2.520167812098097 1.5988150640540273 21 21 23
1.1090384975019294 2.52885820079992 1.6000407940101686 21 21 23
1.095669523238319 2.532185149018265 1.6010621475418392 22 22 24
1.0702824561484168 2.512216206005739 1.601190024162506 21 21 23
1.0425643432007665 2.487500995914234 1.6011289037168324 23 23 25
1.0188014041151225 2.4702517697866644 1.601347993930128 20 20 22
0.9876572045217792 2.496643303692911 1.605012036798513 18 18 20
0.9692133224654317 2.518942791399634 1.6076416126974618 17 15 18
0.9669173860546032 2.5439979033497706 1.6095043896715013 13 11 14
0.9618231149727833 2.5635844062345763 1.6111560724336393 10 8 11
0.9730577383358504 2.6161992843548516 1.6141165758776677 11 10 12
0.967716992410171 2.6356346404842386 1.6157724446966988 11 11 13
0.9630537749665453 2.656551823242304 1.6174902969021892 11 11 13
0.9402708900001036 2.701910899634596 1.6219661669166032 9 9 11
0.9293972951980988 2.7103917307019567 1.6231948734039325 11 11 13
0.9503980270315059 2.94435192168908 1.6380747406808018 26 27 29
0.8093182226754562 3.1023172792062983 1.6573199139199735 51 51 53
0.8096348480588973 3.1373766245182972 1.6597173780907006 42 42 44
0.7945970954374021 3.1378233197231635 1.6606390995689804 38 38 40
0.7719225530318478 3.120797764766084 1.660809120941929 42 42 44
0.739123937308902 3.0803720002747985 1.659966261721064 54 54 56
0.7119821851421761 3.0871143060333117 1.6620389857890978 63 63 63
0.6969424370465964 3.0870279160640255 1.6629240862798549 58 58 60
1.194909965548721 2.4880420128472593 1.6056677895330038 55 55 56
1.147167754245968 2.512572916300301 1.6101822987795256 37 37 37
1.139389560669476 2.526612136287857 1.6116242535739282 33 33 33
1.1070004993252012 2.4936434976331183 1.6111971004277343 29 29 30
1.0961918472956809 2.5017926909478927 1.6124017475092178 24 24 25
1.08165896563962 2.5027739393816235 1.6133197188126507 23 23 24
1.0602749129685596 2.490448796068425 1.61370186762545 23 24 24
