ply
format ascii 1.0
element vertex 703
property float x
property float y
property float z
property float nx
property float ny
property float nz
property uchar diffuse_red
property uchar diffuse_green
property uchar diffuse_blue
property uchar class
property uchar detection
end_header
0.8975 2.9897 -0.1962 -0.657 0.737 -0.161 65 65 67 0 0
0.8744 3.1051 -0.1918 -0.984 0.151 0.092 49 49 51 0 0
0.7498 3.1874 -0.1548 -0.287 0.214 -0.934 60 60 63 0 0
0.7626 3.0892 -0.1173 -0.137 0.633 -0.762 54 54 56 0 0
0.7442 3.2286 -0.1312 -0.169 0.928 0.333 59 59 61 0 0
0.7370 3.3176 -0.1133 -0.709 0.214 -0.672 48 48 50 0 0
0.6095 3.2408 -0.0721 -0.423 0.744 -0.518 67 66 71 0 0
0.6323 3.2425 -0.0756 -0.141 0.879 -0.455 60 60 64 0 0
0.5542 3.0884 -0.0319 -0.701 0.593 0.397 53 53 55 0 0
0.6455 3.2374 -0.0631 -0.150 0.848 -0.508 45 44 49 0 0
0.7159 3.3672 -0.0890 -0.717 0.193 -0.670 54 54 56 0 0
0.5605 3.0872 -0.0190 -0.701 0.593 0.397 47 46 50 0 0
0.5603 3.1034 -0.0210 -0.963 -0.079 -0.259 58 57 59 0 0
0.6498 3.2061 -0.0462 0.305 0.937 -0.171 41 41 43 0 0
0.5129 3.0728 0.0031 -0.320 0.769 -0.553 37 35 40 0 0
0.5136 3.0884 0.0011 -0.559 0.332 -0.760 41 39 44 0 0
0.5339 3.0913 -0.0021 -0.653 0.371 -0.660 55 53 59 0 0
0.5368 3.1054 -0.0043 -0.707 0.198 -0.679 68 66 72 0 0
0.8156 2.6769 0.0251 -0.216 0.158 -0.964 43 43 45 0 0
0.5156 3.1060 0.0123 -0.354 0.331 -0.875 57 56 62 0 0
0.5234 3.1169 0.0098 -0.567 0.171 -0.806 65 63 69 0 0
0.5330 3.1900 -0.0007 -0.447 0.189 -0.874 55 55 57 0 0
0.6945 3.4041 -0.0497 -0.983 0.183 -0.007 46 47 49 0 0
0.6958 3.4188 -0.0517 -0.723 0.474 -0.502 39 39 41 0 0
0.5086 3.2083 0.0139 -0.448 0.229 -0.864 35 35 37 0 0
0.5255 3.2291 0.0090 -0.318 0.515 -0.796 42 42 44 0 0
0.6606 3.3806 -0.0285 -0.354 0.921 0.162 46 46 46 0 0
0.6936 3.4076 -0.0364 -0.894 0.416 0.165 37 37 39 0 0
0.6449 3.2368 0.0056 -0.487 0.148 -0.861 87 86 92 0 0
0.6871 3.3834 -0.0188 -0.218 0.925 0.312 33 33 34 0 0
0.7019 3.4211 -0.0256 -0.894 0.416 0.165 40 38 41 0 0
0.7076 3.4332 -0.0279 -0.916 0.337 0.219 37 35 38 0 0
0.4679 3.2241 0.0444 -0.721 0.418 -0.552 17 15 18 0 0
0.5608 3.2601 0.0275 -0.187 0.682 -0.707 71 69 72 0 0
0.6073 3.3408 0.0109 -0.379 0.183 -0.907 44 44 46 0 0
0.6461 3.3486 0.0048 -0.302 0.653 -0.695 30 29 32 0 0
0.6680 3.3666 -0.0005 -0.325 0.896 -0.301 33 32 35 0 0
0.6739 3.3786 -0.0028 -0.738 0.263 -0.621 45 45 47 0 0
0.6830 3.3887 -0.0053 -0.695 0.327 -0.640 47 47 49 0 0
0.6895 3.4004 -0.0076 -0.812 0.187 -0.554 45 45 47 0 0
0.6807 3.4671 -0.0151 -0.518 0.465 -0.718 46 44 48 0 0
0.4953 3.2723 0.0481 -0.429 0.734 -0.526 60 59 62 0 0
0.5388 3.2795 0.0550 -0.228 0.796 -0.561 78 74 78 0 0
0.5453 3.2910 0.0526 -0.356 0.408 -0.840 86 86 87 0 0
0.5674 3.3397 0.0434 -0.635 0.260 -0.728 26 25 27 0 0
0.5680 3.3548 0.0414 -0.471 0.765 -0.438 22 21 23 0 0
0.6317 3.3940 0.0280 -0.942 0.085 -0.324 46 45 48 0 0
0.6654 3.3895 0.0242 -0.667 0.009 -0.745 49 49 52 0 0
0.5005 3.2905 0.0720 -0.342 0.908 -0.243 73 71 74 0 0
0.5511 3.3525 0.0574 -0.555 0.645 -0.525 16 14 17 0 0
0.5634 3.3605 0.0547 -0.509 0.749 -0.424 28 26 29 0 0
0.6002 3.4002 0.0448 -0.852 0.522 0.038 49 47 50 0 0
0.4418 3.1423 0.1126 -0.748 0.505 -0.431 39 39 41 0 0
0.4816 3.3051 0.0860 -0.799 0.593 -0.097 60 58 61 0 0
0.5000 3.3092 0.0831 -0.650 0.528 -0.546 36 34 37 0 0
0.5805 3.3840 0.0630 -0.748 0.642 0.168 47 45 48 0 0
0.5850 3.3968 0.0607 -0.844 0.496 0.202 52 50 53 0 0
0.6508 3.4502 0.0453 -0.228 0.192 -0.955 63 63 64 0 0
0.4303 3.1368 0.1283 -0.763 0.571 -0.302 32 32 34 0 0
0.4904 3.3025 0.0987 -0.937 0.156 -0.312 28 26 29 0 0
0.4961 3.3145 0.0964 -0.769 0.452 -0.452 23 21 24 0 0
0.5659 3.3803 0.0788 -0.620 0.779 0.092 50 48 53 0 0
0.5737 3.3910 0.0764 -0.626 0.722 0.294 69 67 70 0 0
0.5955 3.3934 0.0734 -0.732 0.579 -0.360 99 97 100 0 0
0.7028 3.4844 0.0477 -0.570 0.240 -0.786 28 28 30 0 0
0.4867 3.3077 0.1120 -0.927 0.241 -0.286 18 18 20 0 0
0.4887 3.3220 0.1098 -0.763 0.585 -0.275 18 18 20 0 0
0.4964 3.3327 0.1074 -0.716 0.689 -0.109 16 16 19 0 0
0.5277 3.3600 0.0998 -0.642 0.763 0.080 50 49 53 0 0
0.6540 3.4848 0.0674 -0.666 0.707 -0.238 31 30 33 0 0
0.6853 3.4973 0.0618 -0.504 0.241 -0.830 45 44 49 0 0
0.4671 3.2917 0.1300 -0.950 0.293 0.109 31 31 33 0 0
0.4732 3.3189 0.1256 -0.732 0.523 -0.437 14 14 16 0 0
0.4893 3.3400 0.1208 -0.689 0.623 -0.371 29 29 31 0 0
0.4292 3.2872 0.1487 -0.779 0.623 -0.069 41 41 43 0 0
0.4412 3.2952 0.1462 -0.734 0.596 -0.324 27 27 29 0 0
0.5041 3.3493 0.1312 -0.524 0.851 -0.014 46 45 48 0 0
0.6075 3.4718 0.1019 -0.532 0.782 -0.325 46 46 48 0 0
0.6115 3.4847 0.0996 -0.646 0.623 -0.440 58 58 60 0 0
0.4400 3.2989 0.1593 -0.806 0.384 -0.450 17 17 20 0 0
0.5265 3.4002 0.1350 -0.545 0.213 -0.811 76 74 75 0 0
0.5961 3.4661 0.1176 -0.548 0.746 -0.379 69 69 70 0 0
0.6143 3.4584 0.1299 -0.237 0.960 -0.148 60 58 59 0 0
0.6072 3.4778 0.1281 -0.436 0.898 -0.052 53 52 51 0 0
0.6075 3.4929 0.1260 -0.854 0.339 -0.396 57 56 57 0 0
0.4868 3.3531 0.1731 -0.868 0.493 -0.062 62 60 65 0 0
0.4822 3.3866 0.1690 -0.725 -0.110 -0.680 67 65 69 0 0
0.6200 3.4732 0.1408 -0.730 0.633 -0.257 90 88 89 0 0
0.6077 3.4957 0.1391 -0.877 0.198 -0.438 82 80 82 0 0
0.6039 3.4703 0.1566 -0.732 0.647 -0.214 94 92 95 0 0
0.6029 3.4861 0.1545 -0.835 0.239 -0.495 91 89 92 0 0
0.4408 3.0826 0.2844 -0.912 0.197 0.359 22 22 24 0 0
0.5285 3.5259 0.2111 -0.605 0.050 -0.795 19 17 20 0 0
0.4346 3.0896 0.2978 -0.836 0.481 -0.266 22 22 24 0 0
0.4416 3.1011 0.2954 -0.849 0.509 -0.138 21 21 23 0 0
0.4471 3.1134 0.2930 -0.894 0.449 0.007 22 22 24 0 0
0.4530 3.1255 0.2906 -0.928 0.139 0.345 21 21 23 0 0
0.5236 3.5467 0.2221 -0.811 0.305 -0.499 88 86 89 0 0
0.5641 3.5685 0.2145 -0.237 0.830 -0.506 100 95 99 0 0
0.5930 3.5670 0.2115 0.019 0.886 -0.463 87 84 87 0 0
0.4426 3.1351 0.3040 -0.848 -0.387 -0.362 26 26 28 0 0
0.5555 3.2091 0.2948 0.005 0.815 0.579 35 35 37 0 0
0.5176 3.5559 0.2481 -0.320 0.887 0.332 104 102 105 0 0
0.3979 3.4843 0.3113 -0.869 -0.138 -0.475 26 25 27 0 0
0.3985 3.4717 0.3264 -0.876 -0.420 -0.236 25 25 27 0 0
0.5172 3.2476 0.3616 -0.008 0.713 -0.702 28 28 30 0 0
0.3974 3.4903 0.3370 -0.949 0.118 0.292 33 32 35 0 0
0.3931 3.5079 0.3348 -0.986 0.151 -0.071 50 48 51 0 0
0.8020 3.7573 0.2561 0.271 0.843 -0.465 65 64 62 0 0
0.4047 3.0527 0.4160 -0.587 0.169 -0.792 17 17 19 0 0
0.5276 3.2441 0.3748 0.093 0.974 -0.206 28 28 30 0 0
0.4316 3.2287 0.4002 -0.887 0.204 0.415 17 17 19 0 0
0.4672 3.2669 0.5273 -0.560 0.746 -0.360 25 25 27 0 0
0.4421 3.3166 0.5350 -0.887 0.451 0.097 31 31 33 0 0
0.4987 3.2688 0.5518 -0.777 0.627 -0.064 30 30 32 0 0
0.4995 3.2712 0.5651 -0.777 0.627 -0.064 30 30 32 0 0
0.5918 3.3087 0.5515 0.034 0.815 -0.578 24 24 26 0 0
0.6080 3.3519 0.5707 -0.765 -0.548 0.338 15 15 17 0 0
0.5527 3.3286 0.6064 0.306 0.911 -0.276 25 25 27 0 0
0.5678 3.3224 0.6201 0.298 0.905 -0.303 25 25 27 0 0
0.5681 3.3251 0.6334 0.289 0.940 -0.181 25 25 27 0 0
0.5157 3.3910 0.6396 -0.534 0.842 -0.079 21 21 23 0 0
0.6834 3.0512 0.7003 -0.739 -0.673 0.009 30 30 32 0 0
0.4911 3.3311 0.6653 -0.512 0.856 0.067 34 34 36 0 0
0.4881 3.3203 0.6811 -0.522 0.822 0.229 36 36 38 0 0
0.4971 3.3304 0.6788 -0.604 0.758 0.244 35 35 37 0 0
0.4987 3.3324 0.6920 -0.522 0.848 0.093 35 34 39 0 0
0.8481 3.9249 0.5654 -0.663 0.143 -0.735 154 152 153 0 0
0.5219 3.3834 0.6953 -0.512 0.524 -0.681 25 25 27 0 0
0.4588 3.7227 0.6399 -0.899 0.250 0.359 13 13 15 0 0
0.5949 3.1063 0.7673 -0.498 -0.491 -0.715 34 34 36 0 0
0.8646 3.9254 0.6052 -0.034 0.916 0.400 87 86 86 0 0
0.8665 3.9508 0.6553 -0.713 -0.562 -0.420 150 150 148 0 0
0.8482 3.9482 0.6705 0.015 0.670 -0.742 105 105 105 0 0
0.8526 3.9607 0.6680 -0.683 -0.306 -0.663 160 160 158 0 0
0.6260 3.0393 0.8626 -0.974 0.156 0.166 37 37 39 0 0
0.5968 3.3148 0.8137 -0.021 0.972 -0.236 32 32 34 0 0
0.7462 3.9732 0.6851 0.121 0.918 -0.377 44 43 45 0 0
0.7838 3.9688 0.6839 0.187 0.833 -0.520 68 68 70 0 0
0.8300 3.9602 0.6829 0.171 0.835 -0.522 85 85 85 0 0
0.8481 3.9658 0.6809 -0.848 -0.129 -0.513 145 145 143 0 0
0.7515 3.9734 0.6983 0.046 0.982 -0.185 45 43 47 0 0
0.7938 3.9666 0.6973 0.084 0.959 -0.271 54 54 56 0 0
0.8505 3.9675 0.6941 -0.865 0.502 -0.031 111 111 110 0 0
0.8494 3.9710 0.7072 -0.442 0.563 0.698 90 91 90 0 0
0.5344 3.2671 0.8676 -0.627 0.606 0.490 39 39 41 0 0
0.5964 3.8553 0.7551 0.055 0.923 0.381 12 12 14 0 0
0.8659 3.9657 0.7210 -0.298 0.789 0.538 83 84 84 0 0
0.5430 3.2648 0.8815 -0.627 0.606 0.490 40 40 42 0 0
0.5511 3.2755 0.8791 -0.648 0.610 0.455 46 45 50 0 0
0.5282 3.7922 0.7837 0.007 0.754 0.657 15 14 16 0 0
0.8813 3.9610 0.7349 -0.530 0.788 0.314 84 85 85 0 0
0.5488 3.7838 0.7977 -0.353 0.619 0.702 11 10 12 0 0
0.8873 3.9610 0.7483 -0.460 0.878 -0.131 92 91 89 0 0
0.5140 3.7763 0.8142 -0.032 0.691 -0.722 11 11 13 0 0
0.5289 3.7828 0.8122 -0.238 0.380 -0.894 11 11 13 0 0
0.6148 3.1973 0.9329 -0.311 0.873 -0.375 33 33 36 0 0
0.5592 3.2477 0.9258 -0.877 0.017 0.481 42 41 46 0 0
0.4267 3.5450 0.8754 -0.740 -0.599 0.306 14 14 16 0 0
0.5023 3.3174 0.9290 -0.582 0.471 0.663 53 54 56 0 0
0.4328 3.5443 0.8888 -0.740 -0.599 0.306 14 14 16 0 0
0.5131 3.3137 0.9431 -0.791 -0.029 0.611 52 53 56 0 0
0.4839 3.5808 0.9067 -0.047 0.279 -0.959 16 16 18 0 0
0.4779 3.4498 0.9459 -0.699 0.707 -0.109 21 21 23 0 0
0.5826 3.2641 0.9918 -0.856 0.509 0.094 55 55 57 0 0
0.4840 3.4491 0.9595 -0.771 0.309 0.557 22 22 24 0 0
0.4242 3.6808 0.9167 -0.257 0.571 -0.779 35 35 37 0 0
1.2766 2.3922 1.1510 -0.147 0.183 0.972 89 87 88 0 0
0.5897 3.2627 1.0059 -0.707 0.640 0.301 57 56 57 0 0
1.2446 2.4719 1.1523 -0.611 -0.781 0.131 90 90 90 0 0
0.5878 3.2509 1.0223 -0.764 0.404 0.503 56 54 55 0 0
0.4698 3.5247 0.9727 -0.556 0.536 0.635 16 16 18 0 0
0.3971 3.6424 0.9521 -0.617 -0.144 0.773 24 24 26 0 0
0.5981 3.3270 1.0210 -0.894 0.257 0.366 28 28 32 0 0
0.4791 3.5097 1.0026 -0.742 -0.006 0.670 15 15 17 0 0
0.4726 3.5288 0.9990 -0.710 -0.122 0.693 17 17 19 0 0
0.4362 3.5805 0.9900 -0.936 0.229 0.267 19 19 21 0 0
0.4408 3.5929 0.9874 -0.935 -0.106 0.340 20 20 22 0 0
0.6070 3.7987 0.9412 -0.662 -0.465 -0.588 10 10 12 0 0
0.5945 3.8202 0.9373 -0.769 -0.553 -0.321 13 13 15 0 0
0.6679 3.2358 1.1077 -0.188 0.958 0.215 37 37 39 0 0
0.8605 4.0328 0.9414 0.126 0.988 -0.093 80 80 81 0 0
0.4340 3.6562 1.0425 -0.557 -0.408 -0.724 33 33 35 0 0
0.8378 4.0322 0.9558 0.129 0.991 -0.023 54 54 56 0 0
0.8730 4.0296 0.9555 0.078 0.997 -0.021 78 78 79 0 0
0.4767 3.5591 1.0748 -0.997 0.077 0.025 20 20 22 0 0
0.4344 3.6289 1.0616 -0.830 -0.556 0.045 25 25 27 0 0
0.4362 3.6429 1.0587 -0.787 0.543 0.293 27 27 29 0 0
0.6918 3.2302 1.1511 -0.238 0.942 0.235 33 34 38 0 0
0.6718 3.3065 1.1359 -0.984 0.083 -0.161 25 26 28 0 0
0.4279 3.6355 1.0739 -0.865 -0.246 0.437 21 21 23 0 0
0.6865 3.0737 1.1977 -0.695 -0.284 -0.660 28 28 30 0 0
0.6636 3.3144 1.1486 -0.815 0.478 0.327 24 25 27 0 0
0.4510 3.6401 1.0860 -0.246 0.697 0.673 18 18 20 0 0
0.6804 3.9449 1.0183 0.142 0.987 0.072 44 43 48 0 0
0.6944 3.9670 1.0135 -0.509 0.509 0.694 46 45 50 0 0
0.4207 3.6604 1.0960 -0.505 0.495 -0.707 18 18 20 0 0
0.6946 3.7629 1.0693 -0.351 -0.053 -0.935 14 14 16 0 0
0.5878 3.9229 1.0383 -0.212 0.334 0.918 34 34 36 0 0
0.6661 3.7512 1.0861 -0.246 0.076 0.966 32 32 34 0 0
0.6639 3.0643 1.2434 -0.933 -0.155 0.325 27 27 29 0 0
0.6175 3.2235 1.2109 -0.763 0.417 0.493 60 58 61 0 0
0.6949 3.2243 1.2095 -0.429 0.779 0.456 33 34 38 0 0
0.4179 3.6527 1.1247 -0.459 0.693 0.555 33 33 35 0 0
0.7206 3.7096 1.1076 -0.183 0.197 0.963 38 38 40 0 0
0.7306 3.7194 1.1054 -0.216 0.135 0.967 39 39 41 0 0
0.9405 4.0291 1.0371 -0.546 0.833 0.093 116 116 116 0 0
0.6192 3.2255 1.2247 -0.808 0.435 0.398 56 54 57 0 0
0.9394 4.0325 1.0503 -0.037 0.980 -0.196 110 110 110 0 0
0.9383 4.0361 1.0634 0.194 0.933 -0.304 109 109 109 0 0
0.6983 4.0547 1.0765 -0.539 0.811 0.229 19 18 21 0 0
0.6609 3.1112 1.2913 -0.963 -0.156 0.220 32 32 34 0 0
0.6237 3.1833 1.2763 -0.875 0.194 0.443 63 63 64 0 0
0.9314 4.0453 1.0893 -0.840 0.308 -0.446 121 121 119 0 0
0.7099 3.2141 1.2832 -0.716 0.360 0.599 33 32 37 0 0
0.9263 4.0507 1.1021 -0.857 0.424 -0.294 138 138 136 0 0
0.4897 3.5377 1.2300 -0.433 -0.225 -0.873 20 20 22 0 0
0.4443 3.5945 1.2182 -0.725 -0.345 0.596 21 21 23 0 0
0.4585 3.5588 1.2395 -0.516 -0.234 -0.824 19 19 21 0 0
0.4748 3.5646 1.2381 -0.743 -0.515 -0.428 20 20 22 0 0
0.4577 3.5896 1.2328 -0.755 -0.333 -0.565 21 21 23 0 0
0.9933 2.6922 1.4531 -0.902 0.361 0.236 48 47 53 0 0
0.7294 3.1819 1.3477 -0.965 0.200 -0.168 34 34 36 0 0
0.3868 3.6093 1.2698 -0.963 -0.266 -0.030 19 19 21 0 0
0.7970 4.0871 1.1778 0.150 0.932 -0.331 45 44 49 0 0
0.6743 3.1302 1.4170 -0.140 0.916 0.375 65 65 68 0 0
0.6956 3.1333 1.4164 -0.089 0.931 0.353 55 55 59 0 0
0.6620 3.1246 1.4327 -0.530 0.814 0.239 68 68 70 0 0
0.7808 3.0998 1.4385 0.199 0.933 0.301 41 41 43 0 0
0.7810 3.1327 1.4312 -0.678 0.620 0.394 35 35 37 0 0
0.8467 4.0863 1.2192 0.060 0.983 -0.174 56 56 58 0 0
0.7077 3.1155 1.4494 0.039 0.977 0.211 57 56 60 0 0
0.7668 3.0951 1.4542 0.197 0.958 0.211 43 42 46 0 0
0.9099 4.0734 1.2361 0.050 0.995 0.090 82 84 84 0 0
0.9438 4.0718 1.2366 -0.038 0.990 0.139 91 93 92 0 0
0.7455 3.0949 1.4688 0.167 0.943 0.288 53 52 56 0 0
0.7876 3.0852 1.4712 0.183 0.941 0.286 40 40 44 0 0
0.9152 4.0738 1.2499 0.071 0.985 0.160 59 61 61 0 0
0.9632 4.0655 1.2520 -0.365 0.733 0.574 80 82 81 0 0
0.7644 3.0862 1.4855 0.109 0.909 0.402 46 46 50 0 0
0.9288 4.0703 1.2647 -0.120 0.948 0.294 57 58 59 0 0
0.9744 4.0632 1.2666 -0.309 0.861 0.405 76 77 77 0 0
0.7499 3.0818 1.5010 0.080 0.892 0.445 53 52 57 0 0
0.8007 3.0667 1.5049 0.134 0.894 0.428 41 40 45 0 0
0.9663 4.0700 1.2790 -0.089 0.990 0.110 75 76 78 0 0
0.7188 3.0713 1.5178 0.140 0.890 0.434 67 67 69 0 0
0.7396 3.0613 1.5349 0.121 0.897 0.426 63 63 66 0 0
0.7718 3.0576 1.5361 0.149 0.905 0.399 54 53 58 0 0
0.4776 3.4159 1.4511 -0.682 0.460 0.569 18 19 21 0 0
0.4625 3.5971 1.4234 -0.814 0.529 0.242 21 22 24 0 0
0.4749 3.6052 1.4217 -0.919 0.388 0.065 24 25 27 0 0
0.4956 3.6085 1.4212 -0.529 0.461 -0.712 24 25 27 0 0
0.7417 3.0495 1.5670 0.012 0.921 0.390 65 64 69 0 0
0.3720 3.5920 1.4371 -0.884 -0.234 0.405 21 21 23 0 0
0.4671 3.6125 1.4336 -0.687 0.075 0.723 23 24 26 0 0
0.5686 3.6307 1.4308 -0.122 -0.049 -0.991 20 21 24 0 0
0.4827 3.6065 1.4490 -0.687 0.075 0.723 25 26 28 0 0
1.0044 4.0814 1.3470 -0.461 0.881 0.105 108 110 109 0 0
0.3959 3.5838 1.4667 -0.788 -0.269 -0.554 21 21 23 0 0
0.4376 3.5899 1.4660 -0.530 0.399 0.748 24 24 26 0 0
0.4970 3.6012 1.4643 -0.770 -0.073 0.634 40 40 42 0 0
1.0126 4.0806 1.3614 -0.130 0.983 -0.126 88 89 87 0 0
0.5068 3.5985 1.4790 -0.933 -0.193 0.305 37 37 39 0 0
0.9802 4.0841 1.3741 -0.019 0.996 -0.092 67 67 68 0 0
1.0165 4.0817 1.3753 -0.027 0.990 -0.139 84 84 84 0 0
0.3996 3.5874 1.4934 -0.965 0.171 -0.200 22 22 24 0 0
0.5013 3.6045 1.4913 -0.916 -0.203 -0.345 31 32 34 0 0
0.9873 4.0838 1.3884 -0.070 0.992 -0.101 66 67 70 0 0
1.0186 4.0837 1.3890 -0.027 0.990 -0.139 79 80 82 0 0
0.3920 3.5948 1.5052 -0.793 0.121 -0.597 22 22 24 0 0
0.4932 3.6121 1.5032 -0.851 -0.392 -0.350 24 25 27 0 0
0.7723 3.2007 1.6349 -0.890 -0.379 0.255 20 20 22 0 0
0.4095 3.6235 1.5399 -0.172 0.884 0.435 25 26 28 0 0
0.4664 3.6058 1.5456 -0.802 0.595 0.062 33 33 36 0 0
0.4851 3.6103 1.5450 -0.988 -0.051 0.144 36 35 40 0 0
0.4531 3.7488 1.5112 -0.385 -0.507 -0.771 22 22 24 0 0
0.4292 3.6150 1.5562 -0.382 0.817 0.432 33 34 36 0 0
0.4690 3.6073 1.5591 -0.851 0.494 0.179 32 32 35 0 0
0.4826 3.6147 1.5577 -0.956 -0.105 0.276 32 32 36 0 0
0.4735 3.6351 1.5526 -0.833 -0.382 -0.400 35 35 39 0 0
0.4676 3.6535 1.5480 -0.796 -0.288 -0.532 39 39 43 0 0
0.4620 3.6718 1.5435 -0.879 -0.220 -0.424 43 43 46 0 0
0.4290 3.6029 1.5729 -0.497 0.678 0.542 39 40 42 0 0
0.4698 3.5944 1.5761 -0.876 0.456 0.159 47 48 50 0 0
0.4797 3.6040 1.5740 -0.988 0.127 0.089 53 54 56 0 0
0.4719 3.7441 1.5402 -0.709 -0.096 0.698 45 45 50 0 0
0.4315 3.5891 1.5901 -0.385 0.671 0.634 30 31 34 0 0
0.4570 3.5895 1.5907 -0.671 0.286 0.685 38 39 42 0 0
0.4794 3.5918 1.5908 -0.859 0.340 0.382 44 45 48 0 0
0.4784 3.7434 1.5542 -0.616 -0.232 0.753 46 46 50 0 0
1.0564 4.1016 1.4846 -0.126 0.930 0.345 137 137 138 0 0
0.4478 3.5825 1.6060 -0.506 0.572 0.646 28 29 33 0 0
0.4480 3.8371 1.5444 -0.839 0.361 -0.407 44 44 49 0 0
1.0777 4.0947 1.5012 -0.007 0.976 0.219 114 114 113 0 0
0.4218 3.5701 1.6220 -0.187 0.966 0.180 22 23 25 0 0
0.4518 3.5831 1.6198 -0.645 0.696 0.313 26 27 29 0 0
0.5250 3.7083 1.5917 -0.610 -0.451 0.651 36 37 41 0 0
0.4981 3.7382 1.5836 -0.643 -0.470 0.605 36 37 41 0 0
1.0509 4.0954 1.5144 0.136 0.991 -0.006 79 79 79 0 0
1.0987 4.0879 1.5177 -0.077 0.976 0.204 99 99 99 0 0
0.5300 3.7084 1.6057 -0.761 -0.639 0.112 36 37 41 0 0
0.5018 3.7391 1.5973 -0.731 -0.652 0.199 36 37 41 0 0
1.0042 4.1056 1.5245 0.168 0.980 -0.105 59 59 59 0 0
1.0824 4.0837 1.5325 0.058 0.993 -0.098 77 77 77 0 0
1.1184 4.0817 1.5341 0.058 0.993 -0.098 95 95 95 0 0
0.4293 3.5715 1.6496 -0.264 0.911 -0.316 24 25 27 0 0
1.0261 4.0983 1.5412 0.110 0.959 -0.261 58 58 58 0 0
1.0661 4.0943 1.5436 0.110 0.959 -0.261 77 77 77 0 0
1.0096 4.1090 1.5521 0.115 0.922 -0.371 65 66 65 0 0
1.0602 4.1001 1.5562 0.136 0.941 -0.311 80 81 81 0 0
1.0978 4.0974 1.5582 0.136 0.942 -0.307 99 99 99 0 0
1.0397 4.1126 1.5665 0.202 0.967 -0.157 83 85 84 0 0
1.0944 4.1020 1.5712 0.202 0.967 -0.157 103 105 104 0 0
0.4908 3.6209 1.6813 -0.879 -0.473 0.055 44 45 49 0 0
0.4762 3.6445 1.6749 -0.497 0.188 -0.847 38 39 44 0 0
0.4431 3.8275 1.6282 -0.494 -0.388 -0.778 23 24 26 0 0
0.4901 3.6243 1.6943 -0.895 -0.439 0.080 48 49 53 0 0
0.4788 3.6459 1.6885 -0.978 0.122 -0.171 43 44 49 0 0
0.4516 3.7665 1.6574 -0.954 -0.271 -0.133 45 46 50 0 0
0.4492 3.7827 1.6533 -0.969 -0.208 -0.131 45 46 50 0 0
1.0807 4.1143 1.5961 0.152 0.981 -0.124 132 133 132 0 0
0.4510 3.5581 1.7232 0.074 0.805 0.589 31 31 35 0 0
0.4914 3.6265 1.7078 -0.865 -0.383 -0.324 38 39 43 0 0
0.4789 3.6488 1.7017 -0.942 0.324 -0.084 54 55 59 0 0
1.0825 4.1165 1.6099 0.189 0.967 -0.170 114 116 113 0 0
1.1029 4.1219 1.6094 -0.792 0.134 0.596 164 164 164 0 0
0.4813 3.6047 1.7267 -0.445 0.362 -0.819 28 29 31 0 0
0.4838 3.6337 1.7195 -0.865 -0.383 -0.324 21 22 26 0 0
0.4881 3.7670 1.6863 -0.606 -0.236 0.760 42 43 47 0 0
0.4616 3.7964 1.6778 -0.617 -0.136 0.775 32 33 37 0 0
1.0813 4.1201 1.6233 0.169 0.968 -0.185 95 97 95 0 0
1.1252 4.1146 1.6265 0.029 0.992 -0.122 148 148 148 0 0
0.4779 3.5943 1.7431 -0.877 -0.386 -0.286 35 36 38 0 0
0.4819 3.6073 1.7400 -0.757 -0.017 -0.653 24 25 27 0 0
0.4621 3.6338 1.7324 -0.890 -0.431 -0.153 22 23 26 0 0
0.4439 3.6594 1.7252 -0.796 -0.604 -0.040 19 20 24 0 0
0.4683 3.8548 1.6771 -0.669 0.565 -0.483 32 33 36 0 0
1.1252 4.1176 1.6401 0.088 0.958 -0.271 136 136 136 0 0
1.1581 4.1173 1.6416 0.158 0.931 -0.330 178 178 178 0 0
0.4471 3.5691 1.7620 -0.441 0.699 -0.564 32 32 36 0 0
0.4789 3.7479 1.7182 -0.698 0.696 0.171 36 37 41 0 0
1.1054 4.1150 1.6542 0.066 0.968 -0.244 85 85 87 0 0
1.1186 4.1237 1.6526 -0.772 0.428 -0.470 131 131 131 0 0
0.4898 3.7747 1.7258 -0.955 0.290 -0.057 35 36 40 0 0
1.0658 4.1215 1.6650 0.015 0.961 -0.276 71 71 73 0 0
1.1040 4.1186 1.6675 0.040 0.966 -0.254 86 86 88 0 0
1.1139 4.1289 1.6654 -0.922 0.099 -0.373 138 138 138 0 0
0.5041 3.7398 1.7491 -0.574 -0.381 -0.725 23 24 26 0 0
0.4917 3.7616 1.7430 -0.658 -0.587 -0.472 24 25 27 0 0
0.4838 3.7958 1.7339 -0.924 -0.283 -0.257 33 34 36 0 0
0.4758 3.8150 1.7286 -0.905 -0.267 -0.331 32 33 35 0 0
1.0641 4.1253 1.6782 0.015 0.961 -0.276 75 75 77 0 0
0.5894 3.9784 1.7062 0.163 0.223 -0.961 32 32 36 0 0
0.7610 4.1543 1.6699 -0.797 0.593 0.114 20 16 20 0 0
0.4705 3.7642 1.7689 -0.887 -0.157 -0.433 42 43 47 0 0
0.4830 3.9053 1.7333 -0.212 0.967 -0.141 12 12 14 0 0
1.0890 4.1346 1.7056 0.209 0.975 0.072 110 111 113 0 0
0.4677 3.7984 1.7737 -0.988 0.079 0.129 45 46 50 0 0
0.4798 3.8952 1.7494 -0.731 -0.008 -0.682 15 15 17 0 0
1.1226 4.1369 1.7211 -0.112 0.863 0.493 178 178 178 0 0
0.4794 3.6139 1.8358 -0.721 0.649 -0.242 23 23 25 0 0
0.4956 3.8602 1.7730 -0.730 -0.659 -0.182 41 41 45 0 0
0.4783 3.8842 1.7658 -0.708 -0.586 -0.394 37 37 39 0 0
0.4839 3.8960 1.7631 -0.541 -0.415 -0.732 30 30 32 0 0
1.1398 4.1321 1.7376 -0.203 0.798 0.568 176 176 176 0 0
0.4603 3.8674 1.7829 -0.849 0.368 0.379 47 48 53 0 0
1.1286 4.1254 1.7531 0.191 0.981 0.032 113 115 115 0 0
1.1668 4.1228 1.7560 -0.048 0.945 0.322 171 171 170 0 0
0.8006 4.0185 1.7766 -0.422 0.714 0.559 28 27 33 0 0
0.7762 4.1616 1.7379 -0.612 0.628 0.480 38 37 43 0 0
1.1942 4.1282 1.7706 -0.439 0.493 0.751 193 193 191 0 0
0.4991 3.9112 1.8011 -0.679 0.394 0.620 48 48 50 0 0
0.5051 3.9226 1.7984 -0.813 0.496 -0.305 48 48 52 0 0
0.5151 3.9320 1.7966 -0.272 0.406 -0.872 48 47 52 0 0
0.7811 4.1621 1.7519 -0.461 0.761 0.456 47 46 52 0 0
1.0839 4.1372 1.7762 0.233 0.959 -0.159 75 77 77 0 0
0.4898 3.3070 1.9729 -0.560 -0.204 0.803 65 65 67 0 0
0.5051 3.9255 1.8114 -0.368 0.726 0.580 27 26 30 0 0
0.7875 4.1620 1.7662 -0.799 0.509 0.320 48 45 52 0 0
1.1531 4.1233 1.7984 0.265 0.938 -0.225 98 100 99 0 0
0.5080 3.8532 1.8443 -0.444 0.896 -0.025 20 21 23 0 0
0.5364 3.8528 1.8462 -0.853 0.498 0.159 28 28 30 0 0
0.5215 3.9050 1.8315 -0.468 0.567 0.678 34 32 36 0 0
0.7937 4.1620 1.7805 -0.506 0.850 0.149 46 45 50 0 0
1.0795 4.1452 1.8025 0.241 0.947 -0.212 75 76 77 0 0
1.1521 4.1268 1.8118 0.265 0.938 -0.225 100 100 101 0 0
0.5076 3.8563 1.8573 -0.642 0.739 -0.204 14 14 16 0 0
0.5147 3.8673 1.8548 -0.956 -0.021 -0.293 14 14 16 0 0
0.5138 3.8826 1.8508 -0.461 0.630 -0.626 16 14 17 0 0
0.5137 3.8974 1.8468 -0.442 0.773 -0.455 17 15 18 0 0
0.5113 3.9133 1.8425 -0.792 0.317 0.521 20 18 23 0 0
1.1519 4.1299 1.8254 0.271 0.952 -0.142 98 98 100 0 0
0.4289 3.7685 1.8894 -0.629 0.632 0.453 43 44 47 0 0
0.5082 3.8589 1.8705 -0.604 0.719 -0.344 14 14 16 0 0
0.5145 3.8703 1.8678 -0.647 0.224 -0.729 13 12 14 0 0
0.5209 3.8964 1.8613 -0.302 0.133 -0.944 14 12 15 0 0
0.5481 3.9409 1.8512 -0.308 0.535 0.787 14 11 18 0 0
0.6648 3.9541 1.8552 -0.543 -0.533 -0.648 29 28 33 0 0
0.7952 4.0945 1.8263 -0.368 0.905 0.214 37 37 39 0 0
0.8144 4.0998 1.8261 -0.939 0.160 0.306 37 37 39 0 0
1.0830 4.1497 1.8302 0.247 0.953 -0.175 94 94 96 0 0
0.5261 3.8670 1.8833 -0.981 -0.068 -0.180 20 20 22 0 0
0.5045 3.8933 1.8749 -0.436 0.174 -0.883 17 16 19 0 0
0.5138 3.9178 1.8689 -0.893 0.450 0.011 14 13 17 0 0
0.5424 3.9174 1.8709 -0.491 0.755 -0.434 13 11 15 0 0
0.5537 3.9262 1.8693 -0.268 0.791 -0.550 13 11 16 0 0
0.6187 3.9365 1.8709 -0.163 0.656 0.737 15 13 16 0 0
0.6411 3.9396 1.8715 -0.206 0.633 0.747 16 14 17 0 0
0.6765 3.9510 1.8708 -0.381 -0.496 -0.780 22 21 25 0 0
0.8072 4.0917 1.8419 -0.795 0.414 -0.443 58 58 60 0 0
0.8065 4.1066 1.8378 -0.900 0.435 0.024 56 56 58 0 0
0.4301 3.7437 1.9237 -0.771 0.596 0.226 59 60 62 0 0
0.4408 3.7527 1.9220 -0.656 0.547 -0.520 51 52 55 0 0
0.5962 3.9657 1.8754 0.062 0.293 -0.954 13 12 17 0 0
0.6234 3.9664 1.8771 -0.406 -0.465 -0.787 13 12 17 0 0
0.7922 4.0873 1.8560 0.127 0.143 -0.982 43 41 46 0 0
0.7962 4.0999 1.8529 -0.572 0.425 -0.701 45 43 48 0 0
0.8059 4.1098 1.8509 -0.708 0.505 -0.494 49 47 50 0 0
0.4530 3.7637 1.9337 -0.587 0.803 -0.106 59 60 64 0 0
0.4659 3.7715 1.9325 -0.579 0.780 0.236 45 45 50 0 0
0.4685 3.7850 1.9290 -0.908 -0.047 0.416 34 34 38 0 0
0.4720 3.7980 1.9258 -0.992 -0.106 0.071 26 26 30 0 0
0.4703 3.9173 1.8936 -0.535 0.682 -0.500 42 43 45 0 0
0.5566 3.9451 1.8921 -0.650 0.509 -0.564 34 33 38 0 0
0.5568 3.9743 1.8842 -0.002 0.395 -0.918 26 25 30 0 0
0.6427 3.9742 1.8902 -0.759 -0.591 0.275 17 16 20 0 0
0.7448 3.9665 1.8992 0.265 0.930 0.253 16 14 17 0 0
1.2101 4.1305 1.8871 0.273 0.891 -0.363 87 87 87 0 0
0.4644 3.6546 1.9778 -0.243 0.968 -0.062 26 27 31 0 0
0.4880 3.7772 1.9463 -0.666 -0.024 0.746 37 36 41 0 0
0.4475 3.8440 1.9255 -0.329 0.733 0.596 26 27 29 0 0
0.7323 3.9610 1.9139 0.136 0.812 0.568 38 36 40 0 0
0.8079 4.1728 1.8621 -0.786 0.427 -0.448 30 28 31 0 0
1.1989 4.1386 1.8987 0.273 0.891 -0.363 84 84 84 0 0
0.5013 3.7728 1.9624 -0.735 -0.094 0.672 22 21 25 0 0
0.4936 3.7920 1.9566 -0.735 -0.094 0.672 27 27 30 0 0
0.6175 3.9192 1.9310 -0.314 0.468 -0.826 47 47 51 0 0
0.6291 3.9428 1.9255 -0.921 0.344 -0.183 46 45 50 0 0
0.6257 3.9593 1.9208 -0.969 0.243 -0.039 45 44 49 0 0
1.1920 4.1448 1.9110 0.240 0.888 -0.392 84 84 83 0 0
1.2478 4.1345 1.9178 0.218 0.867 -0.448 125 125 124 0 0
0.4790 3.8029 1.9665 -0.947 -0.110 0.302 15 16 18 0 0
0.7263 4.0728 1.9112 -0.839 -0.104 0.534 48 47 52 0 0
0.7243 4.0883 1.9068 -0.810 -0.468 -0.353 49 48 53 0 0
0.8217 4.1866 1.8872 -0.492 0.739 -0.459 66 65 67 0 0
1.2399 4.1411 1.9301 0.186 0.917 -0.352 133 133 131 0 0
0.5040 3.7771 1.9892 -0.844 -0.161 0.512 16 16 18 0 0
0.4963 3.8113 1.9793 -0.554 0.434 0.711 13 14 16 0 0
0.4976 3.8700 1.9634 -0.368 0.391 0.844 19 19 21 0 0
1.1912 4.1513 1.9383 0.222 0.952 -0.209 90 90 88 0 0
1.2455 4.1417 1.9449 0.070 0.953 -0.293 142 142 140 0 0
0.4748 3.7662 2.0039 -0.202 -0.113 -0.973 21 22 24 0 0
0.5225 3.7549 2.0107 -0.483 -0.489 -0.726 19 19 21 0 0
0.4936 3.8007 1.9959 -0.887 -0.461 0.006 15 15 17 0 0
0.4939 3.8155 1.9919 -0.859 0.248 0.449 15 15 17 0 0
0.5103 3.8809 1.9752 0.070 0.861 0.503 16 16 18 0 0
0.8142 3.9314 1.9844 0.348 0.469 -0.812 35 33 36 0 0
1.1418 4.1618 1.9462 0.219 0.976 -0.017 71 72 74 0 0
1.2058 4.1477 1.9549 0.206 0.978 0.044 97 97 95 0 0
0.5031 3.7534 2.0235 -0.772 0.071 0.632 38 37 42 0 0
0.6009 3.8653 2.0003 -0.231 0.418 0.879 14 14 16 0 0
0.5803 3.8911 1.9917 -0.290 0.249 0.924 15 15 17 0 0
0.5409 3.9266 1.9789 -0.494 -0.316 0.810 18 18 20 0 0
0.4265 3.5899 2.0905 -0.714 0.699 -0.034 52 53 57 0 0
0.5652 3.8454 2.0310 -0.549 0.772 0.321 33 33 35 0 0
0.5394 3.9037 2.0128 0.231 0.272 -0.934 17 17 19 0 0
0.6015 3.9361 2.0367 -0.546 0.436 0.715 42 41 46 0 0
1.0215 4.1581 2.0096 -0.192 0.909 -0.370 67 66 71 0 0
1.2150 4.1439 2.0296 0.298 0.944 -0.140 106 106 109 0 0
0.5939 3.9459 2.0612 -0.942 -0.136 0.308 48 47 52 0 0
0.6199 3.9472 2.0630 -0.874 -0.421 0.241 47 46 51 0 0
0.6100 3.9670 2.0566 -0.837 -0.435 0.332 46 45 50 0 0
0.8460 4.1871 2.0151 -0.317 0.903 -0.290 58 57 63 0 0
1.2303 4.1462 2.0742 0.289 0.927 -0.239 64 68 70 0 0
0.4834 3.6971 2.1496 -0.789 -0.271 0.551 26 26 28 0 0
0.5315 3.7612 2.1357 -0.249 0.946 -0.209 40 40 43 0 0
0.4387 3.7401 2.1474 0.190 0.903 0.386 24 24 26 0 0
0.5144 3.7735 2.1447 0.106 0.937 -0.332 34 35 37 0 0
0.5921 3.8065 2.1423 -0.460 0.252 0.852 33 34 36 0 0
0.5819 3.8719 2.1229 -0.531 -0.123 0.838 24 25 27 0 0
0.5516 3.9028 2.1114 -0.635 -0.401 0.660 21 22 24 0 0
0.8673 4.1860 2.0595 -0.392 0.841 0.374 73 71 74 0 0
1.2569 4.1404 2.1075 0.268 0.945 -0.185 66 66 71 0 0
0.5813 3.8900 2.1317 -0.582 -0.300 0.756 34 35 37 0 0
1.2957 4.1353 2.1716 0.258 0.965 0.038 91 92 93 0 0
0.6477 3.9414 2.1794 -0.608 -0.507 -0.610 23 23 25 0 0
1.2919 4.1401 2.1846 0.263 0.963 0.056 92 92 95 0 0
0.6239 4.0009 2.1739 0.071 0.992 0.101 25 25 27 0 0
0.5168 3.9855 2.1816 -0.192 0.939 -0.286 18 18 20 0 0
1.1638 2.6666 2.6456 -0.055 0.726 -0.685 37 38 42 0 0
0.5984 3.8596 2.2545 -0.412 -0.478 -0.776 14 15 17 0 0
0.5673 4.0091 2.2076 -0.607 0.604 -0.517 14 13 17 0 0
1.2569 4.1381 2.2408 0.199 0.952 -0.231 88 88 89 0 0
1.3156 4.1299 2.2641 0.268 0.953 -0.139 105 106 105 0 0
0.5311 3.9455 2.2503 -0.578 0.440 0.687 36 37 41 0 0
1.3231 4.1296 2.2799 0.271 0.949 -0.163 90 92 90 0 0
1.1223 2.9024 2.6360 -0.545 -0.594 -0.592 64 61 67 0 0
0.7486 4.0442 2.2584 -0.037 0.570 -0.821 40 41 46 0 0
1.3267 4.1312 2.2947 0.271 0.949 -0.163 88 88 88 0 0
0.7218 4.0457 2.2692 -0.007 0.910 0.415 49 50 54 0 0
0.7414 4.0507 2.2698 0.019 0.961 0.274 49 50 55 0 0
0.7594 4.0566 2.2701 -0.074 0.945 0.318 49 48 53 0 0
0.8886 4.0973 2.2720 -0.718 0.092 0.690 58 57 62 0 0
1.3595 4.1196 2.3166 0.257 0.956 -0.137 87 87 88 0 0
0.9034 4.0932 2.2892 -0.766 -0.029 0.643 49 48 53 0 0
1.3253 4.1228 2.3268 0.229 0.964 -0.136 84 84 86 0 0
0.3716 3.7611 2.3433 -0.897 -0.316 -0.308 26 27 29 0 0
0.7243 4.0504 2.2963 0.062 0.993 -0.097 37 39 43 0 0
0.7721 4.0563 2.2999 -0.201 0.976 -0.089 40 39 44 0 0
0.8732 4.0958 2.2994 -0.015 0.988 0.154 45 44 50 0 0
0.7341 4.0484 2.3122 0.075 0.982 -0.172 27 31 33 0 0
0.7670 4.0470 2.3163 -0.233 0.963 0.135 28 32 35 0 0
0.4591 3.7632 2.3806 0.211 0.864 -0.457 13 14 16 0 0
0.3959 3.7411 2.3940 -0.899 0.375 -0.226 24 25 27 0 0
0.9161 4.0694 2.3553 -0.358 0.851 -0.385 52 51 56 0 0
0.8120 4.0338 2.3682 -0.113 0.708 0.697 43 44 46 0 0
0.8291 4.0402 2.3683 -0.033 0.775 0.632 43 43 47 0 0
0.9431 4.0595 2.3758 -0.530 0.794 0.296 53 52 57 0 0
0.8174 4.0637 2.3741 0.026 0.841 0.540 50 49 55 0 0
0.8265 4.0474 2.3944 -0.029 0.894 -0.446 52 52 56 0 0
0.8526 4.0496 2.3969 0.071 0.997 -0.027 53 52 56 0 0
0.9291 4.0573 2.4037 -0.378 0.868 0.324 48 48 50 0 0
0.9432 4.0654 2.4030 -0.518 0.836 0.183 46 46 48 0 0
0.9275 4.0461 2.4214 -0.025 0.993 0.112 45 45 47 0 0
0.9442 4.0530 2.4214 -0.228 0.875 -0.428 41 41 43 0 0
0.9633 4.0588 2.4219 -0.548 0.783 -0.295 42 42 44 0 0
0.9220 4.0518 2.4335 -0.001 0.947 0.320 12 12 14 0 0
0.9401 4.0580 2.4338 -0.228 0.875 -0.428 9 10 12 0 0
0.9617 4.0626 2.4350 -0.548 0.783 -0.295 17 18 20 0 0
0.9803 4.0568 2.4537 -0.310 0.833 0.459 17 18 20 0 0
0.8233 3.9413 2.4841 -0.021 0.535 0.845 9 10 12 0 0
0.9953 4.0526 2.4714 -0.310 0.833 0.459 32 33 35 0 0
1.0355 4.0666 2.4868 -0.590 0.767 0.252 41 40 45 0 0
1.1774 4.0606 2.5068 0.172 0.982 0.073 56 55 61 0 0
1.0405 4.0523 2.5065 -0.774 0.504 0.384 29 29 31 0 0
1.0517 4.0620 2.5049 -0.628 0.768 0.122 41 40 46 0 0
1.0851 4.0614 2.5095 -0.035 0.995 -0.090 47 46 52 0 0
1.1594 4.0721 2.5157 -0.203 0.596 -0.777 62 63 67 0 0
1.0478 4.0519 2.5223 -0.674 0.687 0.272 32 32 34 0 0
1.0543 4.0639 2.5194 -0.241 0.970 -0.040 46 46 51 0 0
1.1313 4.0730 2.5266 -0.000 0.998 -0.063 62 62 67 0 0
1.1735 4.0686 2.5335 -0.199 0.553 -0.809 67 68 71 0 0
1.0672 4.0458 2.5414 -0.851 0.438 0.290 41 41 43 0 0
1.0696 4.0597 2.5374 -0.222 0.973 -0.064 53 52 58 0 0
1.1272 4.0629 2.5440 -0.085 0.977 -0.198 60 59 65 0 0
1.0738 4.0608 2.5523 -0.493 0.870 -0.007 54 54 57 0 0
1.0815 4.0723 2.5497 -0.687 0.707 -0.167 60 60 63 0 0
1.0753 4.0631 2.5665 -0.750 0.662 -0.004 60 60 62 0 0
1.0770 4.0774 2.5622 -0.899 0.436 -0.039 63 63 65 0 0
1.0692 4.0539 2.5833 -0.838 0.330 -0.435 53 54 58 0 0
1.0778 4.0650 2.5810 -0.940 0.333 -0.073 64 64 66 0 0
1.0826 4.0779 2.5776 -0.939 0.324 0.116 66 66 68 0 0
1.0573 4.0475 2.5984 -0.568 -0.045 -0.822 59 60 64 0 0
1.0688 4.0723 2.5922 -0.729 -0.114 -0.676 63 64 67 0 0
0.9798 4.0453 2.6177 -0.463 0.618 -0.635 52 53 57 0 0
0.9642 4.0708 2.6220 -0.520 0.714 0.469 32 32 36 0 0
1.0342 3.9889 2.7173 -0.047 0.703 0.710 56 56 58 0 0
1.0839 4.0716 2.6979 -0.371 0.926 -0.073 51 50 55 0 0
1.0129 4.0023 2.7246 -0.222 -0.200 -0.954 60 60 62 0 0
1.0903 4.0716 2.7136 -0.526 0.808 0.265 51 50 55 0 0
1.1035 4.0806 2.7127 -0.526 0.808 0.265 53 52 57 0 0
1.1232 4.1109 2.7503 0.368 0.693 -0.621 55 54 59 0 0
1.0715 4.1708 2.7521 0.115 0.573 -0.812 57 57 59 0 0
0.9384 4.2318 2.7835 -0.798 -0.588 0.131 66 65 68 0 0
1.0374 4.2341 2.8135 0.229 0.825 -0.516 54 53 58 0 0
1.0351 4.2382 2.8265 0.305 0.899 -0.313 51 50 55 0 0
1.1654 2.3831 3.5238 -0.745 0.051 0.665 185 185 185 0 0
1.0317 4.2340 2.8712 -0.623 0.768 0.149 46 45 50 0 0
1.0606 4.2241 2.8943 -0.108 0.984 -0.143 42 41 46 0 0
1.0834 4.2435 2.8916 0.090 0.989 -0.119 28 28 32 0 0
0.7085 4.0522 2.9065 -0.413 -0.369 -0.833 33 33 37 0 0
1.0565 4.2289 2.9066 -0.688 -0.144 -0.711 44 43 48 0 0
1.0674 4.2537 2.9001 -0.717 0.695 0.049 31 31 35 0 0
1.4165 4.2662 2.9566 0.218 0.974 -0.068 82 83 84 0 0
0.6673 4.1051 2.8955 -0.452 -0.263 -0.852 36 37 42 0 0
1.1826 4.2651 2.9311 0.221 0.957 -0.190 63 64 66 0 0
1.0856 4.2101 2.9625 -0.919 -0.325 0.222 49 48 53 0 0
1.0588 4.2666 2.9382 -0.958 -0.260 0.119 43 44 49 0 0
1.0564 4.2707 2.9510 -0.946 -0.282 0.160 47 46 51 0 0
1.2860 2.2672 3.7033 -0.685 -0.727 0.042 192 192 192 0 0
1.0590 4.2578 2.9707 -0.990 0.044 -0.134 55 54 59 0 0
1.0584 4.2729 2.9653 -0.942 -0.337 -0.003 50 49 54 0 0
1.0587 4.2758 2.9791 -0.839 0.034 -0.543 50 51 55 0 0
1.0385 4.2730 2.9911 -0.382 0.509 -0.772 57 56 61 0 0
1.0463 4.2843 2.9885 -0.630 0.054 -0.774 55 55 59 0 0
1.2016 2.3547 3.7083 -0.758 0.614 0.221 183 181 182 0 0
1.2546 4.2853 3.0417 0.200 0.937 -0.286 75 76 78 0 0
1.3686 4.2814 3.0642 0.223 0.953 -0.207 78 79 78 0 0
1.4305 4.2703 3.0796 0.223 0.953 -0.207 74 75 75 0 0
0.9667 4.2081 3.0298 -0.545 0.767 -0.338 53 52 57 0 0
0.9905 4.2564 3.0173 -0.594 0.803 -0.046 61 60 65 0 0
1.0448 4.2615 3.0257 -0.794 0.591 -0.144 62 61 66 0 0
1.3247 4.2882 3.0688 0.275 0.801 -0.531 76 76 77 0 0
1.3804 4.2796 3.0822 0.254 0.905 -0.342 76 76 77 0 0
1.3706 4.2869 3.0930 0.230 0.950 -0.209 65 63 67 0 0
0.7856 4.2097 3.0241 -0.821 -0.309 -0.479 50 50 52 0 0
1.0224 4.2629 3.0504 -0.730 0.663 -0.166 62 62 65 0 0
1.0264 4.2758 3.0466 -0.683 0.687 -0.248 61 61 64 0 0
1.0357 4.2864 3.0446 -0.785 0.612 -0.091 58 58 61 0 0
1.3737 4.2887 3.1082 0.219 0.916 -0.336 56 55 58 0 0
0.7585 4.1815 3.0433 0.225 0.952 -0.208 49 48 53 0 0
0.9971 4.2624 3.0604 -0.188 0.813 -0.551 62 62 64 0 0
1.0239 4.2652 3.0645 -0.645 0.744 -0.173 61 61 63 0 0
1.0331 4.2759 3.0625 -0.718 0.690 -0.095 58 58 60 0 0
1.0414 4.2869 3.0602 -0.716 0.675 0.178 58 58 60 0 0
1.5002 4.2839 3.1493 0.180 0.861 -0.476 64 64 67 0 0
0.8461 4.2021 3.0673 -0.218 -0.261 -0.940 54 54 56 0 0
1.0338 4.2786 3.0764 -0.718 0.690 -0.095 53 53 55 0 0
0.8130 4.2058 3.0741 0.110 0.196 -0.974 55 55 58 0 0
1.0225 4.2866 3.0860 -0.482 0.608 -0.631 45 45 47 0 0
0.8175 4.1950 3.1078 0.085 0.899 -0.430 52 51 56 0 0
1.0323 4.3031 3.1115 -0.282 0.902 0.326 39 38 43 0 0
1.0471 4.3112 3.1115 -0.480 0.725 0.493 40 39 45 0 0
1.4326 4.3097 3.1883 0.131 0.990 -0.052 71 72 74 0 0
1.0523 4.2972 3.1323 -0.244 0.848 0.471 45 44 49 0 0
1.0665 4.3058 3.1321 -0.432 0.696 0.573 49 48 54 0 0
1.0800 4.3145 3.1316 -0.432 0.696 0.573 49 48 53 0 0
1.0300 4.2954 3.1432 -0.088 0.966 0.243 52 51 56 0 0
1.0561 4.2986 3.1473 -0.432 0.673 0.601 47 46 51 0 0
1.0749 4.3051 3.1487 -0.604 0.416 0.680 35 34 40 0 0
1.0416 4.2933 3.1611 -0.101 0.974 0.201 50 49 54 0 0
1.0772 4.2924 3.1686 -0.509 0.557 0.656 47 46 51 0 0
1.0734 4.2823 3.1863 -0.402 0.653 0.642 50 49 54 0 0
1.0870 4.2911 3.1859 -0.402 0.653 0.642 48 47 52 0 0
1.1061 4.2975 3.1874 -0.533 0.551 0.642 42 41 46 0 0
1.1347 4.3294 3.1817 -0.069 0.988 -0.136 59 58 63 0 0
1.3646 4.3207 3.2317 -0.162 0.986 0.029 69 69 71 0 0
1.0708 4.2865 3.1991 -0.969 -0.247 -0.001 50 49 54 0 0
1.0614 4.3054 3.1903 -0.783 0.449 -0.430 48 47 52 0 0
1.0788 4.3125 3.1912 -0.419 0.758 -0.500 42 42 46 0 0
1.1128 4.3272 3.1929 -0.156 0.726 -0.670 57 57 61 0 0
1.0744 4.2879 3.2141 -0.937 -0.333 -0.108 51 50 55 0 0
1.0608 4.3087 3.2037 -0.541 0.841 -0.025 49 48 53 0 0
1.0744 4.3175 3.2033 -0.541 0.841 -0.025 43 43 46 0 0
1.0881 4.3263 3.2030 -0.541 0.841 -0.025 54 54 56 0 0
1.1415 4.3326 3.2117 -0.044 0.989 -0.139 59 59 62 0 0
1.0551 4.2551 3.2369 -0.844 0.321 -0.429 46 45 50 0 0
1.0585 4.2833 3.2273 -0.741 0.647 -0.183 51 50 55 0 0
1.0677 4.3087 3.2199 -0.680 0.730 0.063 49 48 53 0 0
1.0783 4.3188 3.2185 -0.680 0.730 0.063 44 43 46 0 0
1.0904 4.3283 3.2175 -0.482 0.871 0.096 53 53 55 0 0
1.1024 4.3378 3.2165 -0.437 0.900 0.007 58 58 60 0 0
1.1437 4.3347 3.2262 -0.044 0.989 -0.139 59 59 62 0 0
1.1704 4.3380 3.2306 -0.119 0.986 -0.113 60 59 64 0 0
1.0491 4.2904 3.2375 -0.167 0.943 -0.287 53 52 57 0 0
1.0702 4.2959 3.2400 -0.717 0.696 -0.044 55 54 59 0 0
1.0708 4.3104 3.2348 -0.680 0.730 0.063 51 50 55 0 0
1.0815 4.3205 3.2333 -0.680 0.730 0.063 44 44 46 0 0
1.0952 4.3293 3.2330 -0.482 0.871 0.096 54 54 56 0 0
1.1059 4.3394 3.2315 -0.437 0.900 0.007 57 57 59 0 0
1.3295 4.3330 3.2807 -0.386 0.922 0.036 67 67 69 0 0
0.9889 4.2907 3.2395 -0.021 0.483 -0.875 51 50 55 0 0
1.0452 4.2804 3.2552 -0.462 0.252 -0.850 52 52 56 0 0
1.0486 4.2937 3.2510 -0.191 0.940 -0.283 54 54 57 0 0
1.0706 4.2988 3.2538 -0.600 0.788 -0.141 55 55 58 0 0
1.0695 4.3140 3.2480 -0.496 0.860 -0.118 51 50 54 0 0
1.0687 4.3027 3.2668 -0.585 0.810 -0.040 54 54 56 0 0
1.0695 4.3171 3.2617 -0.416 0.906 -0.071 52 52 54 0 0
1.0742 4.3181 3.2771 -0.561 0.827 0.032 52 52 54 0 0
0.9417 2.5066 3.9356 -0.184 -0.005 -0.983 184 184 184 0 0
0.6833 4.0587 3.3039 -0.843 -0.138 -0.519 31 31 33 0 0
1.0775 4.3197 3.2921 -0.561 0.827 0.032 52 52 54 0 0
1.1026 4.3382 3.2906 -0.541 0.841 -0.025 54 54 56 0 0
1.0777 4.3226 3.3059 -0.541 0.841 -0.025 52 52 54 0 0
1.1052 4.3402 3.3053 -0.432 0.899 -0.074 53 53 55 0 0
1.0799 4.3247 3.3204 -0.542 0.837 0.076 52 52 54 0 0
1.1079 4.3420 3.3201 -0.454 0.891 0.017 53 53 55 0 0
1.1236 4.3500 3.3205 -0.454 0.891 0.017 57 57 59 0 0
1.1295 4.3506 3.3365 -0.445 0.895 -0.004 57 57 59 0 0
1.1328 4.3522 3.3515 -0.445 0.895 -0.004 56 56 58 0 0
1.2192 4.3449 3.3734 0.022 0.995 -0.096 59 59 61 0 0
1.0881 4.3303 3.3647 -0.385 0.923 -0.008 52 52 54 0 0
1.1360 4.3539 3.3665 -0.445 0.895 -0.004 55 55 57 0 0
1.0835 4.3354 3.3766 -0.243 0.966 -0.086 53 53 55 0 0
1.1345 4.3576 3.3797 -0.510 0.859 -0.033 56 56 58 0 0
1.0854 4.3376 3.3911 -0.207 0.969 -0.133 53 53 55 0 0
1.1369 4.3596 3.3944 -0.510 0.859 -0.033 56 56 58 0 0
1.0871 4.3399 3.4055 -0.207 0.969 -0.133 52 52 54 0 0
1.1394 4.3616 3.4092 -0.557 0.829 0.049 56 56 58 0 0
1.0901 4.3417 3.4204 -0.266 0.953 -0.143 50 50 52 0 0
1.2712 4.3533 3.4575 -0.388 0.721 0.575 61 61 63 0 0
1.0854 4.3467 3.4323 -0.130 0.971 -0.199 50 50 52 0 0
1.0594 4.3463 3.4413 -0.121 0.969 -0.215 52 51 54 0 0
1.0841 4.3504 3.4455 -0.121 0.969 -0.215 51 51 54 0 0
1.1116 4.3532 3.4508 -0.356 0.925 -0.129 47 47 49 0 0
1.1295 4.3603 3.4522 -0.356 0.925 -0.129 52 52 54 0 0
1.1572 4.3633 3.4575 -0.258 0.964 -0.058 54 54 56 0 0
0.9456 4.3405 3.4318 0.174 0.954 -0.244 50 50 52 0 0
1.1308 4.3628 3.4665 -0.356 0.925 -0.129 52 52 54 0 0
1.1739 4.3592 3.4780 -0.029 0.976 -0.217 54 54 56 0 0
0.9339 4.3487 3.4406 0.240 0.927 -0.289 49 49 51 0 0
0.9897 4.3388 3.4576 0.289 0.895 -0.341 57 57 59 0 0
1.1324 4.3652 3.4810 -0.417 0.898 -0.139 53 53 55 0 0
1.2109 4.3614 3.5009 0.166 0.945 -0.282 55 55 57 0 0
0.9787 4.3466 3.4667 0.294 0.901 -0.318 66 66 68 0 0
0.9137 4.3491 3.4651 0.157 0.954 -0.256 48 48 50 0 0
0.9163 4.3509 3.4796 0.137 0.968 -0.208 49 49 51 0 0
1.0474 4.3551 3.5243 -0.275 0.936 -0.222 51 51 53 0 0
1.4321 4.4259 3.6357 0.206 0.641 -0.739 185 185 185 0 0
1.4081 4.4387 3.6401 0.206 0.641 -0.739 189 189 189 0 0
1.4074 4.4539 3.6340 0.081 0.558 -0.826 190 190 190 0 0
1.4192 4.4641 3.6329 0.137 0.708 -0.693 192 192 192 0 0
1.1212 4.3533 3.6178 -0.017 0.990 0.141 98 95 91 0 0
