ply
format ascii 1.0
element vertex 730
property float x
property float y
property float z
property uchar diffuse_red
property uchar diffuse_green
property uchar diffuse_blue
end_header
2.4498930610862404 2.575601789168625 2.886352751104429 45 44 49
2.4199686933863953 2.5745456862120433 2.903142081786961 46 45 50
2.4178655759143233 2.560424367042798 2.9039941724430354 47 46 52
2.3425198622608887 2.5802736794748253 2.946792933838718 47 46 52
2.2873701057926343 2.590500780658556 2.97801934008443 48 47 53
2.2303019270754447 2.6013942008411215 3.01033922739669 47 46 52
2.226028205003726 2.5879310255217938 3.012426305175597 49 48 53
2.1745908156609874 2.5959316689533436 3.041514827757235 51 50 55
2.191287495586774 2.5728819031501895 3.031595234759802 52 51 56
2.185638984506105 2.559998260266604 3.0344683098022234 56 55 58
2.1562879203926952 2.557745597207027 3.050907581516721 57 57 59
2.1424191222004874 2.5484798209984865 3.058483939812021 58 58 60
2.1542004001795334 2.5277833481361487 3.0513811553632935 60 60 63
2.1241944651917817 2.5256359754507955 3.068190845282136 61 60 65
2.174080101336231 2.488232886987415 3.0392879251118687 62 61 66
2.1076891652157363 2.5019789729048525 3.0769126935321394 63 62 67
2.0516620037512303 2.5109505789064768 3.1086027930948927 63 62 67
1.9454891758193646 2.541452142713289 3.1689714147457253 66 65 70
1.8848504723402955 2.5518798465550168 3.203286647257358 67 66 71
1.853723612127171 2.5494032662203465 3.2207184813277245 69 68 73
1.829553152509768 2.543847194122417 3.2341697545430645 69 69 71
1.8167113927006229 2.5333969349578225 3.2411413900785617 71 71 73
1.8167246938110295 2.5174784736740827 3.240762353726844 73 73 75
1.634286174227627 2.5783886021621782 3.344693126475745 74 74 77
1.617084441372724 2.569346504911814 3.3541474238290254 73 73 76
1.6000047927113372 2.5602061972446606 3.363530831806646 73 73 75
1.5580282779271262 2.5613431521707684 3.3871432438795033 73 73 75
1.5251997649265823 2.5585551877084347 3.4055239388497687 70 70 72
1.4947878166374073 2.5546631132033912 3.422521036413755 68 68 70
1.4673066738310934 2.5494722622388633 3.437841049794701 65 65 67
1.4383153562990283 2.5448056640647434 3.454021841002599 61 61 62
1.483640313186898 2.510000861982383 3.4277421354139377 63 63 63
1.4473808394707697 2.508220792135644 3.448074153441271 74 73 74
1.3854206594762513 2.516598537369389 3.48308405127022 85 83 84
1.3133118495369405 2.528784583138349 3.523885179691896 93 92 90
1.2257222902303617 2.546828031710665 3.5735213932546928 109 108 108
1.2220346293040407 2.5314849870109732 3.5752352942689023 140 138 141
1.2257591002471462 2.5132475998135497 3.57271688863435 179 177 180
1.2327496587299787 2.493777693950869 3.5683345562237445 190 190 192
1.2474564009446518 2.4713697273333604 3.559548055255247 193 193 195
1.1826763166737089 2.4797058589815277 3.5961414369315388 194 194 196
1.1864381023881658 2.4615051398321572 3.5936029206675317 195 195 195
1.157299549971865 2.455900426711319 3.6098445434730486 195 195 195
1.070709896932501 2.472009353497631 3.6588737722180698 196 196 196
1.0445722861996425 2.4649674992653363 3.6733956728738244 196 196 196
1.0449450040290895 2.4478898184297098 3.6727876284544396 196 196 196
0.9155251886181004 2.4793141702972594 3.746239867482821 197 197 197
0.8750474654625631 2.477201267430102 3.7689342776542416 197 197 197
0.84783274473615 2.4700504437982875 3.7840588441624337 197 197 197
0.8045551947637415 2.468717013074923 3.8083446224776596 198 198 198
0.7713481419720436 2.463555023399766 3.8268825987773174 198 198 198
0.6622731109551374 2.450819525650735 3.8878726947724656 199 199 199
0.6571220411450094 2.4351823414716236 3.890401994098144 199 199 199
0.6520943100739085 2.4195067396580163 3.8928610948013147 199 199 199
1.9307764645726635 1.7586826026294498 3.1589671214663504 203 203 203
1.937953360304246 1.7417620955154165 3.154539596495196 203 203 203
1.9404770368719961 1.7263973962614203 3.1527629495318354 204 204 204
1.9403227449314138 1.7119255959752546 3.152511848213711 204 204 204
1.9382470129629157 1.698089020909594 3.153355197820478 204 204 204
2.0483675214092805 1.6486039159247154 3.090325336515083 205 205 205
2.005214979532869 1.6479883743278454 3.1145576316508707 205 205 205
2.6753165647898753 4.175653530163155 2.8136129868940403 197 197 199
2.7051890813123447 4.136734674150832 2.7958318372573983 196 196 198
2.6877563598307326 4.13203921844078 2.805546473514869 196 196 198
2.67470197050772 4.1241437316873 2.8127154551139144 196 196 198
2.673978187570713 4.10740095091336 2.8127191443197996 196 196 198
2.6443777129124757 4.111239377061056 2.829499692028623 196 196 198
1.8928890444212272 4.60779937591425 3.2651585941095465 195 195 197
1.9082710080142968 4.577824120866138 3.255762774807639 194 194 196
1.9279832281342897 4.544921533740682 3.2438549904188285 194 194 196
1.9635800363850908 4.501047349240306 3.2227269826820084 194 194 194
2.3357205008991317 4.222980554403513 3.0062098979222154 194 194 194
2.3026163281263936 4.2280636199893795 3.0249957833054055 194 194 194
2.5368669329272175 4.048151362687345 2.8885873437970746 194 194 194
2.4855474805358995 4.0661844678979815 2.9179552070123655 193 193 193
2.226380614669189 4.226647223477294 3.067940946965453 193 193 193
2.2730811427705255 4.176664697362548 3.040405476937097 193 193 193
2.167836159093893 4.2304720518010095 3.101038900383366 192 192 192
2.1237552060159 4.242261018793602 3.1261751151732766 191 191 191
2.0661689441627336 4.262992433232632 3.1591411818191775 191 191 191
1.8060984450880722 4.419897382087106 3.309550437474843 189 188 189
1.8407443356204443 4.377691478222675 3.288998819069744 182 181 181
1.8892224658899262 4.326439451538815 3.260430531218131 137 138 138
1.9962444262118642 4.236453296940779 3.1979215425759753 97 98 98
2.0680625941899664 4.1703996879694785 3.1558373776042052 86 84 87
2.1587702968644864 4.09224183355942 3.102811537250794 76 75 78
2.254771892560295 4.011076710007284 3.0467285323577533 62 63 65
2.2840047268756503 3.9742411481396287 3.0293583300162403 53 54 57
2.3040591049538786 3.9435810981226105 3.0173118072698015 55 56 60
2.3306093973391384 3.9088176649248143 3.001503984601517 55 56 60
2.2971768065421037 3.913139611517358 3.0204566401499515 55 55 59
2.310951453833051 3.88680701238757 3.0120549511417347 57 57 59
2.4783516763667817 3.761632343755183 2.914656695460826 61 61 63
2.463756874032129 3.754070466026676 2.9227021720022597 65 65 67
2.4447949844328676 3.749256070837522 2.93327603410308 68 68 70
2.3444736296689994 3.796176293209414 2.990967333442988 67 67 69
2.342027597017883 3.780558766905587 2.991969150735526 66 66 68
2.3428433927848076 3.7628967404748783 2.9910826715532277 65 65 67
2.323839097860583 3.7577408466157496 3.0016721928951133 65 65 67
2.348052316484649 3.7254262965193745 2.9872410845336335 63 63 65
2.356842204056478 3.7028892775506828 2.981741318757179 61 61 63
2.3770576454907695 3.6733151276140807 2.9696302191452766 60 60 62
2.395083981713437 3.645223085006744 2.9587890649278177 60 60 62
2.393770729829553 3.6291831507172665 2.959142053313334 59 59 61
2.380869480190539 3.620289219053378 2.9662005858256895 58 58 60
2.5959248637080954 3.471751952165558 2.8413715692921113 56 55 59
2.6675428386483087 3.411776944729693 2.799547072320825 54 53 58
2.7252392920484816 3.3606312136993552 2.7657843420627914 53 52 57
2.789067533922363 3.3060767742348216 2.7284823721275493 52 51 56
2.8128430168221135 3.2759992377663187 2.71435207229392 52 51 56
2.3384957890315974 3.545165555329483 2.988275257680195 50 49 54
2.3437244465335283 3.5252715425188375 2.98484703651688 49 48 53
2.392395154845776 3.4795510963858893 2.956303773113283 49 48 53
2.3742095697522485 3.473756666656695 2.9664163094292544 48 47 52
2.4721950116119302 3.3992508498272223 2.9093757025159777 47 46 51
2.424777657564512 3.4108183904600975 2.9363875307624703 47 46 51
2.4369853844504004 3.3872344810168467 2.928935607752556 46 45 50
2.5778591616989055 3.288610952644482 2.8471333940844867 46 45 50
2.562349412154058 3.281616324319457 2.855708389701949 46 45 50
2.5658862095817145 3.2635436276167247 2.853277974567604 46 45 50
2.5365698589780683 3.264463450656755 2.869827854149789 46 45 50
2.508191756833602 3.2647326107958574 2.885833063589498 45 44 49
2.5025546171172395 3.251884069822635 2.888700803970937 45 44 49
2.479265674483504 3.249092864713105 2.901762989050691 45 44 49
2.4461275053836666 3.2518078305566167 2.920510848174817 45 44 49
2.4331863285610567 3.2429804210516373 2.927593497003339 45 44 49
2.4703168305317904 3.205938344890065 2.9057658428309217 45 44 49
2.448953422362305 3.201879226697752 2.9177118487080773 44 43 48
2.4552795486990773 3.1822915469640947 2.913672306369594 44 43 48
2.426981705620258 3.182004500283479 2.929618835155714 44 43 48
2.387315840480892 3.187904931686555 2.9521237429997855 44 43 48
2.378318508327308 3.176742639018212 2.9569265822950532 43 42 47
2.336386303624865 3.1836434730165286 2.98073334417918 43 42 47
1.7615439035466045 3.4641984185729617 3.311587692763341 41 42 46
1.7976836821924675 3.4271556553981535 3.2903185616080957 41 42 46
1.9039461370285622 3.352457446377373 3.228606980601022 40 41 45
1.834638578866476 3.3726351056367574 3.268167782964672 40 41 45
1.769695399907301 3.390187950914264 3.3052046890793276 40 41 45
2.050829068225094 3.2063887016628114 3.1422711321859484 40 40 44
2.1285329153411623 3.1487020902812715 3.097070873419279 40 40 44
2.2102121099826597 3.0893027381771017 3.0495880702298686 41 40 44
2.265994242680564 3.0438648185433648 3.0170424258846356 41 40 44
2.3276555379576416 2.9956382790121294 2.9811149404969393 40 39 44
2.3607454761743147 2.962552913818142 2.9616607921496962 40 39 44
2.415482085517561 2.918449085989389 2.9297368018625454 41 40 45
2.466638016935654 2.876459803576118 2.8998825573573863 41 40 45
2.5028473419036628 2.8423861102611307 2.8786459245821914 39 40 44
2.5399618824211743 2.8080372847333424 2.8568923141131455 39 40 44
2.5660609769244296 2.7794757003012425 2.841488644888199 39 40 44
2.515485658516197 2.7898407967175953 2.87025179675317 40 41 43
2.5113562215263956 2.7766130097165824 2.8722603810673255 40 41 44
2.5240678488332313 2.754946891792429 2.8645706912477062 39 40 45
2.5206995391546867 2.7413879477345056 2.8661421773594604 39 40 45
2.514508013383875 2.7292409537306432 2.869339406870454 40 41 45
2.596822770076551 2.6733036154566205 2.821581904815398 40 41 45
2.584325667985534 2.664451010447465 2.8284135893468156 41 42 46
2.5663457357212542 2.6582549221376004 2.838400484346785 41 42 46
2.548299451583871 2.6520353446944984 2.8484242192203615 41 42 46
2.3954136641766413 2.7112776630511823 2.936047336201343 41 42 46
2.385223208700107 2.700849654528964 2.941540555867609 42 43 47
2.327874987834984 2.7131072615039082 2.9741677699947515 42 43 47
2.4169292719912705 2.654965706746044 2.9225574934221634 42 43 47
2.4035177584509047 2.6461263273850117 2.929905014668514 43 44 48
2.3834624738149643 2.640407355281174 2.9410734529796096 45 45 50
2.410654693927589 2.6122884500702734 2.925064204074942 46 45 50
2.392934069756933 2.6054463122539477 2.934889306232526 47 46 51
2.458312724722768 2.559627705190656 2.896924241130757 49 48 53
2.386778872793101 2.577947855914108 2.9376952990713536 49 48 54
2.3223407236435696 2.592688191957616 2.974379559418714 50 49 55
2.255109629365119 2.6084628819253717 3.0126633779350223 51 50 56
2.189913636771318 2.623034851148587 3.049770821060408 51 50 56
2.2300780821092947 2.589140352396415 3.0263087397448416 53 52 57
2.1948528501869786 2.5897758072514216 3.0461829986669917 54 53 58
2.2146495791634635 2.5653446322439017 3.034432165176821 56 55 60
2.2028569589186677 2.5552724435650225 3.0408372299604087 58 57 61
2.191163200123353 2.545129002012745 3.0471848388330445 59 59 63
2.179156934835578 2.5350988097876317 3.0537113644421114 60 60 64
2.160444965549432 2.5280228077546933 3.0640897086638947 66 66 70
2.1421730530241625 2.520695819834087 3.074213900698669 66 65 70
2.1021888548080048 2.522876781474016 3.0968084455240272 64 63 68
2.0756586130200194 2.5190146224717402 3.1116721114820525 64 63 68
2.0675561321666733 2.5070261870710775 3.1159505085889334 65 64 69
2.013333721635572 2.515044386482413 3.146713099533497 66 65 70
1.969999126019999 2.518153985033641 3.171218923936204 68 67 72
1.9436655954456832 2.5137971842319815 3.1859597439360714 69 68 73
1.863513005797414 2.532370176074852 3.2315958898746056 70 70 72
1.8505410697161595 2.5220391679605836 3.2386595661873323 71 71 73
1.7781807839429358 2.536826237668065 3.279811214336719 72 72 74
1.6489958674480625 2.575276418671989 3.353570348592757 72 72 74
1.596360226732039 2.581114675122747 3.3833857189389946 70 70 72
1.6032963815874723 2.561906101190841 3.3790114169620695 69 69 71
1.5635620493216456 2.562122640551911 3.4014176519079675 65 64 68
1.5294378380106792 2.5598809831278047 3.420601703378638 62 61 66
1.5035057366075395 2.554155688756077 3.4350831591440176 60 59 64
1.469713731976867 2.5515603193571272 3.4540713800614067 60 59 63
1.4403402161831387 2.547052135201058 3.4705223949736563 60 59 62
1.490382906236427 2.510311831727743 3.4414225309356192 68 68 70
1.45167173465104 2.5095334694823626 3.4632279110536603 79 77 80
1.3937817957382497 2.5163004749007536 3.4960279249145425 87 85 87
1.3115568827328268 2.532548488773566 3.5427762326779195 95 94 93
1.2328317712620953 2.5470946278616267 3.5875103567765705 111 109 109
1.2262317850002082 2.532902519965307 3.5908884719913945 140 138 140
1.2310213811940018 2.514241191608764 3.587737550966739 178 176 179
1.2372487722699694 2.4950639062849014 3.58376358405884 189 189 191
1.1943932628125382 2.4949879109324313 3.607922378507154 191 191 193
1.1867564542004514 2.481164238867847 3.611893920708637 193 193 195
1.1848370225910931 2.4651389254826284 3.6125890078563585 193 193 194
1.2743789728153105 2.4141939476704 3.5608776056902975 194 194 194
1.0732589594985693 2.4740755340158644 3.675709147928641 195 195 195
1.0590524275385436 2.462526134621887 3.683439426201614 195 195 195
1.0372588679308636 2.4537961040027425 3.6955151304010827 194 194 194
1.0126550503114267 2.4460535153398593 3.709199020266709 195 195 195
0.9942811578437167 2.43592014608991 3.7193129281243134 195 195 195
0.9032373242516398 2.4526102397202485 3.7710437512165793 196 196 196
0.904939031248033 2.4348488830608184 3.7696554233491515 197 197 197
0.8123292342653226 2.451614095544203 3.8222709030715225 197 197 197
1.372543033649129 2.19837661572904 3.5003234620620645 199 199 199
1.4745515956619943 2.1458225829068973 3.4415449036595587 199 199 199
1.0864824288682828 2.2680189927164136 3.663277654838312 199 199 199
1.0671794137099928 2.2582558736106426 3.673924315715348 199 199 199
1.0345398805886896 2.253130671636975 3.692201709940527 199 199 199
1.9305787126489098 1.7611661470096456 3.17516081813463 203 203 203
1.9390257299124536 1.7438177124581795 3.16997966250995 203 203 203
1.934266461866951 1.730803007827262 3.1723484725595976 204 204 204
1.9540226866521682 1.7098954397607402 3.160705573287033 204 204 204
2.0529485394041984 1.6637427803066394 3.1038195529744903 204 204 204
2.0705447464518114 1.6438735676530318 3.0934194833424056 204 204 204
2.1010003833675714 1.6200273569858372 3.07567361004881 204 204 204
2.094929149164618 1.6078000353410462 3.078801082835237 204 204 204
2.102389455260621 1.5913434548686434 3.074197744197014 205 205 205
2.7196315803123046 4.1479841675788505 2.804446474388961 196 196 198
2.707168658445444 4.139744689635083 2.811290560693365 196 196 198
2.7284160045160206 4.10719055954508 2.7984592197043243 195 195 197
2.7162473832081497 4.098756507593097 2.805131975559388 195 195 197
2.6588923084851537 4.122600519862313 2.8381705384196128 195 195 197
2.648668580073741 4.112597090081239 2.843703975188209 195 195 197
1.8820812655134416 4.63953793429374 3.2904837817629997 194 194 196
1.846352193332769 4.645589332331795 3.3108452836292903 194 194 196
1.868469622662257 4.610719511194883 3.297463969519444 194 194 196
1.8778152274223057 4.58496427627753 3.2915346593333545 194 194 195
1.9311325852734786 4.528522078433271 3.259966363920956 194 194 194
1.926145554024324 4.513030689890434 3.262400631059391 194 194 194
2.5426074487676407 4.048531460313158 2.902099167581215 193 193 193
2.4934603985056247 4.065097370978697 2.9303131198526415 192 192 192
2.246123327163473 4.199586679827773 3.073578471348076 192 192 192
2.162588051115895 4.238570207995203 3.1218039905502843 191 191 191
2.133337504985034 4.240280181172466 3.138392491105448 190 190 190
2.0759384333972455 4.26092772671009 3.1713761524210455 190 190 190
1.8115686832671576 4.42090071342027 3.3249122935789077 188 187 187
1.8460799223389168 4.378759869472484 3.3043388209924545 181 180 181
1.898198722106205 4.325036697778778 3.2735163711096433 135 135 135
2.000330735255107 4.238251074566344 3.2135782374074373 98 99 99
2.071364646003435 4.172667747338065 3.1717602484217684 87 86 88
2.1320881913523393 4.114293260416553 3.135954347957752 77 78 80
2.2945953190187955 3.989130662430133 3.0409065753683033 68 69 71
2.2854669178086766 3.977561601983637 3.0457813505532716 57 58 62
2.2973563128716314 3.9522206825421833 3.038423465979803 56 57 61
2.333026069446371 3.9114626256487526 3.0172291847396524 55 55 60
2.294748449732423 3.9189414740362443 3.039067925276769 55 55 59
2.309176233959876 3.892155981579992 3.0302381207909157 55 55 57
2.3326529357670633 3.859637234077538 3.0161466092172584 57 57 59
2.3462770176475374 3.833589475364003 3.0077898406835804 59 59 61
2.3609254467642367 3.8069817864361424 2.99883966481409 62 62 64
2.351636361537727 3.7957286469775404 3.003813218137129 63 63 65
2.343453267682118 3.783756281925381 3.0081432051757506 62 62 64
2.3544656959902777 3.759633449242297 3.001311789534092 62 62 64
2.3507338292483473 3.7448804989692515 3.0030544948898457 62 62 64
2.3466500693485504 3.730358310960234 3.0050020117466945 60 60 62
2.347834290934697 3.712551428393063 3.003887659606375 60 60 62
2.3774238143853683 3.6770915596852514 2.986264964228618 60 60 62
2.40639830845507 3.6421842906974904 2.9690039591250454 59 59 61
2.4200190436753473 3.61693061526963 2.9606689052015853 59 59 61
2.4134773912948604 3.6041782785791843 2.9640509277940716 57 57 59
2.5595326283590576 3.497880131248265 2.8787801910318915 56 55 60
2.609300842024702 3.4511040316748893 2.849460779548252 55 54 59
2.6642519457125564 3.4014413992963513 2.817137570499844 54 53 58
2.716222930691107 3.3538739788167304 2.7865523903395437 54 53 58
2.76094467121729 3.3109556844350903 2.760183855522757 53 52 57
2.5416299972051504 3.4269672504204634 2.887136869745214 52 51 56
2.5537517238366787 3.4034132922972544 2.8796921701805935 51 50 55
2.5630738702612783 3.381612798801294 2.873874845845446 50 49 54
2.3923314565182023 3.466818647962688 2.972583595053168 49 48 53
2.352823620997754 3.4736150246429927 2.995101181942687 49 48 53
2.355479029807163 3.4554113684504446 2.9931447363166703 48 47 52
2.6088891532979446 3.290112908843691 2.8456750679582807 48 47 52
2.5406872502457065 3.31398971250936 2.8848500488494495 48 47 52
2.5872576684029114 3.270767926754374 2.8574282183975708 47 46 51
2.5899740483998097 3.253213297833295 2.855453484629378 47 46 51
2.550435354714914 3.260092881781545 2.8779906036804475 47 46 51
2.5189737167961472 3.2621683777965513 2.8958389508821716 46 45 50
2.528839049946315 3.2404562692878285 2.8897165746411018 46 45 50
2.4926553037006163 3.2450786331030566 2.9102995958107485 46 45 50
2.46580023379996 3.2442592959652137 2.9254699396382526 46 45 50
2.4391786529983954 3.2432085213248842 2.940502431359555 46 45 50
2.433937552530057 3.230015651767857 2.9431377894644513 47 46 51
2.4654048229011325 3.1641915023920464 2.923694991490749 44 43 48
2.4398535775463244 3.1623667983616284 2.93810272050932 44 43 48
2.423013691866967 3.1556432918458532 2.9474605141257193 44 43 48
2.4302548542322264 3.135636841344511 2.9428650979749555 44 43 48
2.436173467878828 3.1164129471038104 2.9390373264215857 43 43 48
2.447972355132115 3.094038013808861 2.931804673940115 43 43 47
2.4472954014365382 3.0785112945964923 2.931800027617846 43 43 47
2.4429831730195324 3.064970765995298 2.9339012833426716 42 42 47
2.476995080094195 3.0308188944935335 2.9138096791686583 42 42 46
2.5203692691820074 2.9918324142460753 2.8883015422822185 42 42 46
2.476156002654965 2.9997877458371707 2.913509725026652 42 42 46
2.4698077835818446 2.9874556824582714 2.916792821115071 41 41 46
2.4468621101401804 2.9838972641366723 2.929683410323168 41 40 45
2.21115464310463 3.092295913798657 3.0657191154068775 41 40 45
2.290079480509661 3.034684986664296 3.019636560915691 41 40 45
2.362747988567442 2.9807229171296457 2.977184032758207 42 41 46
2.417126513638402 2.9366214571881897 2.9453235230542534 42 41 46
2.450960576174619 2.9034228487364513 2.9253563130527294 42 41 46
2.4785356491181934 2.873626550615404 2.9090144799748843 42 41 46
2.5048806615079275 2.8446098872932284 2.893387901863342 41 41 46
2.5307561039252167 2.8159757689891824 2.878036488862681 41 41 46
2.55523578626079 2.7881917243534624 2.86349581842021 41 41 46
2.5779527919800627 2.7614338337748974 2.849977835192231 41 41 45
2.467254344626726 2.8020546492308567 2.9136092995036793 41 41 45
2.4329637958186163 2.8038596968676344 2.9330510930908713 41 41 46
2.531537316684477 2.739153044739693 2.875676975601078 41 41 46
2.5176194768723525 2.730863198329577 2.883342791181113 42 42 46
2.5795627953106255 2.684969713064093 2.847158460883519 42 42 46
2.559168767053508 2.6799648449005504 2.8585695849517005 42 42 47
2.54067543199394 2.6739605469247825 2.868880618645891 43 43 48
2.5227249026807974 2.6676329716557925 2.8788765402126497 44 44 48
2.5909678015335698 2.6193298094272843 2.8390686501123383 43 44 48
2.6470837749213936 2.577222014306946 2.8062751031309134 44 44 49
2.3195718226943516 2.720272961525994 2.995105760794306 45 45 50
2.416470044179858 2.658297200259476 2.938747457712333 45 45 50
2.432769806893918 2.6352610213885375 2.9289523415305263 46 46 51
2.4093153292259575 2.631218034961362 2.9421186445533842 47 47 52
2.386950145473363 2.6265807764917963 2.954653945381122 49 48 53
2.39618930585308 2.60698376707022 2.948938565160599 50 49 54
2.421010889996324 2.5801452201796957 2.9342280961725082 51 50 55
2.3117375128564865 2.616014189623058 2.9969348441469785 52 51 56
2.3289067656998905 2.5927016987826237 2.9866409964008507 53 52 57
2.27924616083534 2.6003838708114255 3.014923693324025 53 52 58
2.2267785519718073 2.609166377623235 3.044821661678525 54 53 58
2.2797779500901347 2.5694431569700007 3.0138505543201575 54 53 58
2.2509875716976557 2.5672549036591983 3.030081451384209 56 55 60
2.2184040750725362 2.5666871173105212 3.0484984069761656 57 56 61
2.1753084349364937 2.570749362319275 3.0729772175230314 59 58 63
2.140713968270134 2.5708300139599713 3.0925478812140765 60 59 64
2.1587130510031116 2.547264572700453 3.081778319191551 60 59 64
2.1612723417772246 2.5306722547825884 3.0799164650281656 63 62 67
2.1651974581589504 2.5135096857334673 3.0772677857953625 67 67 72
2.1429663950903377 2.5079177593249833 3.0897033901477706 66 66 71
2.116706626351717 2.504022083581987 3.104460206718005 65 64 69
2.0907355835396246 2.4999122853228486 3.1190483582156374 66 66 71
2.064161142468594 2.4959779777472724 3.1339822075223407 68 67 72
2.0063245678831745 2.505469698205721 3.1669348794783176 69 68 73
1.9534124069049041 2.5126217116181446 3.1970436128381934 67 66 71
1.8928352240253061 2.522855057050321 3.231565044987467 67 66 70
1.87396305160195 2.5150915754420735 3.2420464592797233 68 68 71
1.8076783924693172 2.5273689096560505 3.279847394400752 68 68 71
1.6547182888080327 2.5759470342333572 3.367583146114005 68 68 71
1.5943006271320788 2.5850707893613167 3.4019866466695303 64 64 66
1.5963040121830163 2.567901596847729 3.4004248455656603 60 59 64
1.5618036666879478 2.565931446892397 3.419891077654535 59 58 63
1.5374369300476878 2.559652878533622 3.4335176040501136 58 58 62
1.5102851509193376 2.5544428049728745 3.448746184388866 58 57 61
1.4801466629745441 2.5503664909787127 3.4656925220317807 57 56 60
1.4484312283204157 2.546831551286023 3.483544386357516 64 64 67
1.4980634934805028 2.5102417256187577 3.4545561403976572 73 73 75
1.4571156182664382 2.510382290222076 3.477722158492622 79 79 81
1.4012694249617008 2.5163502328879117 3.5094609956377147 87 86 88
1.3125752851131502 2.535211756550878 3.560102393186186 96 95 95
1.2356693008425608 2.54905476591441 3.603950451707975 111 110 110
1.23099889860179 2.5340960030924897 3.6062189101492494 138 137 138
1.2384852687010783 2.514370492642438 3.6014918028821974 176 176 177
1.2421231819360374 2.4962041974870997 3.598980527968546 188 188 190
1.207450161133603 2.4929619504231524 3.6185126817885003 190 190 192
1.2019131682923474 2.4783430671290816 3.621279818395571 191 191 193
1.173626516990963 2.4724717358081487 3.6371338426928563 192 192 193
1.2465140135744068 2.427825521719805 3.5947899799601464 193 193 193
1.066260913684325 2.479774723559133 3.698048391412602 193 193 193
1.0384336787551585 2.4733551577393067 3.713628858203181 193 193 193
1.003486569673818 2.4695264928939658 3.733301414466713 193 193 193
1.0039932082991476 2.4523143147858644 3.7325851875574143 194 194 194
0.9844889789907754 2.4425772490797137 3.7433748664294235 194 194 194
0.909622928321173 2.453278545671059 3.7859905973866317 195 195 195
0.9003205247871098 2.439566862131453 3.790910315269281 196 196 196
0.8749586599847867 2.431722619654709 3.805060662622926 196 196 196
1.1540227215282464 2.2798566213743556 3.643414923787782 198 198 198
1.1216323923642033 2.2749365151697423 3.661613971966082 198 198 198
1.1011560701209728 2.26566923426113 3.6729652499209795 198 198 198
1.0680395327056877 2.260819720266271 3.691576845983803 198 198 198
1.0318727585207568 2.2569362273563254 3.7119379474595973 199 199 199
1.0183718096442482 2.2449990630765844 3.719276902501502 199 199 199
0.6425986001184631 2.359120333839145 3.9346848161730064 199 199 199
1.9480455600701672 1.7578542337404117 3.1812392542369774 202 202 202
2.0529952606311337 1.694692073032985 3.120296950060959 203 203 203
2.063368620352892 1.6770242204223769 3.113988155190601 203 203 203
2.085278151883749 1.655721361172568 3.101063092513333 204 204 204
2.1096047298262897 1.6337551780433248 3.0867542496541125 204 204 204
2.120892660331966 1.6160318928282018 3.0799267364583893 204 204 204
2.1113459692601664 1.604927758861497 3.085049726097439 204 204 204
2.120148174274044 1.5880704222434803 3.079649899807446 204 204 204
2.1497185813857955 1.564814935688633 3.0623426579525903 204 204 204
2.673119066192246 4.1862106345728165 2.848332261498127 196 196 198
2.6548518025763945 4.182041636462739 2.8585923866402516 195 195 197
2.6307804412834646 4.1819916958130525 2.8722527826158033 195 195 197
2.737803771621135 4.087679299738528 2.809081079425514 195 195 197
2.7189580124554587 4.084037825901975 2.819683125048348 194 194 196
2.6823323095170153 4.0930081557207165 2.840701205629171 194 194 196
1.8856381189203177 4.641914315752685 3.3070112321395766 194 194 196
1.8643692647618175 4.637741691408072 3.3189748142894007 194 194 196
1.9921806787577734 4.528322798765882 3.2436155134415534 194 194 196
1.830758992661271 4.622891783093824 3.3376675757175747 193 193 194
1.8522349467440413 4.588576735872204 3.3245945200615696 193 193 193
1.888356345692281 4.544184180225884 3.3029497277770146 193 193 193
2.542828735442672 4.052733828828734 2.918838373513453 192 192 192
3.1206374421091523 3.636610748622549 2.5801788280133544 191 191 191
2.2427332782928775 4.206402795636932 3.093117801305514 190 190 190
2.1919176849094097 4.22307948449263 3.1223879578449028 190 190 190
2.1380133707647504 4.241630647095207 3.153459425930538 190 190 190
2.0803572744029344 4.26248278615294 3.1867195177537937 190 190 190
1.8312155638211414 4.412334427287729 3.331981801743804 186 186 186
1.8612988286661383 4.3731816865227024 3.3138989925200013 179 179 179
1.8922891595046933 4.333603384621565 3.2952904107790757 135 135 135
2.00441817745203 4.240049666124147 3.22924053163395 98 98 98
2.0752243437555897 4.174567412782345 3.187366885564697 88 89 91
2.1323109477092217 4.118558214775224 3.1535239137618283 79 80 82
2.3004408432864225 3.989569526982258 3.054777520943417 71 72 74
2.282739113252415 3.9836416875331784 3.0646713477023875 62 63 66
2.2918218358772124 3.960109163528429 3.058909956828866 56 57 61
2.3078707578013775 3.932104534615923 3.049079646203584 56 55 60
2.353396465340975 3.885044250355005 3.0220286908476965 55 55 59
2.289647159653648 3.9090118148434216 3.0588272722215755 54 54 56
2.3188939935122153 3.872692064526169 3.0412921928034216 53 53 55
2.343278361058397 3.839670302783061 3.0266018008188054 52 52 54
2.3495475452614962 3.8183959680985944 3.022495431375856 52 52 54
2.359854622832509 3.79460527142361 3.016032504942887 54 54 56
2.367947194071267 3.7723004744769293 3.0108647156806123 56 56 58
2.374653813696523 3.750940717210621 3.0065078785142516 56 56 58
2.388282683955678 3.725277212071366 2.9981114036562992 56 56 58
2.40176707002318 3.6997988714094756 2.989801702895586 55 55 57
2.4049219894106546 3.6808766926552696 2.9875234537032878 55 55 57
2.4167807661264407 3.6565731483198873 2.980166644074775 57 57 59
2.4427880132452384 3.6235713322994716 2.9645557020600486 57 57 59
2.4582111223763756 3.59726802869986 2.955124418891512 57 57 59
2.595034702591596 3.4962871673989007 2.874867741334536 57 57 59
2.5711664018748035 3.494587849649961 2.8883703814072357 56 55 60
2.5548506585563238 3.488184575099368 2.8974653391613097 55 54 59
2.562621468581505 3.4670668572923535 2.8925107595585287 54 53 58
2.553485921061942 3.4562644240892566 2.897417224035119 54 53 58
2.5525684826035056 3.440481468228843 2.897531144975442 54 53 58
2.549653094826877 3.425922649531724 2.8988105499675307 53 52 57
2.5427530333113353 3.4137640185362312 2.9024133130552285 52 51 56
2.598086977069804 3.3644577472148334 2.8697378152555264 52 51 56
2.4082570091186426 3.4611717853189954 2.97996826062322 51 50 55
2.4268047379130038 3.433641110030721 2.9687319691291973 51 50 55
2.6226406917840928 3.3016829783788584 2.8541844928553193 51 50 55
2.60862222305155 3.2939277606731188 2.86194079081089 51 50 55
2.5660183333228517 3.302853007449101 2.886350624914804 51 50 55
2.591184690057335 3.272121279535341 2.8712754360782804 51 50 55
2.585711603936939 3.2593119571379354 2.8740515502254467 50 49 54
2.5739582172684363 3.2501319443537575 2.8804855816279944 50 49 54
2.5434143870920245 3.2517369039528146 2.8978620738455425 48 47 52
2.557428217421533 3.2276847920894705 2.8892886452641204 47 46 51
2.50319558320075 3.2426819449553226 2.920454854469958 47 46 51
2.5377597845981876 3.2069700362263145 2.8999175728495867 46 45 50
2.4934063493276613 3.2161260553505957 2.9253263078600584 47 46 51
2.4522691255086704 3.2232876507344663 2.948858282634211 48 47 52
2.5109138262060733 3.142398090676447 2.913489778217818 46 45 50
2.4823545568804826 3.1423458825511013 2.929697224599022 45 44 49
2.455167206780051 3.141429486429129 2.9451037667280646 44 43 48
2.4577424855177563 3.1240454585331228 2.943194134568658 44 43 48
2.449846650447708 3.112433199197335 2.947376129705738 45 44 49
2.45569912254358 3.093312629699165 2.9435617734128687 44 43 48
2.4739187170567294 3.0675285253711855 2.932556728264909 43 42 47
2.477412773638919 3.049816117295358 2.930117181159074 43 42 47
2.479503266868563 3.0329006911685785 2.9284947658198686 43 42 47
2.499875403115843 3.0062178392708856 2.9162448840029667 43 42 47
2.4905287919203785 2.9955196342574824 2.9212738237605183 43 42 47
2.4939976565024047 2.9779909123309705 2.9188533084573143 43 42 47
2.4782429306476037 2.9706786978322404 2.9276064352650284 43 42 47
2.1758102367133616 3.1144187174558358 3.1029564635230305 43 42 47
2.269718226411629 3.048812117654799 3.047968190124232 43 42 47
2.3316458371845914 3.0003674948486845 3.0115726686190394 43 42 47
2.423071732448596 2.9368809728596204 2.9580477463469985 44 43 48
2.4945497932297576 2.8841656484498035 2.9161218062565664 44 43 48
2.5215412566369304 2.854741977326426 2.9000444917473622 43 42 47
2.5488105164352675 2.8253215773802056 2.8838095984115926 43 42 47
2.574220475662252 2.7969986148920567 2.868658233732102 42 41 46
2.602852687476647 2.767173567678177 2.8516393691167914 42 41 46
2.5926933126584037 2.7571600368088554 2.857147238212764 43 42 47
2.4570684189588237 2.8104294871653877 2.935493946676255 43 42 47
2.446862096054245 2.800116534694093 2.941020744197911 43 42 47
2.4224218749799222 2.796900718296676 2.9548088928630114 43 42 47
2.514423408514479 2.7356272662730428 2.901014304475634 43 42 47
2.5159505293057736 2.719630577803137 2.899735309161043 45 44 49
2.4973635625491326 2.713589546882375 2.910128634101024 46 45 50
2.4700130329016408 2.7117948921641775 2.925605153498679 46 45 50
2.4639857808882795 2.699475898125414 2.92870842120607 46 45 50
2.5983531244675637 2.6188098828615836 2.8503693488692323 46 45 50
2.6543043980740544 2.5767602257702706 2.8175305090620926 47 46 51
2.3285903302656688 2.719094519835392 3.0060576341880214 48 47 52
2.5749748323112387 2.5852987523028172 2.8627740062566267 48 47 52
2.457968098939134 2.6263115899086498 2.930238104839161 49 48 53
2.407971759977429 2.634950502045379 2.9588361383338797 51 50 55
2.723802408084447 2.4701276378962276 2.775338747805215 53 52 57
2.655968126872881 2.4875852583932874 2.814287974658633 53 52 57
2.416300742572252 2.585405363288142 2.952832114783282 53 52 57
2.378545813315396 2.5878935559479412 2.9743240242534554 53 52 57
2.329215955352301 2.595622574767744 3.0025203464805443 55 54 59
2.270433283911127 2.6075353996636546 3.036189434214401 55 54 59
2.2777157608158825 2.5887888631424745 3.0315731196303473 55 54 59
2.26768143206739 2.5780360289199495 3.036990965024057 56 55 60
2.2422762888185277 2.574276698083174 3.051312746671735 57 56 61
2.203065886069963 2.5767005609654117 3.073629051075841 58 57 62
2.1464491619269 2.5868461479308116 3.1060233104163033 59 58 63
2.164768619215137 2.563065891697027 3.095013232951135 60 59 64
2.183600527769843 2.5391588642673932 3.0837090469077393 60 59 64
2.1834553075229577 2.5238109369294297 3.0833959078723163 61 61 65
2.185528061431341 2.50750275976907 3.08179921096259 63 64 68
2.1687771944240963 2.4995327715510176 3.0911007442817113 65 66 70
2.138253047893951 2.497562825830458 3.108373929830141 64 65 70
2.1106476653286665 2.4942110810717883 3.1239549602792827 69 68 73
2.0858833795251055 2.489530176599296 3.137889272253604 69 68 73
2.0407058809146332 2.4936010675104554 3.1636346459306277 63 62 67
2.0039318390768583 2.493885607938756 3.1845130592471644 61 60 65
1.9712033121270642 2.4923048607230402 3.203047369978306 62 61 66
1.741225433535127 2.5747111066600423 3.3356949804718132 64 63 68
1.7097482596216782 2.571954576881315 3.3534887835443654 62 61 66
1.6688000619087484 2.5730882676765563 3.37675812086488 60 59 64
1.6058582746838361 2.583312751080213 3.4127441984033653 58 57 62
1.6141756487678254 2.563514849253862 3.407513432098402 56 55 60
1.5644568914851122 2.5679111728123916 3.435844581038174 56 55 60
1.5377723044109053 2.562593512941704 3.4508523476077264 57 57 59
1.5144084845199748 2.555822132886726 3.463937948844757 58 58 60
1.4866464083917834 2.5507795769934702 3.47956433371332 62 62 64
1.4582634227893485 2.545899258258446 3.495547296591022 70 70 72
1.5035021381544589 2.5110786401789156 3.4689746735914024 74 74 76
1.4625304967896482 2.5112426640479817 3.492232325331492 81 81 83
1.4290848648323884 2.508241596930182 3.5111370228876253 88 88 90
1.2396637090990856 2.56739017552692 3.620167281051775 97 95 96
1.2395436962612916 2.5506050813735643 3.6198027957932335 112 110 111
1.2320375222269568 2.5367629020599542 3.6237061678753153 137 137 137
1.241284239385529 2.516331488111687 3.6179316262386036 172 172 172
1.2076981347734974 2.5127081845160264 3.6369000121840758 185 185 187
1.2072697712398517 2.4960779036781187 3.636714521100912 189 189 191
1.202984932635923 2.4809629875293346 3.638756824710523 190 190 192
1.1961303893926662 2.4668445523801186 3.642283244345377 190 190 191
1.1723897037527635 2.459186021706214 3.6555598711228723 190 190 190
1.0673798529735348 2.482393080430941 3.715756243636714 192 192 192
1.016863502338776 2.4845634553196425 3.7444826972122436 192 192 192
1.0116849030748036 2.469479266739686 3.7470330459502104 192 192 192
0.9981541857634331 2.457528016521743 3.754404377549981 193 193 193
0.9183427255197325 2.4702391021257117 3.8000289120225306 194 194 194
0.9134681872291495 2.4548874616964715 3.802399798206304 194 194 194
0.8854479641670381 2.4480704905520705 3.8181269625689875 194 194 194
0.6288579926773752 2.507261250145268 3.9652799189619423 196 196 196
1.1878807337385668 2.287021636028536 3.642330794675881 196 196 196
1.1681424920760968 2.277648566214136 3.6532916489382856 196 196 196
1.1329912776255 2.2737446964898167 3.6731410808334664 197 197 197
1.1127221668799303 2.2644205275830642 3.6844044897587254 198 198 198
1.0901548188285282 2.25585424081928 3.6969917942726456 197 197 197
1.06089324847805 2.249581226037332 3.7134375036246414 198 198 198
1.0314693939279163 2.243272812891503 3.7299744049386176 198 198 198
1.1186379241072486 2.1962523995888046 3.6792901243479337 198 198 198
2.105262045440157 1.651642254355559 3.1052962280312153 203 203 203
2.11470243100881 1.6344422627939563 3.099495052755391 203 203 203
2.122872135003492 1.6177025671603658 3.0944269149591648 203 203 203
2.139460246906274 1.5983644303590143 3.084513947016232 204 204 204
2.1337104543416796 1.5861025178071473 3.087461213969468 204 204 204
2.1441444492038086 1.568805346004687 3.0810936118783543 204 204 204
2.8014687068126642 4.1659899374023865 2.7913458158396462 197 197 199
2.7790713041674326 4.16525713823853 2.804080358198949 197 197 199
2.7594317189140605 4.1624180869278815 2.8151884888535514 196 196 198
2.7218978151862663 4.17255731725822 2.83683142333633 196 196 198
2.688973259617979 4.179180744806098 2.855756133866919 196 196 198
2.67039162942194 4.175276039043138 2.8662334901140114 195 195 197
2.647308901921788 4.174552309926213 2.8793585264153143 195 195 197
2.743944930683259 4.08766328084378 2.8220199720588224 194 194 196
1.9333855073040087 4.632022484034308 3.29805833374046 194 194 196
1.8480064670997352 4.673588319853431 3.3477817744291367 193 193 195
1.8440579014908063 4.657040097180015 3.3495903217424146 193 193 195
1.844054818623747 4.637718340476871 3.349078411121346 193 193 195
1.8255221128404948 4.631465602302522 3.3594654856432355 193 193 194
1.821481063318759 4.614992111022131 3.361328683912279 192 192 192
1.8245728490009279 4.593548670836914 3.358998020231975 192 192 192
3.166597683005522 3.6246097470271983 2.569033494534016 191 191 191
3.0976370092230994 3.656477571197058 2.609149806120635 191 191 191
3.1440961389696302 3.6085824214147966 2.5814207365885737 190 190 190
2.1949037743905415 4.225556657629488 3.1383329899789363 189 189 189
2.142690137061658 4.24298127157108 3.168528863489736 189 189 189
2.088503009511027 4.2615115235166225 3.199877918620378 188 188 188
1.8354907771879567 4.414136484040147 3.348011245115939 185 185 185
1.8656598248185163 4.374900371312975 3.3297886332121664 178 178 178
1.8967820518970577 4.33520781797889 3.311011106405455 130 130 130
2.0512495281500915 4.213291146430712 3.2198096869983432 97 97 97
2.077972404510607 4.177208801368715 3.2036333125187673 90 91 93
2.1321721448102537 4.123069082860874 3.1713304025882603 81 82 84
2.326368384292431 3.976740274048383 3.056856760134692 73 74 76
2.2952123666791424 3.9797264461318713 3.0746776948043943 64 65 68
2.2770328172000847 3.9740785918460757 3.084879748014723 56 57 61
2.28951933957737 3.9483384272665902 3.077085098055084 55 54 59
2.283076835080041 3.935006985671664 3.0803993167998027 54 53 58
2.2800080375586247 3.919485686452175 3.081734187749664 53 53 55
2.3141653711822405 3.8799374715264934 3.0612321807516167 51 51 53
2.332162951829956 3.850982535538279 3.050213838027739 50 50 52
2.340598057596393 3.828273189665784 3.044806809082254 49 49 51
2.354619137501649 3.8020675086320392 3.036125941791994 48 48 50
2.370974945178383 3.774474095732177 3.0260786895925036 50 50 52
2.3886256258014527 3.7461686227993103 3.015275152225195 50 50 52
2.39178674501663 3.7271218567224698 3.012968722351109 51 51 54
2.4267789875165056 3.6881074876642006 2.9920054753155165 52 52 54
2.4478449290153055 3.6580124058502492 2.979209568169422 53 53 56
2.535073387580567 3.58677506819519 2.927644178200608 53 53 55
2.5665614075103886 3.5506241877048703 2.9087525084144463 54 54 56
2.518731491282817 3.5637473579639662 2.9363377533652706 54 54 56
2.5259306599547786 3.542738689181154 2.931679731275977 54 54 56
2.5969421366581407 3.482602947957756 2.889644107665446 55 54 59
2.575593109907809 3.4793350472924165 2.9017142653560972 55 54 59
2.5661317816707196 3.468747805318925 2.9068204835474214 56 55 60
2.5659059591972704 3.4525366808651228 2.9065181059457625 54 53 58
2.564581661175027 3.437015197674284 2.9068595805680655 54 53 58
2.5618957112646217 3.4223338721376133 2.9079987725551457 53 52 57
2.5487351610488025 3.413948250525383 2.9152700131947635 53 52 57
2.6104207871184943 3.3608169886350976 2.8787311345182625 52 51 56
2.623647675072603 3.3368374237450977 2.8705616945295844 53 52 57
2.642215712385129 3.3097818138477835 2.8592690030837526 51 50 55
2.6536181263349006 3.287069692391646 2.8521721901831683 51 50 55
2.642103035111037 3.2779095505004663 2.8584858467085574 51 50 55
2.6126515719490606 3.2792221696921033 2.875291645168998 52 51 56
2.608236926534139 3.265821994674285 2.8774492883361744 51 50 55
2.581609644963062 3.265327103467932 2.8925988265304845 51 50 55
2.5968927121269134 3.2404913854996127 2.8832357508530397 51 50 55
2.565971250076078 3.24236979553652 2.9008936700181986 50 49 54
2.582273109522642 3.2170363113716776 2.890937218093348 49 48 53
2.6032504851117295 3.189133565982443 2.8782500270537117 49 48 53
2.58923767762424 3.1812650041147306 2.886020324812592 48 47 52
2.5634138187855284 3.180049737420085 2.9006932092097153 48 47 52
2.5658885981337787 3.1627689188871613 2.8988245576048803 49 48 53
2.557901425626268 3.151405123928632 2.903070684930124 49 48 53
2.608269626447328 3.107367688970159 2.873218182600842 48 47 52
2.538397880800619 3.1306097309116434 2.9136239816664165 47 46 51
2.503592457366602 3.134088913202143 2.933536148211101 46 45 50
2.483217039171641 3.1294561733874655 2.9450156081600745 45 44 49
2.461136822266608 3.1256931894108835 2.957488974579945 45 44 49
2.4488457655735947 3.116488001675195 2.964243300964701 45 44 49
2.4694743975183115 3.0892828065679536 2.9517732435083355 45 44 49
2.5101736665637118 3.051288663664547 2.927587297928652 45 44 49
2.507682092639404 3.0368836008436575 2.928623148453162 45 44 49
2.555752652511282 2.995241434015183 2.9001426974429068 45 44 49
2.578917702121805 2.967210287473769 2.8862063392151707 44 43 48
2.49753704973562 2.995177559631854 2.9332914137297097 44 43 48
2.045433949054285 3.203375599371732 3.1962728622880454 43 42 47
2.147010888304037 3.1331280045181056 3.1365631556943656 44 43 48
2.238352248138168 3.0687444781547737 3.0828379142325355 44 43 48
2.3266202259828157 3.006408304104803 3.0309172143950267 44 43 48
2.39278331304008 2.9560084311493777 2.9919012945701424 44 43 48
2.512283902371918 2.878277074569342 2.921786152521567 44 43 48
2.53270617417055 2.852258456733094 2.909465150204441 44 43 48
2.546675424543913 2.829673089575148 2.9009100423570295 43 42 47
2.580114986731798 2.7972109723553897 2.88100514751667 45 44 49
2.6213335325596145 2.760959757586801 2.856569839376841 45 44 49
2.434167702002322 2.8407682832782117 2.965271638893304 45 44 49
2.456843354738973 2.8137878436858164 2.951641896736904 45 44 49
2.4549715355011212 2.7992754440778174 2.9523219793258146 46 45 50
2.4352177820406227 2.7937300437234076 2.963423174260812 45 44 49
2.5182896178985303 2.736879271407787 2.9146072049836054 45 44 49
2.5198854446426115 2.7208434215812862 2.913272163299427 47 46 51
2.4985197829849914 2.716179118070839 2.9253146704367223 48 47 52
2.619451327352301 2.6414797015279547 2.8544652860571733 50 49 54
2.4774857852502867 2.6960181446694507 2.936756337427231 50 49 54
2.603208968660166 2.6195199659238146 2.863130572272435 49 48 53
2.6593681226951777 2.57734226889124 2.83002989832201 50 49 54
2.6439050767587378 2.570017893168729 2.8386404900015956 50 49 54
2.566640775626613 2.5923533345831675 2.883231819450625 50 49 54
2.4746316440811977 2.6214273632772453 2.936398620290134 51 50 55
2.814707617907625 2.4443358411845812 2.7380370950386226 53 52 57
2.7449325025291262 2.463055775442826 2.7782676491772875 54 53 58
2.7164630009920354 2.4620015290599038 2.794451354577671 55 54 59
2.630007413410958 2.488082044180639 2.8443761516185795 54 53 58
2.4372188531517947 2.563522147646916 2.956163636195392 54 53 58
2.3452593287561565 2.5912253950464867 3.0092657466115336 56 55 60
2.250977899103557 2.619628158547304 3.063708644139904 56 55 60
2.159558298112642 2.6463264398916198 3.11647658256661 57 56 61
2.1339164195933518 2.6424708525685365 3.1309756471648846 58 57 62
2.181056199970179 2.605290177931701 3.1031438293045155 59 58 63
2.1830493277903598 2.5888576684539717 3.1015720025261064 59 58 63
2.2037486535606075 2.5639955683000277 3.0891239798739787 59 58 63
2.179303204588934 2.5595717036976273 3.1029266395628365 60 59 64
2.167211844215391 2.549531097267704 3.1095450409721734 61 60 65
2.17143273248524 2.53218836555518 3.106680435504752 60 59 64
2.1715804744804563 2.516695173760941 3.106184420709142 60 61 63
2.1642123547467946 2.5045457739157637 3.110057148137059 61 62 65
2.1465258558067144 2.496923722722047 3.1199259538770407 62 63 67
2.1056205301094417 2.499405500939347 3.1432851456564794 62 61 66
2.0980793056304026 2.4872149464674864 3.1472553521221274 57 56 61
2.0673245077252487 2.4850706202133486 3.164711421839941 55 54 59
2.0262129341981536 2.4872833872423823 3.188180908190245 55 54 59
2.0144589886962514 2.476754554802978 3.194594191952118 55 54 59
1.7664567264443836 2.5670246974850794 3.338216936727394 55 54 59
1.732394966916632 2.56541853948873 3.357570436701418 56 55 60
1.6547607120724592 2.5821050503845018 3.402222257355586 57 56 61
1.597100541974224 2.5900912100731093 3.435268695902148 55 54 59
1.6054763333157065 2.570233888649654 3.4299712637482407 54 53 58
1.5708629774217315 2.568330801378882 3.449630972086341 54 53 58
1.5462851574991414 2.562151281210209 3.4634623355139906 55 55 57
1.5226386099206746 2.5555100947553213 3.4767511199417216 60 60 62
1.4890551635084706 2.552868866293786 3.495804731096572 66 66 68
1.469089744963378 2.544557933543551 3.5069529357564693 72 72 74
1.4435918185902077 2.538433934179491 3.5213097225348338 77 77 79
1.392168779534623 2.542695356714128 3.5507054545556445 82 82 84
1.374590192644137 2.533174887911837 3.5604623414725296 89 89 91
1.2323169342031903 2.5734307109628443 3.642548918067016 98 96 97
1.2366864657215302 2.554832353409481 3.63956628824467 112 110 111
1.2364420668515532 2.5381021051517187 3.6392606879930347 135 135 135
1.1896126637082367 2.5397212813472994 3.6659703666494905 171 171 171
1.2076557899157212 2.5157879094043913 3.6550595859280945 184 184 186
1.2184671831171883 2.4947692471538567 3.648344345486766 187 187 189
1.2040632011709755 2.483583600796608 3.6562492102298663 189 189 191
1.1969663630534295 2.4695498814171626 3.659917364122954 189 189 190
1.1750667019309118 2.4611832061757704 3.672165526008008 190 190 190
1.046005538324992 2.4935855764731523 3.74651979682052 190 190 190
1.0360958761070498 2.4803272382748567 3.7518103045391955 191 191 191
1.0216530450598196 2.468762926426729 3.759727224827626 192 192 192
0.9977710971443647 2.460704350236878 3.773112375011533 192 192 192
0.9471641869733738 2.462539779535955 3.8019788742137157 192 192 192
0.9748924387335405 2.4351436876078956 3.7854609194635005 193 193 193
0.9272390410442006 2.435689142373507 3.8126112705639805 193 193 193
0.6490729539264888 2.5206218844619883 3.9732686727117157 194 194 194
0.9932615327443919 2.3774269382711433 3.7734663927049854 195 195 195
0.9625442750985576 2.371653001598753 3.7908045927459058 195 195 195
1.1381710102208586 2.2582150630169826 3.687779606697104 197 197 197
1.129413479223565 2.244795943108871 3.692409768049517 197 197 197
