ply
format ascii 1.0
element vertex 730
property float x
property float y
property float z
property uchar diffuse_red
property uchar diffuse_green
property uchar diffuse_blue
end_header
1.5048188699517562 3.5251151042628766 0.3166474772315486 40 41 43
1.4975832917778678 3.4975923098756923 0.3196810424551446 33 34 37
1.4773457353384039 3.1685737463978043 0.3418048635592896 24 24 26
1.4799319790880798 3.113311522479791 0.3442434439638389 35 33 36
1.475044869871709 3.081782051620886 0.3469926366141936 40 39 42
1.4706978691028905 3.0488847064983204 0.34970058562996026 49 50 52
1.4058827563563887 2.589287025303678 0.3884041402166831 38 38 40
1.4060473169317658 2.5480786090536602 0.3905990169201642 38 39 41
1.4026320480318633 2.517350785562245 0.3929907183123365 39 40 42
1.3850116064068019 2.4868525376991073 0.3984015666804513 48 49 51
1.383720165939721 2.450869433341695 0.4006244050454936 53 54 56
1.3804452222321624 2.4206932415217417 0.40295630761480705 52 53 55
1.372286674295509 2.404222552116813 0.4055887613400426 35 35 38
1.3675575475046764 2.37848226686194 0.40799095631454607 29 28 33
1.3643104434661 2.348917396415483 0.4102838358373722 38 38 40
1.3591081433242136 2.3249086941856874 0.4126933074945463 42 42 44
1.3529449128800999 2.303691446186516 0.41515679457717225 28 28 30
1.3456447278701584 2.2856983510862845 0.41768844745934125 28 29 31
1.3348905208635586 2.2770781204673334 0.42045002084838035 30 31 34
1.3296252608813983 2.2539002947111557 0.42282796602884937 35 36 40
1.3225672980718377 2.2356563211493135 0.42532150181539824 34 35 39
1.3171726454609378 2.2131676325608947 0.4276897683806019 19 20 24
1.3071282167131868 2.20305413227091 0.4303806741488591 16 17 21
1.2925199954278757 2.2049162037938785 0.43339749436227554 23 23 28
1.2792333968734035 2.203292559085184 0.4363208926802618 22 21 26
1.2696921350850086 2.191964068351737 0.43897016529507027 20 19 24
1.257955014221753 2.1863597675901287 0.4417782981759209 21 20 25
1.24975415908002 2.171713617121444 0.44432104577279635 23 23 25
1.2385298565253173 2.1648800642279307 0.44708625754767406 20 20 22
1.2276066488977009 2.1573118631893617 0.44982696724112087 19 19 21
1.2083537708477077 2.1708269220174823 0.45320441606945316 22 22 24
1.213185259593694 2.123608913767614 0.45472851844799533 21 21 23
1.21016996768309 2.0964349632859896 0.4568425414298862 20 20 22
1.206006427859165 2.0723373507111735 0.4590351393778317 17 17 19
0.7976144135557011 2.078370733188324 0.5458648634794563 49 49 52
0.7998376299547179 2.0424202234699695 0.54733586403552 29 29 33
0.7740846513720814 2.0677181390802732 0.551462889659105 46 46 48
0.7506555607094026 2.0877345355880417 0.555379776816638 45 45 47
1.5244626216182047 3.575021613244553 0.3253372134303265 70 71 73
1.5159075916461853 3.551334724873374 0.32841119724613294 53 54 56
1.5071543719623852 3.528525544964861 0.3314814616606986 37 38 40
1.5006757343054111 3.4984622257388596 0.3344463209784584 32 33 36
1.4789386933136148 3.173706848353601 0.356154984225478 26 25 27
1.483789114855883 3.111281691046419 0.3583968606756973 35 33 36
1.4768213735623512 3.0861840886615806 0.36120547240390305 38 37 39
1.4558831375990922 3.104454339457128 0.3647238426734894 52 53 55
1.4101960316187157 2.5855348821206574 0.4017543948817963 39 40 42
1.4075131046206795 2.5523859019806423 0.40406954677929025 39 40 42
1.3999865352806373 2.533218187175515 0.40668617431520243 39 40 42
1.3905132167935046 2.5196778111270626 0.4094235496697916 41 42 44
1.3848816665772303 2.495488893200482 0.41189865218251875 47 48 50
1.376584664492138 2.4395037374856097 0.41661410834085694 56 57 59
1.3740155394021736 2.40751770768608 0.4188438302376783 47 47 50
1.372798118606701 2.3721028209063206 0.4209645800818348 33 32 37
1.3669379539669129 2.3496678461851705 0.42339644080469835 31 31 33
1.3632721993262094 2.3214566606954787 0.4256624061234151 48 48 50
1.3585527145115837 2.2963313422962432 0.4279916324495868 39 40 42
1.3486093048433536 2.2854622330170855 0.4306892235257415 28 29 31
1.3407976748776158 2.2689572815175403 0.4332269404386552 23 24 28
1.3316882532990335 2.2560323065776156 0.4358541604876752 20 21 25
1.3214946238105092 2.2460699550426186 0.4385576340124553 20 21 25
1.3165884309376046 2.222219041051565 0.44085984652071336 20 21 25
1.3089415188226263 2.2057558842674814 0.4433601392186886 22 23 27
1.2944288828045907 2.2073551820191275 0.44637998759390846 23 22 27
1.2797200995376874 2.2094153347268306 0.44941757743639094 24 23 28
1.2676442500417688 2.2046063467890034 0.45225289608825714 23 22 27
1.2562019329245981 2.1981760105290493 0.45503789018308044 27 26 31
1.2458724588850205 2.1889178013979644 0.45773342794418675 30 30 32
1.230914062407442 2.191527650149199 0.46079552727576095 28 28 30
1.2258094849601562 2.169043081326197 0.4630683935253392 29 29 31
1.2093279666387706 2.1755056677574602 0.4662538596534166 27 27 29
1.2212943500904587 2.1102582509517425 0.4671220798825086 25 25 27
1.208595239944928 2.107385674422871 0.46998897569366344 24 24 26
1.1978543263334724 2.099621620342684 0.4726940199366796 21 21 23
0.9743585958850238 2.26679056266746 0.5117121839544746 13 13 15
0.801492430674494 2.044818390669425 0.5603439899926184 42 41 45
0.7800574701108323 2.0607046878512914 0.5640938275057298 35 35 37
0.7526144342341159 2.089484632443768 0.5684513149906337 44 44 46
1.5308417195231916 3.6176874906060843 0.3373867361742258 102 102 104
1.5280818719424425 3.574254209159663 0.34019101376097843 65 65 68
1.5202692826943343 3.548071384794291 0.34319941967138246 49 50 53
1.5087966427982462 3.5342392375163554 0.34636307822048784 35 36 39
1.4995537096351808 3.5131890471311173 0.34941656710333674 31 32 36
1.4803305961876938 3.132113987513737 0.3729509573877197 32 30 33
1.4783201757299915 3.0914625038109524 0.3754528865446763 36 35 38
1.4604924783395865 3.100106793294129 0.3788335601470178 55 56 58
1.4230979549534895 2.6397146299948075 0.41030357208555374 42 42 44
1.4124828497588062 2.58756736858996 0.4152354334861392 41 42 44
1.3980745030924766 2.5470469165632936 0.4203879728729026 41 42 44
1.3894193563160564 2.5311182786312214 0.4230545571948114 41 42 44
1.3811431320900156 2.5142502618360645 0.42568778345129776 45 46 48
1.3785401015569643 2.442231407047353 0.4299147699081573 53 54 56
1.375546529726535 2.411367928855794 0.4321287614313277 58 59 62
1.375387191876706 2.3729913809578904 0.434118043516786 49 48 52
1.3703227132401758 2.3483537036026867 0.43645871937960107 31 31 33
1.366918796254383 2.319406654819434 0.4386630270777951 31 31 33
1.3617688793418596 2.295428376593286 0.4409884214572205 40 40 42
1.3532045427719772 2.2808383206720606 0.44356734677960064 42 43 45
1.342716405379079 2.2715075222904573 0.44629066825472685 31 32 35
1.3360164744497984 2.252131545138748 0.44871381319646947 26 27 31
1.329347921292307 2.2328228637364735 0.4511268043959191 24 25 29
1.3174468058222701 2.227481045507887 0.4539497513310613 22 23 27
1.3091534719776448 2.2126737063970765 0.4564816615077116 24 25 29
1.2961485695027508 2.2102960375082006 0.45939017503329915 25 24 29
1.2816272522907661 2.211854248154223 0.46242318918013764 25 24 29
1.2677240637519396 2.2117620079408224 0.4654078017327242 26 25 30
1.2489730054302448 2.2241391263252597 0.4687962095176435 32 31 35
1.2484502383398497 2.1895756840347604 0.47066912412406436 35 35 37
1.2421881514807898 2.1699636394858404 0.47301045127978064 35 35 37
1.225320683911313 2.177471118639822 0.4762432317751823 33 33 35
1.213482809095311 2.1721436454914866 0.47905189332175196 31 31 33
1.240571485570694 2.068743263008499 0.4785137272062098 28 28 30
1.2088681247187436 2.113724455555743 0.4830171955441007 26 26 28
1.2034634152756616 2.0925986273399118 0.4852518795409413 24 24 26
1.1825316563901376 2.1102246349399367 0.48884027381687306 22 22 24
1.1678308800861985 2.1122413933509114 0.4918883908207234 19 19 21
0.805879247933567 2.041232825374455 0.5730842014488617 50 50 54
0.7585470045767816 2.0825991101296153 0.5811216213902544 47 47 49
1.5364012229371213 3.6104405098901626 0.3522132239007243 89 90 90
1.5304142369699307 3.5777968259609874 0.35511048932720085 62 61 67
1.52610874157196 3.5398841698479266 0.35790665944862965 45 46 51
1.5109572036664347 3.538255083402712 0.36124152193408354 34 35 40
1.501132860617108 3.5190667064338506 0.36429886905172204 30 31 36
1.4828212778195589 3.1343830286564467 0.38722015804697835 31 31 33
1.4611739036177664 3.107909132505972 0.39317662928459896 52 52 54
1.3905050585326082 2.5769256444362467 0.43456530772553414 42 43 45
1.3869289999715697 2.5465193870744596 0.4368342819213939 41 42 44
1.3819272107148817 2.520376139565124 0.43919907043932765 44 45 47
1.3834199631599922 2.4368512605877135 0.44300124582342854 52 53 55
1.3793084488639047 2.409067813433534 0.4452557698153789 53 54 56
1.3748860847306221 2.3823756373513536 0.44752319689040126 51 52 54
1.3701921034305569 2.3566517221793717 0.4498011719418661 43 44 46
1.3663533303000635 2.328816058454274 0.4519996903538617 29 30 32
1.3605355553063536 2.3065742236185725 0.4543471725262876 35 36 38
1.3587460720019653 2.2736575964765637 0.4563563146201422 51 52 54
1.3484566200813424 2.263817352198315 0.45905213790444005 44 45 47
1.3420381618653692 2.2437059876560697 0.4614234823272267 34 35 37
1.3336140112104797 2.229079403372489 0.46395490613748497 31 30 35
1.3147388634281016 2.242182334864779 0.4673623993941346 27 26 31
1.3080321743197163 2.2231146466362484 0.469744137788975 24 23 28
1.295223038573671 2.2201706095107214 0.4726407740374549 24 24 27
1.2809484491415088 2.221038747186965 0.47566401017428966 27 27 29
1.2720884515752877 2.2078211997561517 0.47821950061660967 33 33 35
1.2518682761811422 2.2240190314711294 0.48176313188667824 36 36 38
1.248722832915183 2.1961599660628415 0.483813882731169 36 36 38
1.2366196662417612 2.1914349685435006 0.4866467901278861 36 36 38
1.230586626947078 2.171267989230282 0.48893809426822726 35 35 37
1.2210718026875746 2.160075929947233 0.4915342585660228 34 34 36
1.2324352948327517 2.0962945039314693 0.4922417224492312 31 31 33
1.2110302984304262 2.1153338517453206 0.4958995875145427 28 28 30
1.207014000729243 2.0907093391865526 0.49797773381433985 26 26 28
1.1898635711845933 2.0989510199201424 0.5012547215171979 24 24 26
1.1719634699957213 2.1089419181614653 0.5046063919325905 22 22 24
1.1547907913637063 2.117016663927491 0.5078963985440563 19 19 21
1.1365861297200968 2.1275189322765535 0.5112882451802149 18 18 20
0.7926510845728064 2.04523390342888 0.5892248330867452 35 34 39
0.7483656839966827 2.0797650475708656 0.5970325790940905 46 46 48
1.5616605431873127 3.589648935914564 0.363426016556076 134 135 134
1.538093972459572 3.6162167108591863 0.3672295722846625 85 87 87
1.5327487767769608 3.5813444437823665 0.3700461250122691 56 57 63
1.5283048124424843 3.5438228763156006 0.3727952510927856 41 42 47
1.513590794792188 3.5407167458965567 0.3761108929338545 33 34 39
1.4853137889220933 3.136654673233017 0.4015011822033229 30 30 32
1.4974798172322323 3.0517116978303735 0.4029404392780168 32 32 34
1.4643129438312048 3.1081173518831515 0.4073850313103239 52 52 54
1.388392462148549 2.591403195266043 0.44841257706556126 42 43 45
1.3861904076708185 2.5570151791520415 0.4505294217616365 41 42 44
1.382044572956346 2.528388110078254 0.4527894509054747 43 44 46
1.3861894160176584 2.4373253714829417 0.4562476636921444 51 52 54
1.3813453703215153 2.4115338834720723 0.4585225192249846 51 52 54
1.3757930788561705 2.387908250014074 0.46084635650747763 52 53 55
1.3717650542095283 2.3603060741551776 0.46303206359794036 55 56 58
1.365621253810144 2.338700694371027 0.4653867104622877 47 48 50
1.359018038348495 2.318515176321176 0.46777241614293247 41 41 43
1.3510460713241548 2.302181883965593 0.47026871581528834 31 32 34
1.3436374225197187 2.2844588916913526 0.4727101501639186 28 29 31
1.3376318114429666 2.2631232510873245 0.4750221647842611 30 30 32
1.3376786369034166 2.2258664796682965 0.47679198033187076 28 27 30
1.313185508880249 2.2538598951951103 0.48072687301014666 25 25 28
1.3082543491846916 2.2300405514764345 0.482926263487804 36 36 39
1.2930655551261518 2.233295273730615 0.48604022117189677 33 33 35
1.2814010642138385 2.2272920969275396 0.4888378430493116 35 35 37
1.2701593990056135 2.2202134023471176 0.49159583151928327 39 39 41
1.2638058120320668 2.200536534690384 0.4939035035558449 38 38 40
1.2579778881244899 2.179657576253947 0.4961554529010505 38 38 40
1.2434868989995997 2.1811154248694775 0.4992050486722575 38 38 40
1.2508406886718477 2.126865791438995 0.5002138237069256 37 37 39
1.239269712707512 2.1210812817610574 0.5029808695784366 36 36 38
1.2317034784745178 2.1052066958919564 0.5053679195456322 34 34 36
1.2093159312033381 2.1266899677565667 0.509160591492885 32 32 34
1.208802566118034 2.0932263383583045 0.5108697777275991 29 29 31
1.1904091506913121 2.1045572932113696 0.5142877110666932 27 27 29
1.1760942179865157 2.1056430980078806 0.5173171839189031 25 25 27
1.1588377290249106 2.1139449528581733 0.5206351007500766 28 28 30
1.1423474894980716 2.1202572245220477 0.5238831291729718 24 24 26
0.773663593795693 2.0617196694437676 0.6060403510250931 39 38 43
1.5716759148476473 3.567182789823276 0.3779230199009004 122 121 121
1.5731705373109577 3.5093035655264178 0.38027384194675445 78 80 80
1.5182460773250375 3.5364802199651377 0.3908666644183837 32 33 38
1.4878233470708617 3.13888120690697 0.4157929700556297 31 31 33
1.4989757683243075 3.056986251538589 0.4171696633076993 34 34 36
1.46737848557843 3.108557046470881 0.4216037921355229 50 50 52
1.386072402411147 2.6475971497311925 0.46043279863595193 42 43 45
1.385353133598278 2.6085433666580733 0.4623917099100749 42 43 45
1.386253884645821 2.5652712697758537 0.46419598785437166 43 44 46
1.3862438209561314 2.5249537287328425 0.4660602815952413 45 46 48
1.3871892066169296 2.442724290950334 0.469654231276892 51 52 54
1.381105339970158 2.4203081915141236 0.47200193026978315 51 52 54
1.3740397114220702 2.4007799388731197 0.4744280304591725 50 51 53
1.3678286402431183 2.3790657391967995 0.4767707511062487 56 57 59
1.3629719852204347 2.3538350489717326 0.47898371835036097 56 57 59
1.3589078810587223 2.3266640634781157 0.4811153359935737 51 51 53
1.3511771569372533 2.309621360745311 0.4835701084420435 44 44 46
1.344027612686818 2.2911464113678153 0.4859656621780051 40 40 42
1.3379164201678102 2.270037629621518 0.48825887544098 39 39 41
1.334290526728548 2.242482587979788 0.49031370275661945 39 39 41
1.3074039925674537 2.2767607454263508 0.49453033875026126 40 40 42
1.2990150947337926 2.261920898415078 0.49702534694265477 46 46 48
1.2863208096325778 2.2584815096445414 0.4999225442248767 43 43 45
1.2803120249512518 2.237584906487026 0.502183866839959 40 40 42
1.273192126106073 2.2197380937034783 0.5045440142453622 40 40 42
1.2626657753809063 2.210834973480117 0.5072259063496982 40 40 42
1.2485401435100076 2.211246625117372 0.5102540004410077 39 39 41
1.2386967714182393 2.200648085849044 0.5128668693315419 39 39 41
1.233804380609933 2.1774871621050367 0.514991950208354 37 37 39
1.2261259682902497 2.1615794118551914 0.5173830188396061 36 36 38
1.2319514260547673 2.1116619434287007 0.5184318909409734 35 35 37
1.205968332612318 2.142177412798277 0.5226274265568054 34 34 36
1.1930714815458867 2.1396155352893858 0.5255277911976295 30 30 32
1.1981783539827837 2.0921720992584727 0.5266174060384152 29 29 31
1.1892121384783287 2.0800427759649973 0.529111760769001 25 25 27
1.1813293632217747 2.065314763445391 0.531492425633708 29 29 31
1.1448849712924465 2.1209109256978755 0.5367862299873899 23 23 25
1.1270390946340076 2.1304528658308586 0.5401951403305427 20 20 22
1.112119975399866 2.1327453947280617 0.54330753034514 18 18 20
0.8028510763766095 2.034959626381465 0.6145377606065598 49 48 53
1.5628438156479967 3.6624747080630145 0.39116977690597304 158 158 158
1.5202542657974716 3.5410300726514716 0.4057928304482369 32 33 38
1.4930332666540642 3.1802459444469733 0.4277677149837259 25 25 27
1.5000212249893485 3.0636829189557346 0.43145560279629924 34 34 36
1.4701745723972177 3.109837623911099 0.43584930259154153 51 51 53
1.393426016314769 2.6352372699402156 0.4736068551971177 41 42 44
1.3903372519671848 2.6029328423302487 0.47571529421227265 41 41 43
1.3865663082779278 2.5728437495852376 0.47787240363846384 43 43 45
1.3868537265323375 2.531607359126237 0.4796493444223957 46 47 49
1.3871141898205928 2.451128954384885 0.483182240029443 51 52 54
1.3675271800906197 2.466049879250869 0.48675102805741494 52 53 55
1.3627248242136119 2.440035099820177 0.4889493962497353 50 50 52
1.3652217512547373 2.3942195010642426 0.49045291983922684 46 46 48
1.3610399710266983 2.3670448893393314 0.4925688612050913 51 52 54
1.358797365246033 2.3348327504434776 0.4944902653509776 57 57 59
1.3493212378829642 2.322448538402071 0.49709108914458566 53 53 55
1.3428539024823274 2.3020560041011846 0.49939864283123947 50 50 52
1.3353488552066475 2.2846024353891856 0.5017994517219048 48 48 50
1.3321993979819235 2.255678941934772 0.5037702270891993 47 47 49
1.322539931726244 2.2442557628178346 0.5063678238506619 45 45 47
1.3087694807629289 2.2437531357235514 0.5093670774952646 43 43 45
1.2826203228690884 2.275725275181591 0.5135939872256962 43 43 45
1.2719939036745171 2.2667925597609484 0.5162895452561467 42 42 44
1.2639233492761273 2.2512614683530985 0.5187268638099568 41 41 43
1.2660110811121092 2.2095434552141486 0.520136100048135 40 40 42
1.2590112628020445 2.191598129541562 0.5224496222302286 40 40 42
1.2396879382520152 2.0991909150775117 0.5307480623592932 36 36 38
1.2149805189887104 2.126578455264303 0.5348677685994612 35 35 37
1.2098872019265068 2.104527209164708 0.5369522686210285 32 32 34
1.1922184752469 2.114015678175411 0.5403486487969369 29 29 31
1.1626087974271098 2.1184773673351676 0.5465505587545452 24 24 26
1.1498082857284522 2.1156966133851047 0.5494417356931631 22 22 24
1.1317582090107945 2.125768924618873 0.5528945161119778 21 21 23
1.1211458629769702 2.117578935937154 0.5555539075036554 18 18 20
1.0487704572208292 2.1908046590346735 0.5679339697972439 17 17 19
0.7941158240539579 2.1227465679333557 0.6260193979772224 56 55 59
0.7989763836057042 2.080626791169539 0.626847134134966 54 53 57
0.8070232736979605 2.0318451070118497 0.6272831728159121 52 52 55
0.7964084363659981 2.0241414775731768 0.629921411961833 43 43 46
0.7719339817614426 2.0465794950100396 0.6342114972835171 41 41 43
0.7475635009110709 2.068579654636911 0.6384986337243886 47 47 49
1.5750943463436036 3.6322659871173952 0.4055657083799451 143 143 143
1.5817377054314428 3.5560292223302907 0.40740541050626716 92 92 92
1.5207344064899468 3.5506770948720883 0.420851172195774 31 32 37
1.492648395663076 3.191699755678065 0.44237504885297374 23 23 25
1.473749431694213 3.1087026581331614 0.4500389204384258 47 47 49
1.4164202552899772 3.145560275139437 0.4608733145832117 35 35 37
1.395299652268389 2.6385147218832175 0.4872565549304573 40 40 42
1.3881281325197836 2.617766080444758 0.4897025583373547 41 41 43
1.3883085717896266 2.5763897045922866 0.4914430425923486 43 43 45
1.3868052680423233 2.540130621697344 0.4933281960109877 46 46 48
1.3873826474377156 2.4983694860380634 0.4949992366578364 49 49 51
1.3779719477185361 2.4848213301421023 0.4976206404942659 51 51 53
1.3620011909187348 2.489560716347066 0.5008766585693936 53 53 55
1.3587060239702797 2.459242227074422 0.5028944942936633 53 53 55
1.3529570571606047 2.435922646971579 0.5051428947336096 49 49 51
1.3541132956934596 2.3939297580986563 0.5066985006636329 44 44 46
1.355234049995068 2.3524075176884787 0.5082415514709069 48 48 50
1.3552917320385516 2.314129691889745 0.509875362627862 53 53 55
1.342363753088522 2.3111493822387175 0.5128042222009797 53 53 55
1.3341204426952804 2.2956105079756997 0.5152583460016554 51 51 53
1.3313191947916314 2.2656748699329863 0.517152714390515 50 50 52
1.3188081762318626 2.261757510760467 0.5200315468882521 47 47 49
1.3034584675072902 2.265339539937373 0.5232028002493943 44 44 46
1.2850153972898006 2.2769832850740217 0.5266974603121872 44 44 46
1.277802142062507 2.2591052170107964 0.5290290434607301 42 42 44
1.274730919097776 2.2305771408370383 0.5309213600039813 39 39 41
1.253529114526261 2.21306109579222 0.5362678096798807 38 38 40
1.1481731468803478 2.092399788467998 0.5642813804273419 21 21 23
1.1446606411959743 2.06701907709214 0.5661339287759195 20 20 22
0.8134743300700605 2.023732040581537 0.6397428778307244 54 54 56
0.7973731203414522 2.028030763024973 0.6430461095272637 52 52 54
0.7855325600611451 2.0230014512983687 0.6458275204138899 39 39 41
0.7690811712261978 2.027967037615203 0.6491779324198437 50 50 52
1.5862024963900883 3.6059004308661144 0.41995097467566317 123 121 122
1.523228584513629 3.553644287991161 0.4357869480944462 31 32 37
1.5169269199079243 3.522571565253039 0.4384420536113977 29 30 35
1.4922075957729497 3.203360782845948 0.457030206720843 23 23 25
1.5005095574128533 3.082148569959391 0.4602484417618321 33 33 35
1.477129274177858 3.108175142613938 0.4642462508916566 45 45 47
1.4361393783106227 2.9137214846166293 0.4811993124431157 31 30 35
1.3931564744431992 2.6532935140499303 0.5013176915593456 39 39 41
1.3857075318280394 2.6332353179845693 0.5037656505442193 40 40 42
1.3829619261838997 2.5593673005537143 0.5074213110558696 45 45 47
1.3837140218642188 2.5169741466260485 0.5090139455276647 48 48 50
1.3769350203007076 2.495975469162837 0.5113554158500602 49 49 51
1.3554991945386412 2.4762486247294992 0.5168261807867653 58 58 60
1.345578332654198 2.4642850562550143 0.5194755122354433 57 57 59
1.3466115886050036 2.422444331569994 0.5209842257786879 48 48 50
1.3468453619034133 2.38315232198027 0.5225609386472032 44 44 46
1.3441202780356758 2.3522202891715005 0.5244337467415849 45 45 47
1.338753062304587 2.3286733349946855 0.5265742695186014 50 50 52
1.3358385944285092 2.298740143499386 0.5284468208408454 51 51 53
1.3206661497849257 2.264448231142864 0.5331610968118625 47 47 49
1.3006205326259466 2.280432831240269 0.5368508910113641 45 45 47
1.2777596902325028 2.303637064435909 0.54085283090399 41 41 43
1.2716685764034814 2.2826747908088736 0.5430434540381036 38 38 40
1.2708161126574313 2.248223350574043 0.5446554921621369 36 36 38
1.2335552574142437 2.0939115403664252 0.5591363200678623 35 35 37
0.7977147444025137 2.127108781710705 0.6523815925925868 59 59 60
0.816405370881895 2.023330132923877 0.6526223711174763 54 54 56
0.8023518301972657 2.0231583003770406 0.6556804900725903 54 54 56
0.7984790734027807 2.000806482135779 0.6574470659369094 38 38 40
0.7749379866860254 2.0212277904298577 0.6617119538241758 39 39 41
1.594200741652799 3.590148613175782 0.43450380892867774 107 105 105
1.5257252816210394 3.55661387732541 0.4507370026724796 32 33 38
1.4990427203285637 3.0967803220899697 0.47485689269363973 31 31 33
1.4814903841713485 3.104591133004986 0.47836448248585994 43 43 45
1.4113537622482712 3.0882893160912115 0.4942727044886695 31 30 35
1.3919314777251772 2.6654768358711776 0.5153385258545085 38 38 40
1.3864747520532528 2.5175759640182847 0.5224164735221974 44 44 46
1.3815072729756626 2.4914916124469544 0.524536119248498 45 45 47
1.3578843716871638 2.517465607121929 0.5286409958971163 48 48 50
1.3376114210458891 2.4943261632403306 0.5339732085627447 52 52 54
1.3379402819372959 2.4542213228022094 0.5354990075055912 50 50 52
1.3375790131524654 2.4163527407008303 0.5370858826461969 49 49 51
1.336755460906411 2.3800705015567702 0.5387101493779365 46 46 48
1.3357502793290434 2.344594805257804 0.540341807409511 43 43 45
1.3257055236064414 2.3336951576305323 0.5429612706529586 41 41 43
1.3212085504630318 2.3080428240123916 0.5449613460921463 40 40 42
1.3169556447478512 2.281952589658553 0.5469257634498622 40 40 42
1.2963781248048505 2.2992745533826477 0.5507126904861279 36 36 38
1.2756365702964074 2.316828312076497 0.5545260726829719 34 34 36
1.2664420344706382 2.303915138369415 0.5570407592189387 35 35 37
1.2603239202943417 2.28306398442893 0.5592023029009878 36 36 38
1.2469096407777402 2.2448894114197464 0.5636411801766905 39 39 41
1.1345653683716992 2.071370373249218 0.59499394918669 20 20 22
1.1051750806849785 2.1089147049566805 0.5998927412673096 20 20 22
1.0646020885621685 2.139171873010441 0.6075146863148493 19 19 21
0.7984656919998547 2.1000710205271034 0.6669727138933443 58 58 60
0.8057002447895764 2.021844622567838 0.6685144628701944 54 54 56
0.8078242868267814 1.9864200369418592 0.6694632908973481 53 53 55
0.7861945369333299 2.002769567227653 0.6735178725215828 35 35 37
1.5279974337909152 3.5603439561745702 0.465721872061392 31 32 37
1.49999587978277 3.1038567760232403 0.48928197696092274 32 32 34
1.480095090526902 3.1189634228869783 0.49304314034606284 41 41 43
1.415182545474376 3.086382263017987 0.5084413449349181 31 30 35
1.418877459210861 3.0295688851703004 0.5098082011289106 30 29 34
1.4200515039497388 2.980890600353109 0.5114135928370366 30 29 34
1.413781334035423 2.6530567657150486 0.5253163323458319 35 34 39
1.3841859359718254 2.5323681562876104 0.5363836708304645 41 41 43
1.36510350755606 2.5056598083769757 0.5415653345014826 45 45 47
1.3498456202970344 2.508270260684393 0.544792072086514 47 47 49
1.3437269069885702 2.485648517159992 0.5469910963803192 49 49 51
1.330434261022761 2.4828721515354024 0.5499953490552212 50 50 52
1.3307432125158227 2.4429948382764897 0.5514528187861598 50 50 52
1.328410577878662 2.4106388658642315 0.5531986116739018 49 49 51
1.3264633377974655 2.3775206971969074 0.5548895248930165 46 46 48
1.316980332369852 2.36493884666363 0.5574381338415119 43 43 45
1.3112583589279319 2.342384212950768 0.5595480939485635 39 39 41
1.3042274809469543 2.323494579235511 0.5618032819170569 38 38 40
1.290118791157231 2.3234980244346737 0.5648791557923316 35 35 37
1.270846187768119 2.3370789319093856 0.5685617019954319 34 34 36
1.263656821957343 2.3187940889705745 0.570828317828472 36 36 38
1.2624428306495292 2.285044738696352 0.5723835017501662 38 38 40
0.9663248435042177 2.313002968304756 0.6358746890589008 20 20 22
0.8052027661363309 2.060027401791292 0.6806761313537892 55 55 57
0.8171279380429699 2.002850792900123 0.6802624989286481 53 53 55
0.7980442431804213 1.982996480606621 0.6851823542249718 45 44 49
0.7810443307171178 1.9892673518045039 0.6886489247034225 44 43 48
1.515047107997579 3.5624781390859868 0.484108674600988 29 30 35
1.4828673641567098 3.1203531085035996 0.5073415159434557 37 37 39
1.4613155967664997 3.0935668449868015 0.5130318440618742 39 39 41
1.4142382742229334 3.098985511668882 0.5231189240911316 31 30 35
1.4142410756353776 3.0532036147504087 0.5247960314132656 29 28 33
1.4185881298731995 2.9499754693209264 0.5276291582467421 29 28 33
1.4284345509595497 2.8762770016863097 0.5281786182260217 31 30 35
1.416233242574283 2.696698198315136 0.5374252406577172 34 33 38
1.3543253117781315 2.5040915390444694 0.5580093932964161 44 44 46
1.341725969549361 2.4993310268851445 0.5609366040458057 46 46 48
1.3240855704573098 2.5084091010410643 0.5644580785405946 48 48 50
1.3208620427709077 2.4780065739436945 0.5662764968136758 50 50 52
1.3181799331352542 2.4463938785814174 0.5680209715074753 52 52 54
1.320516383286054 2.401486603917596 0.5691561620787196 53 53 55
1.313049449646732 2.383350449933464 0.5714521851489616 49 49 51
1.3073535802378562 2.3606124180894743 0.5735298986484962 45 45 47
1.2976256069815406 2.3487997282596793 0.5760881940781136 41 41 43
1.2915884975794112 2.327278924068079 0.5781958567128277 39 39 41
1.2770159356050128 2.3284509633030788 0.5813367810767762 42 42 44
1.2813330424349323 2.279969597194531 0.5821702052640174 42 42 44
1.2091278064512403 2.176960173538343 0.6017207841242674 36 36 38
1.1955215912245414 2.106111123653582 0.6072898555013335 30 30 32
1.188468835371446 2.089110191626734 0.6094537860172629 28 28 30
0.809702500632245 2.0251178401830754 0.6945533106781309 50 50 52
0.7962970630699475 1.9927275744701447 0.6986691580662209 53 53 56
0.7902322455306958 1.9753067387164789 0.7006326274071654 46 46 49
1.5053809920221812 3.6059338733841666 0.5003545496028978 29 30 35
1.4700326255161498 3.1233062379390546 0.5250115242003404 47 47 49
1.4634238536984459 3.0969660363290394 0.5273817967200889 38 38 40
1.4233947208921038 3.0808758186174448 0.5367100507164275 31 30 35
1.4093929530025928 3.0775358034510303 0.5398927680044727 28 27 32
1.4133503971268162 3.020106011129335 0.5410393883072233 27 26 31
1.4161769112305311 2.9666300369951073 0.5422950285223465 27 26 31
1.4139570306434754 2.7121580858654752 0.5517010813657093 33 32 37
1.3419150434464135 2.546749121466073 0.5732725184183592 40 40 42
1.3335121144404716 2.530189587736165 0.5756927733467222 43 43 45
1.3358411798220082 2.4842858207342795 0.5767918993317361 45 45 47
1.3171162310290545 2.496326903709111 0.5804695866828156 46 46 48
1.313508557659812 2.467107157276831 0.5822837157019047 49 49 51
1.3049673814527505 2.4514852029265426 0.5847013743709191 51 51 53
1.3036094419479305 2.416635958933372 0.5862202628412665 51 51 53
1.3070360528092861 2.3692664986734675 0.5871304619832226 50 50 52
1.3062143018587655 2.333647230642032 0.588558945478298 48 48 50
1.2961330235083701 2.322909079326781 0.5911426121042819 45 45 47
1.2873005490381264 2.3089398277423694 0.5935661172703428 45 45 47
1.2889278436618716 2.267572791846247 0.5946598673286418 45 45 47
1.2802251297754808 2.253589170337558 0.5970554655647484 45 45 47
1.2557241872246414 2.208072924610497 0.6040153469594038 39 39 41
1.1958690541690686 2.112249675527863 0.6204793222239126 31 31 33
1.1712659207362677 2.1042540662258182 0.6261463652955019 27 27 29
0.7917437701488359 1.9779446947379358 0.7136689810369571 57 57 59
0.7887421375425174 1.9540055859388528 0.7151653170426192 54 54 56
1.5067257248327817 3.6128156127176436 0.5155635579158019 29 30 35
1.4720104866043 3.1271741619708187 0.5394296670980813 45 45 48
1.4656559874294994 3.099992432265132 0.541733386885223 40 39 43
1.4389842300549784 3.04312449410424 0.5494881829553623 31 30 35
1.4077391493060105 3.0922442100922787 0.5547001263625102 28 27 32
1.4101993997563131 3.0391827173503043 0.5559357297694116 26 25 30
1.4140218080239269 2.982556751845766 0.5569917282580856 26 25 30
1.395555298312158 2.6483021307959445 0.572227405842685 33 32 37
1.391309282738356 2.619096209495778 0.5741362330832256 34 33 38
1.3870994371267176 2.5900448566738707 0.5760319525336719 35 35 38
1.3274617977869798 2.555137379184801 0.5902849837295783 40 39 43
1.3373822256092622 2.488193823269558 0.5903482407165919 41 40 44
1.3244844498091417 2.4842866788740574 0.5933088623995317 43 43 45
1.3092933748805646 2.486623116402714 0.5965637486442799 45 45 47
1.3043357657396628 2.4611815239628436 0.5985027539408604 46 46 48
1.305466930180624 2.4195388495294483 0.5996479044134171 47 47 49
1.3031187248529599 2.387596269790912 0.6012319014897369 47 47 49
1.3049394763500697 2.3447971263594356 0.6022644449436283 47 47 49
1.3000837485648002 2.3201104551225424 0.6041558373294688 46 46 48
1.2919842879659642 2.304200807761109 0.6064652607812288 45 45 47
1.2927906331793513 2.264974040687573 0.6076008448085651 44 44 46
1.2857892250986045 2.2465317832552287 0.6097540849879078 44 44 46
1.2738393537420547 2.241126957539481 0.612556839189152 43 43 45
1.2467454194200123 2.238613474755462 0.6185855979816268 39 39 41
1.210841950931966 2.258543627807749 0.6257962995466535 37 37 39
1.1901611930082372 2.0988278720553524 0.63567784005845 30 30 32
1.1709781663511398 2.1119121792681317 0.6394489802091885 28 28 30
0.7945802468626688 1.9472820348148767 0.7275425807589485 64 64 66
1.4702448551640677 3.1427254848283788 0.5543165996558306 42 42 46
1.4674478562419317 3.104394008923074 0.5561530114549156 42 41 46
1.46279147894499 3.0721692913012686 0.5582036572115368 37 37 41
1.4006199022065402 3.0777080125462026 0.5716969600566562 26 25 30
1.3904975913523046 2.5482367641873513 0.5907941383401762 34 33 38
1.3459273823098077 2.5522064267945015 0.6004673898267194 37 36 41
1.3355681728507554 2.5013443808312052 0.6043658063256195 39 38 43
1.3230175509222317 2.496415796216729 0.6072823866666017 40 40 42
1.3083740139012439 2.49720110303023 0.6104770678439028 41 41 43
1.3029200728136443 2.473025747542014 0.6124465832407318 43 43 45
1.294514298245013 2.4570135643207496 0.6148050054806835 44 44 46
1.2920428938325523 2.425186063633696 0.6163625794170529 45 45 47
1.3062522611862584 2.3114110292281778 0.616863769891711 46 46 48
1.3015135714010773 2.286631117549468 0.6186952856391166 44 44 46
1.3004169024876648 2.2524600614018615 0.6200252708564794 43 43 45
1.2929116730592198 2.1988426750728434 0.6233839755638373 42 42 44
1.2607028717270383 2.246250775003404 0.6289551358364665 40 40 42
1.2106871376623962 2.2662826847475523 0.6393138838338847 37 37 39
1.2020839278027917 2.252205642059062 0.6416540534622737 37 37 39
1.185431776120017 2.1175881808697987 0.6496049727697675 30 30 32
1.1710772881200784 2.1186274337876037 0.6527280081628859 28 28 30
1.0457969436952914 2.2184650894283586 0.6770923379142595 19 19 21
0.7805265528054256 1.95311546317879 0.7438732376937707 69 69 71
1.5146753513684215 3.556593215537219 0.547026739358325 28 28 33
1.4693437602364545 3.1556176342245976 0.5691522841731038 41 41 43
1.4670423058550996 3.1156304246308846 0.5708697754177015 44 44 46
1.4649069215736539 3.07552142693641 0.5725543620665157 38 38 40
1.400521652744755 3.0876744850465285 0.5863728315209225 26 25 30
1.3338972540751863 2.4747314388796138 0.619606117235304 38 37 42
1.3185407557377333 2.477566473071165 0.6229038782054743 39 38 43
1.3005556477943427 2.4874712798466323 0.6265668145642219 40 39 44
1.2960693524426072 2.460784527737344 0.6283631025434859 42 41 45
1.3062523132035637 2.394893047853183 0.628113952059631 42 42 44
1.2902375230729675 2.399674940441689 0.6314978270832792 43 43 45
1.2732221450674857 2.4070383107379927 0.6350240263012086 44 44 46
1.2840064078735194 2.303295227186262 0.6357881436544657 43 43 45
1.28105556143885 2.274002264990025 0.6373250073865249 42 42 44
1.2816959155317353 2.2355740107310895 0.6383471257115729 42 42 44
1.2708619060344104 2.2272971444371947 0.6409847770127592 40 40 42
1.1834688300826468 2.1294896145804563 0.6632011468530936 31 31 33
1.172623194585428 2.121767360991327 0.6658245718233609 30 30 32
0.7957340741508112 1.9262429749899994 0.7547849570302206 59 59 61
0.8066809573506991 1.87268698303478 0.7539940963361627 69 69 71
1.595893778615315 3.7777377356358994 0.5384276849904523 163 159 160
1.4798819778186334 3.1327943496009767 0.5825357789412642 40 40 42
1.4662266698555484 3.128170560380818 0.5856834309245844 45 45 47
1.4590384767103055 3.1035630472689366 0.5879761596313087 40 40 42
1.4186728691192367 3.0424608503764565 0.5986408457716529 27 26 31
1.3187328051289928 2.485127310873847 0.6366882327971561 36 35 41
1.3041003718337898 2.485894329221969 0.6398970585664348 36 35 41
1.2982364194407063 2.4629108894965985 0.6418508288615037 38 37 42
1.2915959219794573 2.4038807807633114 0.6450096478149348 38 38 40
1.2798512179993624 2.3971853315276066 0.6477948433549389 40 40 42
1.2911176280761438 2.2551373962747916 0.6493802664961594 41 41 43
1.291357495147511 2.2178062093238333 0.6503977246900778 41 41 43
1.275293647697328 2.2232093303210716 0.6537896706511812 40 40 42
1.271670573324619 2.1963136323081156 0.6553608371246641 39 39 41
1.1724994034599814 2.129061926733197 0.6791860304826385 30 30 32
1.528523358994435 3.278873260544128 0.5828400333271597 19 19 21
1.502248612655118 3.2648963401409508 0.5890320867591989 27 26 29
1.4811357622005301 3.138969120096179 0.5971132618418269 39 39 41
1.4710108201607954 3.1233186136370468 0.5997772922410736 46 46 48
1.4602311975009434 3.1098208375463354 0.6025278896001696 40 40 42
1.458827202814113 3.021432235976824 0.6052318186548041 33 32 37
1.4146868508123123 2.7546555010912344 0.6222218560227019 29 28 33
1.3016137853390815 2.5007192815854253 0.6541164051689269 33 32 37
1.290567288595701 2.491663674173071 0.6568057720216794 35 34 39
1.2811857821208843 2.4396380928838974 0.6602902281124443 37 36 41
1.2777806863664178 2.41051833091146 0.6618321157503052 38 37 42
1.2713435298859204 2.389690607278741 0.6638203616105083 39 39 42
1.2707181567142167 2.2425718284744627 0.6679422351389919 39 39 41
1.2687621500341477 2.21123609669422 0.6692234957165819 39 39 41
1.2255343225515718 2.1430816354791125 0.6806335752826194 36 36 38
1.22427002626467 2.111124128471644 0.6817786222887299 34 34 36
1.1601442318697877 2.1320315484871086 0.6954011196660729 27 27 29
0.9174856851805091 2.0102025857128227 0.7523909757742735 97 92 91
0.8861648675076553 2.0173920300997823 0.7591264162356812 88 87 85
0.8119566612192153 1.902972314638902 0.7786439909639371 50 50 52
1.5147672839886055 3.6431171635372985 0.5918499230160692 31 31 33
1.5412975056138645 3.501801701872155 0.5895680830462955 30 30 32
1.5142090871996507 3.2862377474872617 0.6010666656962987 23 23 25
1.4724297380623317 3.1289418790505765 0.6143379867291334 44 44 46
1.462377366742411 3.066494794371674 0.6181579540123903 38 37 40
1.4039699335959093 3.060590292750345 0.6312588303667599 26 26 29
1.280312800428678 2.5667959397946354 0.6712582562212855 30 29 34
1.2867804114128845 2.509959773889189 0.671272355908451 32 31 36
1.3036042482833405 2.4257213891426526 0.6696883977525683 34 33 38
1.2771185583168811 2.4584526865538883 0.6747269936419975 35 34 39
1.2620700695698 2.4602964944294667 0.6780166532239846 35 34 39
1.271287674982795 2.212092097865832 0.6822969036967188 38 38 40
1.2151293566769628 2.1062382182315074 0.697445716185039 33 33 35
1.1994428838703417 2.1106926669022115 0.7008103164436451 31 31 33
1.195976116151277 2.084669636050202 0.7022420324018012 30 30 32
1.1674641827400576 2.1208815959289873 0.7076412144969411 28 28 30
1.1722117598731334 2.04061484334727 0.7086336809640104 23 23 25
0.8628099905464799 2.012773409555612 0.7779454110429476 97 93 92
1.5530948097007617 3.5259656579820913 0.6019682587638795 30 30 32
1.4739327509448374 3.1343190459669605 0.6289100485990793 42 42 44
1.4626196239614635 3.122379838256389 0.6317088265155008 44 44 46
1.453829393280985 3.1027436201692886 0.6341308524188618 39 39 41
1.2619099098505784 2.507226990059743 0.690994747440204 32 31 36
1.2837796465498061 2.2601617624866086 0.6920356002491396 36 36 38
1.2478941191105772 2.243739776129054 0.7004011669364506 36 36 38
1.21948086188521 2.2806205859965862 0.7058335643535698 36 36 38
1.2071247504982803 2.2041223501578684 0.7104057962146915 35 35 37
1.2040088193918614 2.176494173163107 0.7117579039842817 34 34 36
1.2096150867084754 2.127164735501593 0.7116902689930741 33 33 35
1.1959648686779851 2.1264309410628015 0.7147407318442237 31 31 33
1.1728135629388337 2.149332095681599 0.7193378209259411 30 30 32
0.9930671177854292 1.9779908114609066 0.7633673955420303 46 45 47
0.9715015852707447 1.9635889305284526 0.7685029637978146 74 71 72
1.5564857058380555 3.5259534048157812 0.6168529778657688 30 30 32
1.4830506032161317 3.163396684368287 0.6412818835608385 35 35 37
1.479261819178056 3.127764825580255 0.6429194004824978 40 40 42
1.4674841130320295 3.1172878904156343 0.6457751955819285 44 44 46
1.2429720984963124 2.2638946508127846 0.7147785278686621 34 34 36
1.2171043667437693 2.2941594571044854 0.7198637399513603 34 34 36
1.20215074186286 2.1883668084662484 0.7255504367235788 33 33 35
1.1972750833023018 2.1653040338997913 0.7271498934774988 32 32 34
1.1877723732983487 2.1540063885845195 0.7295174380653983 32 32 34
1.1697178333855454 2.16409585210398 0.733312546839042 30 30 32
1.180165843466203 2.1033360260234515 0.7323400709408507 27 27 30
1.0095938582746218 1.9462830222773757 0.7738179801926555 43 42 45
0.9928079981437408 1.9529505950604154 0.7774068568953565 61 59 62
0.9687322353372206 1.9761642306535647 0.7822501900059133 72 69 72
1.5579563344712088 3.532407289159374 0.6320370561925288 30 30 32
1.4832603574783625 3.1729308281948705 0.656137582598781 33 33 35
1.469995298731863 3.1195037087702184 0.6602022096364522 43 43 45
1.2209796196974854 2.2916132023620923 0.7328841409757454 33 33 35
1.2039051489137205 2.2267969311633626 0.7380342618142723 32 32 34
1.2018505047355321 2.1963230325942424 0.7391229333412567 32 32 34
1.1924961837092716 2.184477503787656 0.7414550375708897 32 32 34
1.1781356316907503 2.185255271764681 0.7446430574541527 31 31 33
1.1774900466192904 2.151773613723722 0.7454795464135658 30 30 33
0.9909154104361494 1.9635745821825112 0.7910000203623058 56 54 57
1.5714830055149878 3.5511350711424337 0.6443185445511332 31 31 33
1.559197072759284 3.5396556604604283 0.6472845063862469 30 30 32
1.4731609610668512 3.119690527371602 0.6745338966886636 41 41 43
1.2172039819618647 2.3088027710395576 0.7472337556528338 31 31 33
1.2011821271451673 2.277074883500094 0.7514213587375949 30 30 32
1.2178179304070902 2.1631049193220946 0.7498764796352375 30 30 32
1.2143432677089034 2.1365805570239593 0.7511594549064793 31 31 33
1.1776322668333183 2.193650589111542 0.7582784925899411 31 31 33
1.1713882008568386 2.1740785357903403 0.7600480062445976 31 30 33
1.1835848160563214 2.108810198084294 0.7585664022069857 29 28 33
1.1718228256694077 2.1033903957653797 0.7612995987603468 27 27 29
1.171488041928439 2.069837595064917 0.7620146560879915 25 25 27
1.06241001762313 1.8371528858795638 0.7908424215418415 41 40 42
1.5626439633912712 3.5394820986854127 0.6621973098707814 31 31 33
1.2500612142287344 2.231428270534922 0.7550942201904309 30 30 32
1.2356132942559044 2.232397755451481 0.7583143047562195 29 29 31
1.1980703434625526 2.114479304951455 0.7687868167893162 30 29 33
1.1879210348952385 2.105022274874759 0.7712260491306702 29 28 33
1.1776722755565907 2.0958647102924117 0.773682328914113 28 28 30
1.168823981874547 2.083304400865848 0.7758843130956343 27 27 29
0.963809602762757 1.9112177935156955 0.8248252914431604 73 68 72
1.5664984218358216 3.5379346052233407 0.6770445160559989 31 31 33
1.2260304975619172 2.337793484294084 0.7725380607087954 29 29 31
1.2343424882410623 2.2794686464065967 0.7715978978429496 29 29 31
1.1712788155181368 2.223933798143136 0.7866382289344847 29 29 31
1.1754464604867447 2.1781326531434027 0.7864296955078096 29 29 31
1.1870273536378095 2.1142545424197854 0.784843786535285 29 29 31
1.1763051331789054 2.1062182238942144 0.7873786561448659 28 28 30
1.1692267543620005 2.0892294601355186 0.789237567509226 26 26 28
1.165934220252743 2.06306108398779 0.7903922456474854 25 25 27
0.8882404032412543 1.8691743815744701 0.8558164415878378 72 72 75
0.8688551709142005 1.8811734525188952 0.8599781826004522 66 65 70
0.7267507391160568 1.7980855318310272 0.893201663307308 60 58 62
1.5735118997519288 3.5257005783724327 0.6913328528409538 31 31 33
1.5428705728848633 3.3180203118408516 0.7011907557849704 19 19 21
1.2746394903655558 2.2925586655721673 0.7761736369958255 29 29 31
1.257850315989641 2.2994691827816185 0.7798522095188055 29 29 31
1.2520004151262818 2.277841410813171 0.7814770097511531 28 28 30
1.2577962223355081 2.2262515368426197 0.7809094272476081 28 28 30
1.228427667047541 2.229402685992541 0.787471751284895 28 28 30
1.1823936806226727 2.1678524015471274 0.798706937694269 28 28 30
1.1847337804784346 2.126995708197238 0.7987636194220578 28 28 30
1.1789091609842992 2.1067388279969244 0.8003631649141472 27 27 29
1.1668268934726724 2.102090378312349 0.803147766487907 25 25 27
0.944044797182856 1.8436109150226003 0.8569583254699669 83 81 84
0.8764685262559291 1.9009702527423316 0.8713428510775836 71 71 73
0.7522799526198913 1.750638735139338 0.9014283485012567 51 49 53
0.7169797952754585 1.7949535966833121 0.9087376203595422 60 58 62
1.5767914950008943 3.526085505779269 0.7062651876593734 30 30 32
1.549491330867498 3.3071919474843035 0.7151930425761462 18 18 20
1.5349728306482757 3.304418399512792 0.7185012954001322 21 21 23
1.47904827723257 3.1416614166487515 0.7331711580284186 33 33 35
1.2033371734301124 2.1224720470578737 0.8082408997539755 28 28 30
1.2124536372371506 2.0648758772117493 0.8069153361880226 28 28 30
1.1663302842642387 2.1102714519050254 0.8167384660128587 25 25 27
0.9375662615069246 1.8333396651607485 0.8718205104906455 82 80 83
0.9179059641276677 1.846270720165922 0.8760889893424435 75 75 77
0.8819839876613209 1.864282966621182 0.883959198378909 64 64 68
0.8130097875878627 1.8928964264817492 0.8991465379395318 57 56 62
0.736475433271857 1.7889590651692573 0.917717572479125 43 41 42
0.7328797468006696 1.7675743150402692 0.9187991255262989 55 53 54
0.7082702712100539 1.789624845402988 0.9240678332341492 60 58 59
1.5812843677434323 3.5223602109105547 0.720974947108239 31 31 33
1.5497586245154156 3.267033754873167 0.7309219298330648 21 21 23
1.5115347196287816 3.145146597497087 0.7409056913123164 30 30 33
1.496303775812191 3.1453282903751347 0.74434450756021 31 31 33
1.4804146594810246 3.1475242401779004 0.7479097255083611 33 33 35
1.471310957081477 3.128523124156059 0.7501765782720096 35 35 37
1.4684488856042643 3.0903564534530505 0.7512454348831945 39 39 41
1.453683891672167 3.0892218052443523 0.7545935525861347 43 43 45
0.9783823587491822 1.9344212768722144 0.8747460401782896 56 54 55
0.8412025939812219 1.8379727881611991 0.9068034865186205 59 58 64
0.7470937529050365 1.7724255022308033 0.9287888707166532 44 42 43
0.740233656424518 1.757845751609864 0.9304999508168061 48 46 47
0.7224269205644651 1.76592352681852 0.9344333007586937 50 48 50
1.6450691299382059 3.925084360716416 0.7184097066662143 168 166 167
1.5861094645542857 3.517500693873756 0.7356119411629645 31 31 33
1.547172334744677 3.2862007994680567 0.7466141539825849 21 21 23
1.5065773165527399 3.1231640062836763 0.7573460021036791 31 31 33
1.4950163840347543 3.1119149158556683 0.7600695243794078 33 33 35
1.4726669741735567 3.1343781321232127 0.7649164327228919 35 35 37
1.4717901324199931 3.0899774928643824 0.7655348956171141 37 37 39
1.4658830811899213 3.061527499093317 0.7671412087484506 41 41 43
1.0928845867665382 1.8040993649350978 0.8634727286333042 54 52 53
0.9877972410891734 1.9192103485742102 0.8861732350292277 57 57 57
0.969973411920801 1.865525531993437 0.8907159104868604 67 66 70
0.9489040912521759 1.8201263015579978 0.8959149187186977 72 70 73
0.9378451241376742 1.814110726270165 0.8984753063087663 73 71 74
0.9193943611792414 1.764028496664952 0.9031258294343653 82 80 83
0.8638311027819705 1.8550130910751357 0.9148434538803367 72 70 73
0.839411357980171 1.8777693799166222 0.9201562650856727 72 70 73
0.8522201734895756 1.8200099056997878 0.9178029740602265 75 73 76
0.8258077856719455 1.8469456382335263 0.923527340990665 74 70 71
0.8168880189507872 1.8362095785196064 0.9256481132011194 71 68 69
0.757285702431594 1.7567552532546165 0.9398921937479461 50 48 49
0.7517869368231214 1.7394047378961153 0.9413010954470645 55 53 54
1.646175477713441 3.933988540058411 0.7343972298330314 168 166 167
1.5854587945211986 3.584822849321119 0.7509120494436647 32 32 34
1.5808087019700605 3.5470606606517467 0.752263401382608 31 31 33
1.5410269670742824 3.3170365745831276 0.7630937692261205 22 22 24
1.5033957685098502 3.14341265829958 0.7729934440186483 31 31 33
1.4709003774135412 3.149996043941615 0.7803130932490796 36 36 38
0.960681203337393 1.8305699332639103 0.9064128546174381 68 66 69
0.9369582709231639 1.8220193369569233 0.9118613690215845 82 81 80
0.9314633907105967 1.8037227612574924 0.9132515090178517 82 81 80
0.9253353219488023 1.7869383852060499 0.914773409284001 82 81 79
0.9155972153583112 1.7781535865742315 0.9170514068660702 82 81 81
0.8768134191271493 1.832630325494326 0.9254214717464997 99 97 100
0.8563736710546828 1.846868134259717 0.9299462829649717 124 122 125
0.8558883515224169 1.8178851760012114 0.9302839511401664 118 116 119
0.8291030892536417 1.8456506451913959 0.9361419755097373 100 96 94
0.8209289873504201 1.8333130176297716 0.9380930871832849 88 86 83
0.7390907890111711 1.7424739501878168 0.9573707630470539 64 62 63
1.5356239856096074 3.295296075698962 0.7798455114387142 24 24 26
1.4725064762940785 3.0608918438235064 0.7956565182849078 38 38 40
0.9472529556648749 1.8357658455821468 0.9227022050592878 74 72 75
0.9351354656843062 1.8320156670845877 0.9254800422132136 77 73 75
0.924852578860939 1.8242208789759153 0.9278661148713108 79 75 78
0.9225689888895644 1.798891857843235 0.928543371111277 80 76 78
