ply
format ascii 1.0
element vertex 878
property float x
property float y
property float z
property float nx
property float ny
property float nz
property uchar diffuse_red
property uchar diffuse_green
property uchar diffuse_blue
property uchar class
property uchar detection
end_header
0.8045 2.7527 -0.0300 -0.807 -0.534 -0.255 35 35 37 0 0
0.7986 2.5418 0.0135 -0.940 0.064 -0.334 33 33 35 0 0
0.7974 2.5557 0.0118 -0.924 0.133 -0.360 32 31 35 0 0
0.7706 2.7204 -0.0071 -0.932 -0.110 0.346 29 29 31 0 0
0.7890 2.7375 -0.0118 -0.999 -0.051 0.016 31 31 33 0 0
0.7962 2.5149 0.0315 -0.887 -0.243 0.394 34 33 39 0 0
0.7701 2.5533 0.0297 -0.976 -0.189 0.105 28 27 33 0 0
0.7828 2.7381 0.0030 -0.977 0.005 0.212 31 31 33 0 0
0.7850 2.7526 0.0007 -0.968 -0.180 0.173 33 32 34 0 0
0.9945 3.4629 -0.1225 -0.461 0.580 -0.671 171 171 170 0 0
0.8874 2.4019 0.0493 -0.510 -0.858 -0.056 43 43 45 0 0
0.8713 2.4140 0.0497 -0.493 -0.859 -0.139 42 42 44 0 0
0.8056 2.4477 0.0534 -0.848 -0.489 -0.205 26 26 28 0 0
0.7677 2.5545 0.0438 -0.956 -0.062 -0.286 24 23 29 0 0
0.7150 3.2812 -0.0479 -0.585 0.229 -0.778 67 67 69 0 0
0.8828 2.4029 0.0638 -0.591 -0.806 -0.047 42 42 44 0 0
0.8615 2.4143 0.0650 -0.468 -0.875 0.123 40 40 43 0 0
0.7930 2.4476 0.0690 -0.735 -0.615 0.287 23 22 26 0 0
0.7355 2.6772 0.0452 -0.940 -0.307 -0.146 52 50 53 0 0
0.6842 2.7808 0.0376 -0.890 0.038 -0.455 56 56 58 0 0
0.9451 2.3554 0.0767 -0.683 0.525 0.508 129 129 132 0 0
0.8964 2.3638 0.0816 -0.568 -0.777 -0.273 63 63 66 0 0
0.8744 2.4034 0.0789 -0.578 -0.716 -0.392 39 39 41 0 0
0.8235 2.4251 0.0823 -0.502 -0.799 -0.330 32 31 36 0 0
0.6740 2.7806 0.0529 -0.984 0.030 -0.178 53 54 57 0 0
0.9418 3.4846 -0.0751 -0.486 0.549 -0.679 124 123 122 0 0
0.9006 2.3517 0.0968 -0.715 -0.382 -0.585 97 96 99 0 0
0.8295 2.3994 0.0991 -0.861 -0.437 0.259 38 37 40 0 0
0.5297 2.8813 0.0708 -0.686 0.389 -0.615 52 52 54 0 0
0.6752 3.2911 -0.0020 -0.923 0.310 -0.230 58 56 59 0 0
0.7868 3.3896 -0.0289 -0.885 0.051 -0.463 71 69 70 0 0
0.7835 3.4033 -0.0303 -0.757 0.300 -0.580 74 72 73 0 0
0.8434 2.4026 0.1110 -0.951 -0.283 -0.126 38 37 41 0 0
0.7568 2.5311 0.1042 -0.941 -0.138 0.310 60 60 62 0 0
0.7687 3.4013 -0.0140 -0.840 0.166 -0.517 65 63 64 0 0
0.9676 3.5390 -0.0564 -0.514 0.604 -0.610 172 171 169 0 0
0.8848 2.4093 0.1193 -0.858 -0.490 -0.156 39 38 43 0 0
0.7756 2.4794 0.1228 -0.879 -0.323 -0.352 47 47 47 0 0
0.7633 2.4917 0.1227 -0.839 -0.193 -0.509 53 53 54 0 0
0.6771 2.6742 0.1084 -0.706 0.385 -0.594 52 52 54 0 0
0.6921 3.3412 0.0174 -0.896 -0.371 -0.243 55 53 56 0 0
0.9386 3.5333 -0.0376 -0.514 0.604 -0.610 170 169 167 0 0
0.8473 2.3361 0.1476 -0.558 -0.445 -0.700 72 72 74 0 0
0.8767 2.4099 0.1343 -0.859 -0.510 -0.039 46 46 49 0 0
0.8307 2.4602 0.1329 -0.417 -0.618 0.667 57 57 61 0 0
0.7710 2.4803 0.1372 -0.794 -0.422 -0.437 64 62 66 0 0
0.6357 2.5861 0.1389 -0.893 -0.071 -0.444 51 51 53 0 0
0.6819 3.3547 0.0308 -0.845 0.338 -0.414 56 53 56 0 0
0.6847 3.3697 0.0285 -0.730 0.537 -0.423 55 55 57 0 0
0.9108 3.5279 -0.0191 -0.510 0.624 -0.592 155 154 152 0 0
0.9477 3.5521 -0.0266 -0.514 0.604 -0.610 170 169 167 0 0
0.9861 3.5769 -0.0344 -0.514 0.604 -0.610 172 171 170 0 0
0.8481 2.3237 0.1632 -0.721 -0.198 -0.664 70 70 72 0 0
0.8457 2.3374 0.1616 -0.721 -0.198 -0.664 65 65 67 0 0
0.8442 2.3513 0.1600 -0.737 -0.112 -0.666 62 62 64 0 0
0.8381 2.3645 0.1589 -0.669 -0.430 -0.606 61 61 63 0 0
0.8671 2.4102 0.1495 -0.879 -0.372 -0.297 50 50 52 0 0
0.8833 2.4263 0.1454 -0.480 -0.675 0.560 46 46 48 0 0
0.6286 2.5866 0.1535 -0.892 -0.064 -0.447 51 51 53 0 0
0.6946 3.3737 0.0409 -0.823 0.551 -0.140 48 48 50 0 0
0.9569 3.5710 -0.0157 -0.514 0.604 -0.610 169 168 167 0 0
0.8422 2.3106 0.1797 -0.821 -0.273 -0.501 68 68 70 0 0
0.8477 2.3252 0.1771 -0.937 0.076 -0.341 65 65 67 0 0
0.8245 2.3505 0.1764 -0.724 -0.291 -0.626 63 63 65 0 0
0.8469 2.3671 0.1716 -0.779 -0.579 -0.241 62 62 64 0 0
0.8589 2.4670 0.1570 -0.392 -0.750 0.534 46 45 51 0 0
0.7925 2.4863 0.1619 -0.302 -0.936 -0.180 53 51 56 0 0
0.6212 2.6008 0.1662 -0.892 -0.064 -0.447 51 51 53 0 0
0.6138 2.6272 0.1635 -0.511 -0.802 -0.308 51 51 53 0 0
0.4898 3.1720 0.1052 -0.946 0.309 -0.097 47 45 48 0 0
0.9280 3.5652 0.0030 -0.514 0.604 -0.610 134 134 132 0 0
0.8274 2.3104 0.1954 -0.874 -0.223 -0.432 66 66 68 0 0
0.8439 2.3263 0.1914 -0.943 0.115 -0.312 64 64 66 0 0
0.5443 2.6454 0.1827 -0.777 -0.586 -0.232 52 52 54 0 0
0.5221 2.6555 0.1838 -0.788 0.496 0.366 57 58 60 0 0
0.8349 2.3128 0.2083 -0.996 -0.094 -0.000 63 63 65 0 0
0.5341 2.6453 0.1975 -0.743 -0.476 -0.470 59 59 61 0 0
0.4870 3.1884 0.1307 -0.799 0.219 -0.560 33 32 37 0 0
0.8131 2.2979 0.2266 -0.887 -0.377 0.267 64 64 64 0 0
0.8073 2.3112 0.2255 -0.884 -0.380 0.273 62 62 64 0 0
0.5254 2.6454 0.2121 -0.847 -0.196 -0.493 75 71 74 0 0
0.5300 2.6598 0.2096 -0.844 0.275 0.461 74 69 73 0 0
0.4892 3.1765 0.1458 -0.924 0.308 -0.225 32 32 35 0 0
0.9329 3.6013 0.0413 -0.406 0.673 -0.618 129 129 127 0 0
0.9563 3.6240 0.0504 -0.408 0.654 -0.637 145 145 143 0 0
0.7613 2.2813 0.2623 -0.300 -0.923 0.242 61 61 62 0 0
0.7975 2.3549 0.2488 -0.627 0.060 0.776 49 48 53 0 0
0.3434 2.8479 0.2319 -0.814 0.241 -0.528 76 76 76 0 0
0.3680 2.8661 0.2269 -0.613 -0.478 -0.629 78 77 76 0 0
0.7093 3.4447 0.1147 -0.687 -0.549 -0.477 43 44 47 0 0
0.7015 3.4571 0.1139 -0.972 0.062 -0.225 51 53 53 0 0
0.8056 2.3435 0.2634 -0.292 -0.848 0.442 47 47 50 0 0
0.8127 2.3583 0.2608 -0.627 0.060 0.776 44 43 48 0 0
0.3389 2.8621 0.2439 -0.920 0.261 -0.292 65 67 69 0 0
0.3556 2.8923 0.2382 -0.929 0.370 0.004 58 59 62 0 0
0.7668 2.2711 0.2909 -0.331 -0.917 0.221 59 59 61 0 0
0.7458 2.2826 0.2915 -0.175 -0.951 0.256 57 57 59 0 0
0.4951 3.1841 0.1991 -0.979 0.055 0.197 25 25 27 0 0
0.3745 2.8854 0.2641 -0.656 -0.572 0.493 45 43 49 0 0
0.3516 2.8946 0.2652 -0.985 0.108 -0.135 45 43 48 0 0
0.5519 3.2688 0.1960 -0.753 -0.022 -0.657 20 20 22 0 0
0.9363 2.2082 0.3101 -0.532 0.602 0.596 84 82 85 0 0
0.3603 2.8977 0.2773 -0.942 -0.127 -0.309 37 35 41 0 0
0.5521 3.2704 0.2097 -0.822 -0.039 -0.568 18 18 20 0 0
0.9380 2.1959 0.3257 -0.563 0.653 0.507 91 90 93 0 0
0.4286 3.1047 0.2571 -0.985 0.117 -0.126 27 27 29 0 0
0.4259 3.1179 0.2557 -0.862 0.184 -0.472 28 28 30 0 0
0.5810 3.2929 0.2178 -0.924 0.381 0.014 21 22 24 0 0
0.7681 2.2358 0.3510 -0.682 -0.724 -0.098 57 55 59 0 0
0.3722 2.8082 0.3147 -0.801 -0.476 -0.362 31 30 35 0 0
0.4307 3.1067 0.2703 -0.937 0.345 0.055 27 27 29 0 0
0.5847 3.2954 0.2310 -0.757 0.625 0.190 16 16 18 0 0
0.5980 3.3127 0.2275 -0.657 0.702 0.273 22 22 24 0 0
0.6162 2.4121 0.3564 -0.061 -0.998 0.004 53 52 57 0 0
0.3376 2.6959 0.3459 -0.596 -0.135 -0.791 18 18 22 0 0
0.4031 2.9925 0.3013 -0.882 -0.097 0.462 16 16 18 0 0
0.3820 3.0019 0.3021 -0.908 -0.362 0.212 17 17 19 0 0
0.5978 3.4279 0.2265 -0.975 0.186 0.124 52 52 54 0 0
0.5919 2.3832 0.3761 -0.054 -0.982 -0.180 52 51 55 0 0
0.6101 3.4041 0.2425 -0.637 -0.762 -0.118 50 51 53 0 0
0.6077 3.4320 0.2391 -0.863 0.133 -0.487 55 55 57 0 0
0.7549 3.5564 0.2093 -0.867 0.496 0.040 42 43 45 0 0
0.9811 3.7509 0.1632 -0.527 0.657 -0.539 171 171 169 0 0
0.9431 2.1603 0.3866 -0.498 0.787 0.364 128 126 130 0 0
0.9650 2.1765 0.3825 -0.496 0.797 0.344 89 87 90 0 0
0.3860 3.0194 0.3265 -0.974 0.098 -0.206 16 16 18 0 0
0.4887 3.1101 0.3054 -0.994 0.093 -0.060 26 26 28 0 0
0.6071 3.4192 0.2548 -0.881 -0.362 -0.304 57 57 59 0 0
0.5993 3.4315 0.2539 -0.863 0.133 -0.487 57 57 59 0 0
0.7571 3.5587 0.2231 -0.917 0.398 -0.026 42 43 45 0 0
1.0026 3.7736 0.1730 -0.530 0.688 -0.495 171 171 170 0 0
0.9568 2.1631 0.3991 -0.498 0.787 0.364 98 96 100 0 0
0.5056 2.6058 0.3825 -0.913 0.326 0.246 29 28 33 0 0
0.3761 3.0053 0.3427 -0.911 -0.404 -0.080 20 20 22 0 0
0.6303 3.3410 0.2768 -0.891 -0.079 -0.446 11 11 13 0 0
0.5923 3.4314 0.2685 -0.872 -0.096 -0.480 57 57 59 0 0
0.6505 3.5035 0.2540 -0.966 0.130 0.224 39 39 42 0 0
0.7268 3.5523 0.2409 -0.621 -0.103 0.777 43 44 46 0 0
0.9756 3.7678 0.1909 -0.547 0.699 -0.460 169 169 168 0 0
0.9508 2.1500 0.4156 -0.676 0.660 0.329 123 123 125 0 0
0.9659 2.1656 0.4122 -0.645 0.685 0.337 87 87 88 0 0
0.4391 2.4355 0.4239 -0.933 -0.132 -0.335 14 14 16 0 0
0.3702 3.0056 0.3567 -0.968 -0.135 -0.213 27 27 29 0 0
0.6227 3.3408 0.2915 -0.818 -0.209 -0.535 12 12 14 0 0
0.9778 3.7851 0.2032 -0.653 0.665 -0.363 170 170 170 0 0
0.9606 2.1525 0.4286 -0.645 0.685 0.337 92 92 94 0 0
0.4246 2.4350 0.4386 -0.943 -0.069 -0.325 18 18 20 0 0
0.3671 3.0064 0.3704 -0.975 -0.125 -0.185 19 19 21 0 0
0.5719 3.1750 0.3311 -0.796 0.586 0.152 30 30 32 0 0
0.9547 2.1394 0.4450 -0.820 0.511 0.258 120 120 122 0 0
0.9631 2.1543 0.4424 -0.820 0.511 0.258 83 83 85 0 0
0.4333 2.3974 0.4561 -0.636 -0.580 -0.509 20 20 22 0 0
0.4186 2.4223 0.4542 -0.886 -0.326 -0.329 18 18 20 0 0
0.3354 2.9607 0.3924 -0.953 0.302 0.014 21 21 23 0 0
0.3660 3.0077 0.3838 -0.972 0.001 -0.237 20 20 22 0 0
0.3871 3.0258 0.3797 -0.848 -0.045 0.527 12 12 14 0 0
0.3896 3.0400 0.3776 -0.699 -0.192 0.689 10 10 12 0 0
0.9644 3.7848 0.2338 -0.506 0.738 -0.446 155 155 155 0 0
0.9601 2.1414 0.4585 -0.736 0.606 0.301 92 92 93 0 0
0.3858 3.0133 0.3949 -0.775 0.557 0.299 17 17 19 0 0
0.3982 3.0296 0.3918 -0.848 0.053 0.528 15 15 17 0 0
0.3848 3.0405 0.3915 -0.896 -0.329 0.298 12 12 14 0 0
0.3854 3.0543 0.3897 -0.832 -0.211 -0.513 12 12 14 0 0
0.5499 3.1733 0.3609 -0.753 0.650 -0.102 19 19 21 0 0
0.5655 3.1908 0.3574 -0.753 0.650 -0.102 24 24 27 0 0
0.9923 3.8094 0.2430 -0.506 0.738 -0.446 170 170 169 0 0
0.9572 2.1287 0.4745 -0.844 0.439 0.309 110 110 110 0 0
0.9640 2.1433 0.4721 -0.844 0.439 0.309 84 84 86 0 0
0.5757 3.1946 0.3699 -0.887 0.452 -0.095 20 20 22 0 0
0.6204 3.4751 0.3306 -0.961 0.004 0.277 49 47 49 0 0
0.9709 3.8051 0.2601 -0.506 0.738 -0.446 168 168 167 0 0
1.0203 3.8343 0.2523 -0.506 0.738 -0.446 170 170 170 0 0
0.9652 2.1309 0.4878 -0.785 0.578 0.223 87 87 89 0 0
0.4409 2.4028 0.4951 -0.514 -0.780 0.357 18 18 20 0 0
0.3902 2.5031 0.4864 -0.619 -0.741 0.261 12 12 14 0 0
0.3790 3.0423 0.4188 -0.870 0.369 -0.326 16 16 18 0 0
0.5749 3.1960 0.3837 -0.887 0.452 -0.095 16 16 18 0 0
0.9987 3.8298 0.2694 -0.506 0.738 -0.446 170 170 170 0 0
0.9587 2.1178 0.5042 -0.948 0.264 0.177 105 105 107 0 0
0.9690 2.1328 0.5015 -0.737 0.616 0.277 82 82 84 0 0
0.4748 2.3281 0.5154 -0.589 -0.699 -0.406 23 23 25 0 0
0.4274 2.3892 0.5113 -0.468 -0.767 0.438 17 17 19 0 0
0.5504 3.3188 0.3839 -0.988 -0.145 -0.062 11 11 13 0 0
0.8050 3.6727 0.3192 -0.849 0.413 0.329 56 56 56 0 0
0.9773 3.8254 0.2864 -0.506 0.738 -0.446 168 168 168 0 0
0.4438 2.3659 0.5264 -0.925 -0.377 -0.037 18 18 20 0 0
0.4405 2.3923 0.5233 -0.754 -0.529 0.388 16 16 18 0 0
0.3909 2.4927 0.5144 -0.961 -0.268 0.072 16 14 18 0 0
0.4143 3.0391 0.4436 -0.890 -0.353 0.287 21 21 23 0 0
0.5412 3.3182 0.3986 -0.877 -0.160 -0.453 12 12 14 0 0
0.4546 2.3554 0.5404 -0.832 -0.099 -0.546 21 21 23 0 0
0.4311 2.4194 0.5341 -0.735 -0.678 0.027 15 15 17 0 0
0.4839 3.1664 0.4359 -0.906 -0.211 0.366 14 14 16 0 0
0.4128 3.0831 0.4653 -0.605 0.720 0.340 21 21 23 0 0
0.4937 3.1701 0.4484 -0.795 -0.100 0.598 14 14 16 0 0
0.5308 3.3188 0.4270 -0.960 0.194 0.200 12 12 14 0 0
0.9650 2.0963 0.5632 -0.963 -0.206 -0.172 100 100 101 0 0
0.4943 2.4307 0.5550 -0.946 -0.320 0.055 15 15 18 0 0
0.3745 2.6019 0.5421 -0.936 -0.302 -0.182 21 21 23 0 0
0.4416 2.6530 0.5308 -0.900 0.430 0.073 25 25 28 0 0
0.4454 2.6672 0.5288 -0.856 0.420 -0.303 31 30 34 0 0
0.4440 3.0362 0.4826 -0.675 -0.537 0.506 31 31 34 0 0
0.4002 3.0682 0.4817 -0.643 0.645 0.413 25 25 27 0 0
0.4549 3.1491 0.4676 -0.929 0.351 0.113 16 16 18 0 0
0.4993 3.1729 0.4614 -0.768 -0.119 0.629 14 14 16 0 0
0.4894 3.1847 0.4607 -0.843 0.536 0.048 14 14 16 0 0
0.5277 3.2353 0.4516 -0.934 0.316 0.167 23 23 25 0 0
0.5329 3.2506 0.4493 -0.980 0.182 0.076 28 28 30 0 0
0.5374 3.3079 0.4418 -0.766 0.246 -0.594 12 12 14 0 0
0.5290 3.3200 0.4408 -0.963 0.115 -0.243 12 12 14 0 0
0.5280 3.4185 0.4285 -0.933 -0.208 -0.293 11 11 13 0 0
0.9595 2.1115 0.5759 -0.963 -0.206 -0.172 69 70 72 0 0
0.4946 2.4323 0.5683 -0.939 -0.156 -0.306 15 14 19 0 0
0.4023 2.4467 0.5730 -0.845 -0.493 0.205 24 23 28 0 0
0.3873 2.4714 0.5709 -0.872 -0.424 0.245 38 37 42 0 0
0.3809 2.4838 0.5698 -0.872 -0.424 0.245 38 37 42 0 0
0.4401 2.6407 0.5460 -0.984 0.092 0.155 27 27 29 0 0
0.4396 2.6678 0.5426 -0.885 0.266 -0.381 36 36 38 0 0
0.4545 3.1506 0.4811 -0.897 0.436 0.080 17 17 19 0 0
0.5079 3.1764 0.4742 -0.792 -0.097 0.603 15 15 17 0 0
0.5307 3.2376 0.4649 -0.969 0.202 0.145 21 21 23 0 0
0.5312 3.2518 0.4631 -0.998 -0.053 0.036 26 26 28 0 0
0.9608 2.0850 0.5934 -0.835 0.549 0.034 93 94 94 0 0
0.9512 2.0982 0.5924 -0.838 -0.377 -0.394 77 79 78 0 0
0.9369 2.1110 0.5917 -0.709 -0.616 -0.344 64 65 67 0 0
0.4881 2.4329 0.5822 -0.887 -0.218 -0.407 17 17 19 0 0
0.4875 2.4463 0.5806 -0.879 -0.300 -0.370 16 16 18 0 0
0.4797 2.4588 0.5795 -0.868 -0.474 -0.149 19 19 21 0 0
0.4456 2.7518 0.5453 -0.339 0.514 0.788 35 35 37 0 0
0.4485 3.0402 0.5090 -0.633 -0.419 0.651 34 33 37 0 0
0.4582 3.1530 0.4943 -0.784 0.621 -0.031 16 16 18 0 0
0.5215 3.2651 0.4759 -0.797 -0.486 -0.359 25 25 27 0 0
0.5935 3.5812 0.4315 -0.951 0.146 -0.273 42 43 45 0 0
0.9105 2.1242 0.6060 -0.677 -0.691 -0.252 49 50 52 0 0
0.4761 2.3520 0.6066 -0.302 -0.266 0.916 36 36 38 0 0
0.4845 2.4474 0.5942 -0.871 -0.065 -0.486 14 14 16 0 0
0.4768 2.4598 0.5931 -0.868 -0.474 -0.149 17 17 19 0 0
0.4562 3.1541 0.5080 -0.655 0.755 -0.041 16 16 18 0 0
0.6922 3.4073 0.4606 -0.123 -0.886 -0.446 10 10 12 0 0
0.6554 3.5419 0.4463 -0.841 0.526 -0.128 24 24 27 0 0
1.0094 3.8770 0.3809 -0.454 0.752 -0.479 149 149 149 0 0
0.9555 2.0736 0.6235 -0.754 0.654 0.060 83 85 84 0 0
0.9169 2.1123 0.6212 -0.696 -0.607 -0.383 52 53 55 0 0
0.5214 2.2781 0.6264 -0.196 -0.874 0.444 19 19 21 0 0
0.6491 3.5275 0.4626 -0.999 0.021 0.049 16 16 18 0 0
0.6542 3.5432 0.4603 -0.958 0.279 -0.069 23 23 25 0 0
0.6409 3.5541 0.4599 -0.814 -0.531 0.234 31 31 34 0 0
0.6493 3.5708 0.4572 -0.963 -0.270 0.022 37 37 40 0 0
0.9581 2.0753 0.6373 -0.754 0.654 0.060 74 76 75 0 0
0.9707 2.0904 0.6346 -0.762 0.641 0.090 65 66 67 0 0
0.9053 2.1267 0.6343 -0.706 -0.629 -0.325 43 43 45 0 0
0.5438 2.3769 0.6262 -0.817 -0.439 -0.373 38 37 42 0 0
0.5387 2.3898 0.6249 -0.749 -0.547 -0.373 39 38 43 0 0
0.5920 3.4855 0.4856 -0.659 0.712 -0.241 11 11 13 0 0
0.6609 3.5611 0.4718 -0.955 -0.124 0.268 29 29 31 0 0
0.6561 3.5742 0.4705 -0.879 -0.180 0.441 36 36 38 0 0
0.5084 2.2931 0.6524 -0.821 -0.543 -0.177 24 24 26 0 0
0.5147 2.3073 0.6503 -0.941 -0.309 0.135 27 27 29 0 0
0.5768 2.3417 0.6421 -0.687 -0.342 0.641 31 31 34 0 0
0.5380 2.3776 0.6401 -0.780 -0.402 -0.479 35 34 39 0 0
0.5303 2.3902 0.6390 -0.622 -0.771 -0.138 36 35 40 0 0
0.4025 3.1192 0.5567 -0.502 0.702 -0.506 23 23 25 0 0
0.5858 3.4855 0.5000 -0.673 0.700 -0.240 11 11 13 0 0
0.6549 3.5467 0.4881 -0.886 0.201 0.418 18 18 20 0 0
0.5208 2.3905 0.6531 -0.780 -0.330 -0.532 35 34 39 0 0
0.4997 2.6320 0.6246 -0.948 0.269 0.172 30 31 34 0 0
0.4856 2.6571 0.6223 -0.960 -0.274 0.063 33 34 37 0 0
0.4777 2.6694 0.6213 -0.921 -0.388 -0.039 36 36 40 0 0
0.4638 2.6808 0.6207 -0.651 -0.698 0.299 39 38 43 0 0
0.3850 2.6948 0.6237 -0.574 -0.742 -0.347 41 40 45 0 0
0.5742 3.0743 0.5655 -0.807 -0.520 0.280 34 34 36 0 0
0.3971 3.1195 0.5705 -0.612 0.523 -0.593 24 24 26 0 0
0.5219 3.1890 0.5544 -0.800 -0.584 -0.141 17 17 19 0 0
0.5269 3.2041 0.5523 -0.914 0.115 0.390 17 17 19 0 0
0.5223 2.3922 0.6664 -0.671 -0.182 -0.719 37 36 41 0 0
0.4910 2.6186 0.6404 -0.987 -0.068 0.146 32 31 36 0 0
0.4845 2.6448 0.6375 -0.971 0.222 0.087 35 34 39 0 0
0.5265 3.1916 0.5677 -0.678 -0.690 0.252 17 17 19 0 0
0.5377 3.2081 0.5650 -0.986 0.162 -0.033 18 18 20 0 0
0.4906 2.6336 0.6521 -0.985 0.083 0.149 36 35 40 0 0
0.4635 2.6837 0.6475 -0.781 0.362 0.509 40 39 44 0 0
0.5290 3.1937 0.5811 -0.603 -0.765 0.228 17 17 19 0 0
0.6058 2.4743 0.6789 -0.458 0.888 0.036 41 40 45 0 0
0.4369 2.6808 0.6629 -0.874 0.253 -0.415 40 39 44 0 0
0.5022 2.9806 0.6225 -0.472 -0.876 -0.102 36 35 40 0 0
0.6063 2.4897 0.6907 -0.597 0.523 -0.608 41 40 45 0 0
0.4368 2.6688 0.6779 -0.559 -0.651 0.514 38 39 43 0 0
0.4312 2.6814 0.6767 -0.605 -0.699 0.381 38 39 43 0 0
0.4443 3.0946 0.6254 -0.959 0.077 -0.273 29 29 31 0 0
0.5101 3.1926 0.6099 -0.894 0.060 -0.443 19 19 21 0 0
0.5475 3.2167 0.6188 -0.941 -0.335 0.052 19 19 21 0 0
0.4585 3.0470 0.6715 -0.548 -0.543 0.637 29 29 31 0 0
0.5331 3.2165 0.6473 -0.848 -0.280 -0.449 21 21 23 0 0
0.6239 3.3938 0.6213 -0.422 0.775 0.470 13 13 15 0 0
0.9000 3.8487 0.5525 -0.898 -0.439 -0.021 58 59 61 0 0
0.4887 2.5471 0.7443 -0.119 -0.928 0.354 38 38 40 0 0
0.5395 2.5683 0.7394 -0.525 -0.493 0.693 38 38 40 0 0
0.5278 3.2169 0.6613 -0.871 -0.383 -0.308 24 24 26 0 0
0.8887 3.8771 0.5642 -0.851 -0.034 -0.524 57 57 59 0 0
0.5087 3.2157 0.6900 -0.981 0.116 -0.154 26 26 28 0 0
0.5668 2.9239 0.7502 -0.966 0.154 0.207 23 23 25 0 0
0.5687 2.9382 0.7484 -0.966 0.154 0.207 18 18 20 0 0
0.5549 2.9494 0.7477 -0.914 0.346 -0.212 20 20 22 0 0
0.5628 2.5534 0.8223 -0.845 0.505 0.176 19 20 22 0 0
0.5708 2.6783 0.8071 -0.494 -0.310 0.812 20 21 23 0 0
0.5427 3.0197 0.7673 -0.304 0.169 0.937 17 17 19 0 0
0.5198 3.1700 0.7640 -0.985 -0.032 -0.171 29 28 33 0 0
0.5535 2.5962 0.8449 -0.791 -0.183 0.584 17 17 19 0 0
0.5816 2.6693 0.8353 -0.749 0.241 -0.617 19 19 21 0 0
0.5209 3.1718 0.7776 -0.975 0.058 -0.213 32 31 36 0 0
1.1243 1.9049 0.9220 -0.814 0.581 0.018 45 44 49 0 0
0.5869 3.0054 0.8090 -0.842 -0.529 -0.108 14 14 16 0 0
0.5358 3.1627 0.7920 -0.833 -0.516 -0.200 35 34 39 0 0
0.5265 3.1747 0.7909 -0.966 0.032 -0.257 35 34 39 0 0
0.5185 3.2009 0.7881 -0.945 -0.319 0.075 43 42 47 0 0
0.8360 3.8172 0.7046 -0.600 0.069 -0.797 49 47 50 0 0
0.4228 2.4045 0.8991 -0.029 -0.926 0.376 17 17 19 0 0
0.5627 2.8075 0.8471 -0.564 -0.779 0.274 16 17 19 0 0
0.5456 3.1524 0.8068 -0.661 -0.747 0.072 35 34 38 0 0
0.5349 3.1641 0.8057 -0.832 -0.553 -0.040 36 35 40 0 0
0.5272 3.1764 0.8045 -0.983 -0.181 -0.029 34 33 38 0 0
0.5101 3.2426 0.7972 -0.866 -0.487 0.114 20 20 22 0 0
0.6548 3.6065 0.7497 -0.730 0.684 0.023 15 15 17 0 0
0.5484 3.0846 0.8286 -0.900 -0.276 0.338 17 17 19 0 0
0.5223 3.1769 0.8184 -0.897 -0.443 -0.010 39 38 43 0 0
0.5195 3.1902 0.8170 -0.980 0.027 0.196 42 41 46 0 0
0.5497 3.0724 0.8438 -0.871 -0.426 0.246 14 14 16 0 0
0.5438 3.0852 0.8425 -0.893 -0.403 0.202 17 17 19 0 0
0.5215 3.1783 0.8321 -0.897 -0.443 -0.010 42 41 46 0 0
0.5725 3.6160 0.7792 -0.846 0.513 0.144 15 14 16 0 0
0.8444 3.8247 0.7470 -0.775 0.630 -0.047 54 52 53 0 0
1.1229 1.7550 0.9974 -0.099 -0.995 0.002 167 166 170 0 0
0.6010 2.6801 0.9024 -0.480 -0.614 -0.627 12 12 14 0 0
0.5481 3.0597 0.8592 -0.973 -0.225 -0.057 13 13 15 0 0
0.5451 3.0730 0.8577 -0.973 -0.225 -0.057 15 15 17 0 0
0.8210 3.7898 0.7663 -0.731 0.682 -0.004 43 41 48 0 0
0.8399 3.8102 0.7634 -0.731 0.682 -0.004 55 53 57 0 0
0.8604 3.8310 0.7604 -0.744 0.664 -0.075 55 53 54 0 0
0.8812 3.8521 0.7574 -0.602 0.678 -0.421 49 47 52 0 0
0.5561 3.0629 0.8724 -0.958 -0.013 -0.287 16 16 19 0 0
0.5650 3.0788 0.8704 -0.989 0.005 -0.150 25 24 28 0 0
0.5770 3.0953 0.8681 -0.908 -0.202 0.368 32 31 36 0 0
0.5543 3.1045 0.8676 -0.984 0.117 0.135 37 36 41 0 0
0.5292 3.1831 0.8590 -0.961 -0.075 0.265 25 25 27 0 0
0.5243 3.2241 0.8543 -0.959 -0.266 -0.096 16 16 18 0 0
1.0375 1.7821 1.0250 -0.854 0.251 -0.456 68 67 72 0 0
0.5213 3.2109 0.8698 -0.959 -0.162 0.235 15 15 17 0 0
0.8342 3.8119 0.7924 -0.724 0.687 -0.051 43 42 48 0 0
1.0312 1.7833 1.0393 -0.860 0.428 -0.277 64 64 68 0 0
0.5159 3.2113 0.8837 -0.777 -0.600 0.192 14 14 16 0 0
0.5783 3.6529 0.8309 -0.875 0.484 -0.031 24 23 27 0 0
0.7885 3.7707 0.8127 -0.610 0.718 -0.334 36 35 39 0 0
1.0292 1.7847 1.0534 -0.855 0.509 -0.098 61 60 65 0 0
0.9526 1.8225 1.0505 -0.336 -0.939 0.068 44 43 48 0 0
0.9274 1.8350 1.0495 -0.489 -0.687 -0.538 33 30 38 0 0
0.5521 3.1368 0.9055 -0.999 -0.023 0.023 26 26 28 0 0
0.4882 3.2485 0.8938 -0.388 -0.815 -0.430 17 17 19 0 0
0.7909 3.7731 0.8268 -0.605 0.702 -0.376 28 27 31 0 0
1.0302 1.7862 1.0674 -0.899 0.439 -0.005 59 59 64 0 0
0.8923 1.8483 1.0627 -0.463 -0.465 -0.755 46 44 51 0 0
0.8459 3.8502 0.8313 -0.777 0.620 -0.113 57 58 61 0 0
1.0311 1.7878 1.0815 -0.875 0.478 0.079 59 59 66 0 0
0.9487 1.8253 1.0785 -0.347 -0.936 0.050 53 51 57 0 0
0.8980 1.8363 1.0781 -0.451 -0.824 -0.342 52 53 58 0 0
0.8694 1.8484 1.0771 -0.506 -0.569 -0.649 53 52 58 0 0
0.6106 3.1810 0.9272 -0.940 -0.332 -0.083 13 12 16 0 0
1.0333 1.7894 1.0955 -0.875 0.478 0.079 61 61 66 0 0
0.9470 1.8267 1.0925 -0.347 -0.936 0.050 49 48 52 0 0
0.9170 1.8389 1.0916 -0.523 -0.841 0.142 48 50 55 0 0
0.5140 3.4424 0.9124 -0.941 0.337 -0.040 37 37 39 0 0
0.8717 3.8612 0.8588 -0.714 0.669 0.207 47 48 53 0 0
1.0354 1.7911 1.1096 -0.875 0.478 0.079 56 55 60 0 0
0.9452 1.8281 1.1065 -0.347 -0.936 0.050 41 41 42 0 0
0.8239 1.8899 1.1010 -0.567 -0.823 -0.024 42 42 45 0 0
0.8682 3.8469 0.8751 -0.627 0.774 0.092 52 51 56 0 0
1.0288 1.7782 1.1254 -0.720 0.689 0.080 118 118 121 0 0
1.0335 1.7925 1.1237 -0.993 -0.112 0.041 52 51 56 0 0
0.5035 3.4429 0.9403 -0.894 0.214 -0.394 13 13 15 0 0
0.8121 3.8916 0.8852 -0.779 0.621 -0.084 49 50 54 0 0
1.0346 1.7800 1.1394 -0.627 0.767 0.136 111 110 114 0 0
1.0348 1.7941 1.1378 -0.964 -0.166 0.209 48 46 52 0 0
0.6065 2.9052 1.0147 -0.825 0.274 0.494 42 43 47 0 0
0.8077 3.8920 0.8997 -0.799 0.576 -0.173 55 56 59 0 0
1.0399 1.7818 1.1534 -0.627 0.767 0.136 104 103 107 0 0
1.0211 1.7949 1.1521 -0.518 -0.819 0.247 48 45 53 0 0
0.5324 2.8097 1.0401 -0.512 0.728 0.457 40 43 47 0 0
0.6205 2.8814 1.0312 -0.645 0.550 0.530 44 45 47 0 0
0.6075 2.9209 1.0268 -0.982 -0.031 0.187 43 44 48 0 0
0.6068 2.9347 1.0252 -0.982 -0.031 0.187 43 44 48 0 0
0.5395 3.1871 0.9970 -0.840 0.043 -0.541 11 11 13 0 0
0.5396 3.2012 0.9954 -0.667 -0.490 -0.561 24 24 26 0 0
0.8585 3.8640 0.9170 -0.581 0.743 -0.332 39 39 43 0 0
1.0408 1.7834 1.1675 -0.568 -0.774 0.279 100 100 102 0 0
1.0230 1.7965 1.1662 -0.485 -0.855 0.185 53 53 58 0 0
0.6198 2.8688 1.0466 -0.915 0.118 0.387 44 45 49 0 0
0.6209 2.8830 1.0450 -0.915 0.118 0.387 45 46 50 0 0
0.6335 2.8993 1.0430 -0.973 -0.163 0.162 44 45 49 0 0
0.6345 2.9136 1.0414 -0.961 0.277 -0.010 43 44 48 0 0
0.4405 3.2498 1.0043 -0.884 0.277 0.377 22 22 24 0 0
0.5260 3.4393 0.9822 -0.340 -0.939 -0.058 11 11 13 0 0
0.5019 3.4473 0.9814 -0.438 -0.890 -0.130 12 12 14 0 0
1.0441 1.7851 1.1816 -0.616 -0.766 0.183 90 90 92 0 0
1.0254 1.7981 1.1802 -0.460 -0.858 0.229 52 51 56 0 0
0.6134 2.8552 1.0621 -0.728 0.048 0.683 51 52 56 0 0
0.6139 2.8693 1.0605 -0.658 -0.443 0.609 44 44 49 0 0
0.6143 2.8973 1.0573 -0.828 -0.263 0.496 40 41 45 0 0
0.6342 2.9151 1.0552 -0.927 0.374 0.014 40 41 45 0 0
0.8447 3.8783 0.9446 -0.608 0.789 -0.088 59 60 62 0 0
1.0472 1.7867 1.1957 -0.497 -0.851 0.170 94 94 96 0 0
1.0292 1.7998 1.1943 -0.460 -0.858 0.229 53 53 57 0 0
0.6783 2.7422 1.0886 -0.782 -0.579 -0.231 36 36 40 0 0
0.6285 2.7897 1.0834 -0.911 -0.335 -0.239 33 33 37 0 0
0.6082 2.8000 1.0822 -0.896 0.102 0.432 32 33 35 0 0
0.6160 2.8154 1.0805 -0.930 0.132 0.343 32 33 35 0 0
0.6131 2.8288 1.0790 -0.910 0.308 0.278 33 33 35 0 0
0.6204 2.8441 1.0772 -0.916 0.268 0.300 34 34 37 0 0
0.6241 2.8587 1.0755 -0.916 0.268 0.300 35 34 39 0 0
0.6279 2.8734 1.0739 -0.960 0.108 0.258 37 36 41 0 0
0.6363 2.8890 1.0721 -0.973 0.224 0.054 39 38 43 0 0
0.6380 2.9033 1.0704 -0.967 0.250 0.049 38 39 43 0 0
0.6685 3.1496 1.0424 -0.377 -0.848 0.372 11 11 13 0 0
0.6628 3.1626 1.0409 -0.881 -0.435 0.183 10 10 12 0 0
0.6760 3.6547 0.9851 -0.976 -0.056 -0.213 15 15 15 0 0
1.0493 1.7884 1.2098 -0.497 -0.851 0.170 103 103 107 0 0
1.0330 1.8016 1.2083 -0.460 -0.858 0.229 57 55 59 0 0
1.0098 1.8143 1.2069 -0.351 -0.895 0.275 47 44 47 0 0
0.6446 2.2412 1.1593 -0.783 0.133 0.608 21 20 24 0 0
0.7271 2.3608 1.1456 -0.884 -0.109 0.455 38 41 43 0 0
0.6030 2.9123 1.0834 -0.828 0.375 0.418 40 40 43 0 0
0.8604 3.8565 0.9762 -0.757 0.652 -0.044 42 42 46 0 0
1.0359 1.8032 1.2224 -0.636 -0.758 0.145 66 65 67 0 0
1.0155 1.8162 1.2210 -0.461 -0.857 0.229 53 51 54 0 0
0.7181 2.7520 1.1154 -0.911 -0.254 0.325 20 19 25 0 0
0.7624 2.9583 1.0921 -0.343 0.323 0.882 25 25 27 0 0
0.8831 3.4193 1.0401 -0.845 0.448 -0.293 21 22 26 0 0
1.0433 4.0498 0.9689 -0.467 0.871 -0.152 170 170 168 0 0
1.0373 1.8048 1.2365 -0.636 -0.758 0.145 75 75 76 0 0
1.0189 1.8179 1.2350 -0.444 -0.837 0.320 53 53 55 0 0
0.7426 2.3796 1.1714 -0.361 -0.235 0.902 16 14 19 0 0
0.7931 2.7662 1.1280 -0.837 0.267 0.478 18 17 22 0 0
0.9215 3.8929 1.0013 -0.722 0.666 0.188 43 42 47 0 0
1.0401 4.0506 0.9838 -0.473 0.872 -0.127 169 169 167 0 0
0.9990 1.8323 1.2476 -0.461 -0.823 0.332 55 55 57 0 0
0.9938 2.6855 1.1518 -0.548 -0.697 -0.463 37 37 39 0 0
0.8032 2.7695 1.1418 -0.852 0.492 0.179 37 37 41 0 0
0.6593 3.1540 1.0982 -0.920 0.058 0.387 9 10 12 0 0
0.8609 3.4172 1.0693 -0.666 -0.401 -0.628 17 18 22 0 0
1.0424 4.0530 0.9984 -0.479 0.875 -0.073 168 168 166 0 0
1.0279 1.8214 1.2632 -0.680 -0.713 0.171 86 86 88 0 0
1.0136 1.8346 1.2617 -0.680 -0.713 0.171 69 69 71 0 0
0.8508 1.9357 1.2496 -0.370 -0.682 0.630 53 53 53 0 0
1.0813 2.5839 1.1781 -0.039 -0.981 -0.190 127 123 122 0 0
0.9424 2.6935 1.1651 -0.457 -0.871 0.178 46 47 53 0 0
0.9209 2.7045 1.1638 -0.457 -0.871 0.178 36 37 41 0 0
0.7797 2.8808 1.1434 -0.341 0.693 0.635 22 23 25 0 0
0.6630 3.1564 1.1120 -0.973 -0.184 0.139 10 11 13 0 0
0.6493 3.1676 1.1107 -0.974 -0.096 0.207 13 14 16 0 0
1.0438 4.0552 1.0131 -0.475 0.876 -0.080 167 167 165 0 0
1.0164 1.8363 1.2758 -0.862 -0.355 -0.362 87 87 89 0 0
0.8373 2.3677 1.2153 -0.284 0.261 0.923 41 41 42 0 0
0.8917 2.4025 1.2117 -0.248 0.364 0.898 79 78 76 0 0
0.8096 2.7595 1.1713 -0.795 -0.604 0.050 27 27 29 0 0
0.8175 2.8035 1.1665 -0.217 -0.975 -0.057 29 28 33 0 0
0.7563 2.8355 1.1625 -0.479 -0.199 0.855 22 23 25 0 0
1.0537 3.0650 1.1388 -0.312 -0.574 -0.757 24 25 27 0 0
1.0836 3.0857 1.1366 -0.544 0.105 -0.832 18 19 21 0 0
0.6527 3.1700 1.1245 -0.886 -0.416 -0.206 14 15 17 0 0
1.0248 1.8523 1.2883 -0.648 0.350 -0.677 92 92 94 0 0
0.9159 2.3929 1.2272 -0.266 0.574 0.774 76 76 72 0 0
0.9546 2.4119 1.2254 -0.246 0.655 0.714 90 89 85 0 0
0.8533 2.7540 1.1865 -0.794 -0.605 0.069 13 13 15 0 0
0.8289 2.7643 1.1851 -0.663 -0.726 0.183 12 12 14 0 0
0.9831 3.0234 1.1575 -0.536 0.473 -0.700 31 32 34 0 0
1.0549 3.0668 1.1532 -0.480 0.752 -0.452 23 24 26 0 0
1.0876 3.0882 1.1511 -0.503 0.740 -0.447 17 18 20 0 0
1.0537 4.0618 1.0424 -0.443 0.895 -0.045 170 170 168 0 0
1.0145 1.8533 1.3024 -0.735 0.371 -0.568 158 158 160 0 0
1.0120 1.8812 1.2993 -0.975 0.154 0.160 111 111 113 0 0
0.9640 1.9201 1.2945 -0.488 -0.322 0.811 70 69 71 0 0
0.8715 1.9555 1.2896 -0.332 -0.662 0.672 50 49 53 0 0
0.9744 2.4016 1.2411 -0.276 0.687 0.672 85 85 81 0 0
0.9862 3.0256 1.1719 -0.598 0.579 -0.554 32 33 35 0 0
1.0464 3.0668 1.1679 -0.555 0.675 -0.485 19 20 22 0 0
1.0194 1.8972 1.3118 -0.967 -0.138 0.212 111 111 113 0 0
0.9976 1.9099 1.3102 -0.607 -0.546 0.577 78 77 79 0 0
0.9789 1.9227 1.3086 -0.496 -0.660 0.565 67 65 69 0 0
0.9832 2.3900 1.2568 -0.289 0.698 0.655 78 77 75 0 0
0.9541 2.7306 1.2187 -0.936 -0.286 0.206 9 8 13 0 0
0.9939 3.0140 1.1878 -0.594 0.188 -0.782 33 34 38 0 0
0.7107 3.1303 1.1717 -0.130 -0.976 -0.174 10 11 13 0 0
1.0449 4.0626 1.0722 -0.473 0.852 -0.224 171 171 169 0 0
0.9909 1.9250 1.3227 -0.516 -0.673 0.530 64 62 66 0 0
0.9515 1.9363 1.3209 -0.370 -0.733 0.571 52 50 55 0 0
0.8734 1.9726 1.3159 -0.356 -0.598 0.718 49 48 53 0 0
0.8154 1.9959 1.3126 -0.306 -0.645 0.701 45 44 49 0 0
0.8528 2.0959 1.3020 -0.709 -0.291 -0.642 40 39 45 0 0
0.8698 2.1114 1.3005 -0.400 -0.437 -0.806 40 39 45 0 0
0.9262 2.3563 1.2742 -0.380 0.711 0.592 70 69 67 0 0
0.9625 2.3748 1.2726 -0.327 0.725 0.606 75 74 72 0 0
0.9514 2.7029 1.2362 -0.869 -0.481 -0.118 18 20 23 0 0
1.0450 2.9372 1.2115 -0.835 -0.290 -0.468 29 30 32 0 0
1.0055 3.0620 1.1972 -0.239 -0.688 -0.685 13 14 16 0 0
1.0359 4.0615 1.0871 -0.473 0.852 -0.224 170 170 168 0 0
1.0211 1.9144 1.3385 -0.856 0.351 -0.381 86 85 88 0 0
1.0012 1.9272 1.3369 -0.536 -0.691 0.485 70 68 71 0 0
0.8491 2.0693 1.3190 -0.460 0.850 -0.258 43 42 47 0 0
0.8277 2.1230 1.3127 -0.596 0.622 -0.507 42 41 47 0 0
0.9658 2.3625 1.2883 -0.340 0.724 0.600 75 75 72 0 0
1.0498 2.9691 1.2227 -0.226 -0.798 -0.559 35 36 38 0 0
1.0161 2.9775 1.2213 -0.285 -0.839 -0.464 39 40 44 0 0
0.6220 3.1712 1.1942 -0.948 -0.319 0.021 18 19 21 0 0
1.0398 4.0645 1.1018 -0.462 0.870 -0.169 170 170 168 0 0
0.9228 2.3307 1.3055 -0.461 0.682 0.568 72 72 71 0 0
0.9997 2.9761 1.2358 -0.358 -0.798 -0.485 38 41 46 0 0
1.0380 3.0422 1.2291 -0.758 -0.601 0.253 26 27 31 0 0
0.6356 3.1616 1.2095 -0.898 -0.293 -0.327 16 17 19 0 0
0.8322 3.8221 1.1400 -0.957 -0.016 0.291 28 28 30 0 0
1.0160 1.9312 1.3652 -0.694 0.422 -0.584 118 116 118 0 0
1.0262 1.9460 1.3638 -0.694 0.422 -0.584 81 79 83 0 0
0.9623 2.9853 1.2487 -0.917 0.274 0.290 35 36 40 0 0
1.0410 3.0445 1.2436 -0.957 -0.245 0.155 20 21 24 0 0
0.8349 3.8245 1.1544 -0.856 0.438 -0.275 25 25 27 0 0
1.0390 4.0677 1.1313 -0.462 0.881 -0.105 165 165 163 0 0
1.0148 1.9468 1.3778 -0.694 0.422 -0.584 122 120 123 0 0
1.0159 1.9609 1.3763 -0.854 0.176 -0.489 89 87 90 0 0
0.9706 2.9885 1.2630 -0.959 0.278 0.056 34 35 39 0 0
0.6921 3.0916 1.2463 -0.514 -0.712 -0.478 10 11 13 0 0
1.0070 1.9478 1.3918 -0.673 0.487 -0.557 166 165 167 0 0
1.0168 1.9625 1.3904 -0.703 0.464 -0.539 144 143 145 0 0
1.0087 1.9761 1.3888 -0.965 0.102 -0.240 108 108 110 0 0
0.9835 1.9883 1.3869 -0.708 -0.377 -0.597 83 84 86 0 0
0.9104 2.0806 1.3753 -0.386 -0.302 0.872 63 62 67 0 0
0.9689 2.9752 1.2790 -0.892 0.363 0.270 35 35 40 0 0
1.0066 1.9633 1.4044 -0.703 0.464 -0.539 168 168 170 0 0
1.0021 1.9771 1.4028 -0.940 -0.000 -0.341 165 165 167 0 0
1.0075 1.9916 1.4014 -0.920 0.162 -0.356 154 154 156 0 0
1.0130 2.0061 1.3999 -0.881 0.028 0.472 141 141 143 0 0
1.0111 2.0201 1.3983 -0.875 0.021 0.483 128 128 129 0 0
0.9807 2.0318 1.3964 -0.864 -0.105 0.492 125 125 125 0 0
0.9336 2.0842 1.3896 -0.384 -0.410 0.827 69 68 72 0 0
0.9761 2.9052 1.3013 -0.973 0.222 0.058 22 22 24 0 0
0.9664 2.9325 1.2981 -0.972 -0.204 0.119 37 38 41 0 0
0.9685 2.9621 1.2949 -0.956 0.235 0.174 38 39 43 0 0
0.9739 2.9777 1.2933 -0.948 0.309 0.074 34 35 39 0 0
0.6515 3.0721 1.2757 -0.936 -0.351 -0.012 10 11 13 0 0
1.0207 2.0082 1.4142 -0.881 0.028 0.472 168 168 170 0 0
1.0195 2.0223 1.4126 -0.880 0.006 0.475 167 167 169 0 0
1.0183 2.0363 1.4111 -0.976 -0.178 0.124 168 168 168 0 0
0.9836 2.0618 1.4075 -0.666 0.391 -0.635 135 135 135 0 0
0.9732 2.0750 1.4058 -0.571 -0.237 0.786 106 106 107 0 0
0.9654 2.9340 1.3124 -0.995 0.051 0.083 42 43 46 0 0
0.9674 2.9635 1.3092 -0.992 0.108 -0.063 35 36 40 0 0
0.9747 2.9795 1.3077 -0.909 0.305 -0.283 36 37 41 0 0
0.6381 3.0709 1.2896 -0.899 0.235 -0.369 10 11 13 0 0
0.6451 3.0865 1.2881 -0.911 -0.040 -0.410 11 12 14 0 0
0.9631 3.9749 1.1994 -0.925 0.353 -0.143 50 51 55 0 0
1.0469 2.0543 1.4242 -0.508 -0.569 0.647 168 168 168 0 0
0.9703 2.8928 1.3315 -0.992 -0.074 0.099 22 26 27 0 0
0.9682 2.9507 1.3252 -0.910 0.412 0.052 38 39 43 0 0
0.9705 2.9803 1.3220 -0.909 0.305 -0.283 35 36 40 0 0
0.9651 2.9518 1.3395 -0.930 0.362 -0.059 37 38 42 0 0
0.9643 2.9662 1.3379 -0.933 0.272 -0.236 35 36 40 0 0
0.9829 2.9990 1.3349 -0.894 0.405 -0.191 21 22 25 0 0
0.6255 3.0573 1.3187 -0.812 0.009 -0.583 10 11 13 0 0
0.6579 3.1065 1.3143 -0.965 0.099 -0.244 14 15 17 0 0
0.6357 3.2011 1.3035 -0.754 -0.620 -0.218 38 37 42 0 0
0.6856 3.2266 1.3021 -0.624 0.760 0.182 38 37 42 0 0
0.9596 2.9378 1.3554 -0.936 0.337 -0.098 40 42 46 0 0
0.9613 2.9527 1.3538 -0.940 0.260 -0.221 35 36 41 0 0
0.9656 2.9681 1.3523 -0.937 0.275 -0.216 36 37 41 0 0
0.9732 2.9841 1.3508 -0.961 0.216 -0.175 28 29 31 0 0
1.0058 3.0050 1.3495 -0.971 0.100 -0.218 15 16 18 0 0
0.6574 3.0938 1.3297 -0.999 -0.042 0.025 13 14 16 0 0
0.6572 3.1080 1.3282 -0.996 -0.037 -0.077 15 16 18 0 0
0.9214 3.9673 1.2434 -0.783 -0.035 -0.621 52 54 58 0 0
1.0157 2.7161 1.3954 -0.266 -0.928 -0.263 14 13 19 0 0
1.0205 2.9506 1.3704 -0.669 0.471 0.574 35 37 42 0 0
1.0464 2.9702 1.3691 -0.603 0.528 0.599 35 36 41 0 0
0.9636 2.9693 1.3666 -0.917 0.264 -0.299 33 34 38 0 0
0.9868 2.9883 1.3653 -0.861 0.457 -0.221 22 23 25 0 0
0.8275 3.2909 1.3279 -0.444 0.825 -0.350 42 42 44 0 0
0.9348 3.3598 1.3238 -0.902 -0.432 -0.005 40 40 42 0 0
0.9277 3.3729 1.3222 -0.848 -0.531 -0.010 31 31 33 0 0
1.2417 2.1784 1.4748 -0.209 0.153 0.966 168 168 170 0 0
1.0152 2.9366 1.3863 -0.862 0.359 0.356 40 41 43 0 0
1.0338 2.9547 1.3850 -0.657 0.609 0.445 34 35 40 0 0
0.9769 2.9881 1.3795 -0.910 0.141 -0.390 18 19 22 0 0
0.6256 3.0479 1.3617 -0.969 -0.213 0.127 11 12 14 0 0
0.9332 3.3611 1.3382 -0.911 -0.378 -0.166 39 39 41 0 0
1.0476 2.9589 1.3996 -0.657 0.609 0.445 34 35 39 0 0
1.0669 2.9773 1.3983 -0.705 0.596 0.385 33 34 39 0 0
0.9740 2.9891 1.3939 -0.757 -0.198 -0.623 15 16 20 0 0
1.0260 2.8686 1.4231 -0.527 -0.847 0.069 29 30 32 0 0
1.0597 2.9628 1.4143 -0.670 0.618 0.411 35 36 41 0 0
0.9752 2.9910 1.4083 -0.807 -0.053 -0.589 13 14 16 0 0
0.6263 3.0512 1.3894 -0.714 -0.389 -0.582 11 12 14 0 0
0.5732 3.4361 1.3465 -0.405 -0.062 0.912 11 12 14 0 0
1.1409 2.5954 1.4710 -0.247 -0.687 -0.684 81 81 83 0 0
1.1017 2.6044 1.4686 -0.213 -0.594 -0.775 72 71 74 0 0
0.9906 2.7186 1.4523 -0.422 -0.307 -0.853 19 20 21 0 0
0.9920 2.9080 1.4323 -0.982 0.186 0.046 41 42 46 0 0
1.0532 2.9485 1.4303 -0.629 0.674 0.386 35 36 40 0 0
0.9607 2.9899 1.4224 -0.832 -0.150 -0.534 12 13 14 0 0
0.6636 3.0605 1.4038 -0.943 -0.325 0.074 13 14 16 0 0
0.6512 3.1857 1.3901 -0.895 0.341 0.287 40 39 44 0 0
1.1103 2.5927 1.4848 -0.247 -0.687 -0.684 71 71 73 0 0
0.9911 2.7203 1.4667 -0.736 -0.056 -0.675 24 25 27 0 0
0.9881 2.8506 1.4528 -0.984 -0.178 0.021 27 28 31 0 0
1.0617 2.9517 1.4449 -0.695 0.642 0.324 33 34 37 0 0
0.9902 2.8526 1.4672 -0.906 -0.305 0.295 26 27 30 0 0
1.0308 2.9036 1.4634 -0.971 0.122 0.204 39 40 44 0 0
0.9609 2.9494 1.4558 -0.760 -0.642 0.102 22 23 25 0 0
0.5812 3.5431 1.3776 -0.823 0.532 0.200 16 15 21 0 0
0.5385 3.6031 1.3696 -0.633 -0.361 0.685 17 17 19 0 0
0.9978 2.8555 1.4817 -0.744 -0.327 0.582 27 28 31 0 0
0.9677 2.9523 1.4703 -0.625 -0.662 0.414 20 21 22 0 0
0.9515 2.9638 1.4684 -0.559 -0.732 0.390 16 16 18 0 0
0.9345 2.9752 1.4664 -0.730 -0.536 0.425 13 13 15 0 0
0.5599 3.6106 1.3837 -0.868 -0.425 0.256 16 16 18 0 0
0.9910 2.6382 1.5188 -0.549 -0.802 0.236 18 17 23 0 0
0.9441 2.7320 1.5069 -0.662 0.576 0.479 55 55 59 0 0
1.0304 2.8189 1.5015 -0.936 -0.059 0.347 26 27 31 0 0
0.9618 2.7220 1.5232 -0.855 0.252 -0.454 53 52 55 0 0
1.0224 2.8192 1.5158 -0.985 -0.144 -0.091 23 24 26 0 0
1.0194 2.8333 1.5141 -0.919 -0.386 0.080 22 23 25 0 0
1.0260 2.8491 1.5128 -0.666 -0.503 0.550 25 27 26 0 0
1.0000 2.8737 1.5090 -0.814 -0.039 0.580 36 37 39 0 0
1.0047 2.9477 1.5015 -0.615 -0.628 0.477 17 18 20 0 0
0.5294 3.6055 1.4110 -0.969 0.042 0.242 16 16 19 0 0
1.0018 2.8465 1.5265 -0.761 -0.553 -0.339 26 27 29 0 0
1.0080 2.8622 1.5252 -0.647 -0.657 0.388 34 35 36 0 0
1.0053 2.8763 1.5236 -0.865 0.176 0.469 35 36 38 0 0
1.0434 2.9271 1.5201 -0.970 0.107 -0.218 27 28 30 0 0
1.0290 2.9539 1.5166 -0.650 -0.476 0.592 16 17 19 0 0
0.9716 2.6401 1.5611 -0.431 -0.853 -0.295 16 15 21 0 0
0.9967 2.8472 1.5408 -0.764 -0.082 -0.640 32 33 35 0 0
0.9960 2.8617 1.5392 -0.997 -0.049 0.057 34 35 37 0 0
1.0056 2.9365 1.5319 -0.316 -0.589 -0.744 20 21 23 0 0
0.6034 3.6003 1.4431 -0.063 -0.984 0.165 22 21 27 0 0
0.5818 3.6232 1.4397 -0.843 0.325 0.429 18 17 21 0 0
0.5908 3.0019 1.5188 -0.787 0.480 -0.388 13 14 16 0 0
0.5545 3.4032 1.4753 -0.158 -0.950 -0.270 11 12 14 0 0
0.5414 3.4015 1.4888 -0.158 -0.950 -0.270 11 12 14 0 0
0.9875 2.6907 1.6001 -0.486 -0.477 0.732 45 45 48 0 0
1.0466 2.9048 1.5811 -0.224 -0.965 -0.134 28 29 31 0 0
0.9748 2.9211 1.5756 -0.172 -0.975 -0.140 19 20 22 0 0
0.5912 3.5875 1.4862 -0.839 0.369 0.400 25 24 30 0 0
1.1252 2.6109 1.6304 -0.655 -0.102 -0.749 40 42 41 0 0
1.0318 2.6410 1.6222 -0.642 -0.561 0.523 37 37 43 0 0
1.0380 2.6856 1.6179 -0.246 -0.969 -0.014 55 54 57 0 0
0.8879 2.9503 1.5823 -0.113 -0.777 -0.619 11 12 14 0 0
0.5916 3.5748 1.5016 -0.822 0.547 -0.159 26 25 31 0 0
1.1174 2.5675 1.6491 -0.418 -0.774 -0.475 77 77 77 0 0
1.0960 2.6083 1.6437 -0.688 0.036 -0.725 42 42 44 0 0
1.0876 2.6217 1.6419 -0.559 -0.594 -0.579 44 44 46 0 0
1.0525 2.6311 1.6389 -0.627 -0.760 -0.173 52 53 55 0 0
1.0379 2.6435 1.6368 -0.577 -0.814 -0.069 57 58 62 0 0
1.0428 2.6588 1.6355 -0.437 -0.742 -0.509 61 62 67 0 0
0.9863 2.7227 1.6257 -0.165 -0.843 -0.512 66 66 68 0 0
0.8809 2.9506 1.5963 -0.104 -0.374 -0.922 11 12 15 0 0
0.6751 3.1246 1.5667 -0.365 -0.907 -0.209 43 43 43 0 0
0.9311 4.0148 1.4899 -0.920 0.384 0.080 68 68 69 0 0
0.9749 4.0453 1.5041 -0.716 0.510 0.476 96 96 94 0 0
0.9899 4.0518 1.5192 -0.717 0.328 0.615 118 118 116 0 0
1.0964 2.5694 1.6917 -0.497 -0.832 0.246 56 56 56 0 0
0.8865 2.7833 1.6569 -0.148 -0.864 0.482 60 59 64 0 0
0.6048 3.0720 1.6101 -0.864 0.501 -0.037 43 43 45 0 0
0.6113 3.0875 1.6089 -0.971 0.208 0.116 43 43 44 0 0
0.6128 2.9766 1.6343 -0.969 0.235 0.073 17 16 22 0 0
0.6290 2.9251 1.6545 -0.858 -0.447 -0.254 76 75 80 0 0
0.6042 2.9344 1.6520 -0.854 -0.461 0.240 60 59 64 0 0
0.6028 2.9482 1.6505 -0.706 -0.379 0.598 45 43 49 0 0
0.6146 2.9645 1.6496 -0.888 -0.151 0.435 32 31 35 0 0
0.6134 2.9783 1.6481 -0.993 0.079 0.088 28 27 32 0 0
0.9412 4.0114 1.5648 -0.955 -0.163 0.249 69 67 69 0 0
0.6208 2.9392 1.6665 -0.861 -0.501 0.091 70 68 73 0 0
0.5633 3.0540 1.6511 -0.622 -0.661 -0.419 45 45 48 0 0
0.5562 3.0665 1.6494 -0.789 -0.547 -0.281 44 44 46 0 0
1.2062 2.5765 1.7570 -0.420 0.632 0.651 48 49 53 0 0
1.1108 2.4774 1.7752 -0.604 0.729 0.321 87 87 89 0 0
0.6914 3.1408 1.6792 -0.263 0.437 -0.860 41 41 41 0 0
1.0950 2.4769 1.7887 -0.930 0.335 0.153 73 74 78 0 0
1.2553 2.5866 1.7892 -0.908 0.415 -0.063 46 47 51 0 0
0.6086 2.9415 1.7074 -0.811 -0.580 -0.074 85 85 84 0 0
0.5533 3.0426 1.6933 -0.835 -0.518 -0.187 88 86 91 0 0
1.2336 2.5704 1.8042 -0.329 0.673 0.663 45 46 50 0 0
1.0965 2.4658 1.8192 -0.944 0.327 0.051 74 73 78 0 0
1.2083 2.5538 1.8188 -0.355 0.701 0.619 47 48 52 0 0
0.5459 3.0302 1.7218 -0.868 -0.121 -0.481 82 82 82 0 0
0.5469 3.0444 1.7204 -0.817 -0.504 -0.281 79 79 79 0 0
0.5412 3.0448 1.7339 -0.901 -0.366 -0.233 89 89 87 0 0
0.5442 3.0734 1.7312 -0.891 -0.352 0.286 79 79 79 0 0
0.5291 3.0842 1.7290 -0.827 -0.288 0.483 78 78 78 0 0
0.9969 4.0714 1.6668 -0.567 0.810 -0.152 109 109 107 0 0
1.0401 2.6502 1.8258 -0.481 0.821 0.308 68 68 70 0 0
0.5176 3.0973 1.7407 -0.953 -0.260 -0.154 78 78 79 0 0
0.6210 2.9799 1.7744 -0.720 -0.259 0.644 21 21 23 0 0
0.4666 3.2973 1.7308 -0.673 0.642 -0.366 15 15 17 0 0
0.5869 3.0028 1.7834 -0.697 -0.687 -0.205 18 18 20 0 0
0.9165 4.0210 1.7101 -0.665 0.168 0.728 73 71 72 0 0
0.4526 3.2691 1.7601 -0.369 -0.121 -0.922 12 12 14 0 0
0.4317 3.2781 1.7574 -0.531 -0.495 -0.687 13 13 15 0 0
0.9422 2.7428 1.8668 -0.066 -0.663 0.745 42 41 46 0 0
0.5000 3.0301 1.8012 -0.705 -0.705 -0.075 19 18 21 0 0
0.4973 3.0435 1.7997 -0.988 -0.089 0.127 26 25 27 0 0
1.1031 2.6971 1.8996 -0.574 -0.489 0.656 56 55 60 0 0
0.5057 3.0189 1.8166 -0.608 -0.753 -0.252 19 17 20 0 0
0.4987 3.0453 1.8135 -0.962 -0.003 0.275 18 16 19 0 0
0.9882 2.5221 1.9212 -0.274 0.605 0.748 43 44 48 0 0
0.4879 3.0725 1.8237 -0.985 -0.047 0.164 17 17 19 0 0
0.4579 3.5299 1.7905 -0.751 -0.643 -0.146 31 31 33 0 0
0.9114 4.0432 1.7814 -0.538 0.842 0.040 99 99 97 0 0
1.1242 2.4173 2.0167 -0.751 0.634 0.184 126 127 128 0 0
1.0809 2.6741 1.9879 -0.475 -0.419 -0.774 46 47 51 0 0
1.1288 2.4195 2.0316 -0.732 0.667 0.140 151 151 151 0 0
0.5153 3.4113 1.8769 -0.867 -0.484 -0.121 34 35 40 0 0
0.4815 3.5475 1.8885 -0.893 -0.394 0.218 74 72 75 0 0
1.1312 2.4246 2.0754 -0.685 0.719 -0.123 195 195 196 0 0
1.1453 2.4409 2.0753 -0.763 0.620 -0.180 114 113 117 0 0
0.9118 4.0268 1.9013 -0.677 0.725 -0.129 81 82 83 0 0
1.0069 4.1043 1.9187 -0.505 0.861 -0.063 142 142 142 0 0
1.0017 4.1061 1.9479 -0.464 0.884 -0.054 81 81 81 0 0
0.7631 3.8978 1.9563 -0.308 -0.052 0.950 58 57 62 0 0
1.0036 4.1085 1.9629 -0.472 0.878 0.073 74 72 73 0 0
1.0307 4.1189 1.9799 -0.504 0.837 0.211 92 90 91 0 0
0.9877 4.0916 1.9926 -0.477 0.851 0.218 97 96 99 0 0
1.2526 2.4673 2.2030 -0.439 0.866 0.241 56 56 58 0 0
0.7750 2.7030 2.1260 -0.203 0.506 -0.838 28 28 30 0 0
1.2540 2.4395 2.2206 -0.322 -0.931 -0.174 78 78 80 0 0
0.7089 2.7643 2.1268 0.001 -0.172 -0.985 34 34 36 0 0
1.2670 2.4575 2.2354 -0.416 0.845 0.336 62 61 65 0 0
1.2284 2.4576 2.2754 -0.988 -0.000 -0.154 48 49 54 0 0
1.2350 2.4600 2.2909 -0.921 -0.110 -0.375 49 50 55 0 0
0.6650 3.8261 2.0957 -0.616 0.573 0.540 57 57 59 0 0
0.6711 3.8572 2.0936 -0.595 0.687 0.417 64 63 64 0 0
0.6217 2.7588 2.2008 -0.841 0.529 0.116 41 45 48 0 0
0.6316 2.7745 2.2007 -0.841 0.529 0.116 43 45 48 0 0
0.8082 2.6357 2.2499 -0.247 -0.759 0.603 57 57 59 0 0
0.8679 3.8899 2.1448 -0.301 -0.236 0.924 58 58 60 0 0
0.8806 4.0143 2.1352 -0.444 0.889 -0.112 87 83 83 0 0
1.2124 2.4473 2.3338 -0.278 -0.959 0.049 49 50 55 0 0
0.3966 3.0396 2.1879 -0.953 0.148 0.266 15 16 18 0 0
0.3911 3.0538 2.1996 -0.959 -0.182 -0.215 20 21 24 0 0
0.4108 3.1132 2.1969 -0.886 -0.084 -0.456 15 15 17 0 0
0.3808 3.1082 2.2070 -0.988 -0.153 -0.015 16 16 18 0 0
0.7939 3.6374 2.2160 0.038 -0.998 -0.044 17 15 21 0 0
1.3756 2.3843 2.4211 -0.081 -0.977 -0.196 159 160 160 0 0
0.5598 3.6331 2.1988 -0.356 -0.817 -0.453 19 17 24 0 0
0.5238 3.6804 2.1897 -0.352 0.492 -0.796 56 56 58 0 0
0.8511 2.7517 2.3310 -0.214 -0.190 0.958 40 41 45 0 0
0.4605 3.6639 2.1964 -0.623 0.598 -0.504 53 53 55 0 0
0.8366 3.9808 2.2206 -0.479 0.815 -0.326 68 66 71 0 0
0.4092 3.0086 2.2608 -0.958 0.170 -0.231 38 38 40 0 0
0.4435 3.6181 2.2120 -0.895 -0.248 -0.371 27 25 30 0 0
0.4350 3.6299 2.2098 -0.913 0.077 -0.401 32 30 35 0 0
0.4307 3.6429 2.2081 -0.736 0.515 -0.440 48 48 50 0 0
0.5187 3.7397 2.2119 -0.874 -0.075 -0.480 48 48 50 0 0
0.8187 3.9769 2.2331 -0.480 0.820 -0.311 66 66 70 0 0
1.1622 2.6730 2.4108 0.042 -0.974 -0.221 60 58 63 0 0
0.8973 2.8058 2.3616 -0.283 0.215 0.935 41 42 46 0 0
0.4292 3.6299 2.2229 -0.787 -0.128 -0.603 47 45 48 0 0
0.4329 3.6451 2.2221 -0.951 0.301 -0.070 62 62 64 0 0
0.7844 3.9232 2.2476 -0.521 0.059 -0.852 51 52 56 0 0
0.4021 3.0102 2.2870 -0.955 0.176 -0.238 31 31 35 0 0
1.2258 2.3915 2.4891 -0.114 -0.966 -0.231 65 69 73 0 0
0.4680 2.8747 2.3359 -0.399 -0.762 0.511 35 34 39 0 0
1.2909 2.4601 2.5077 -0.526 0.610 -0.593 43 44 49 0 0
0.3697 3.2563 2.3020 -0.997 0.034 0.075 43 43 46 0 0
0.6666 3.8793 2.2923 -0.598 0.788 0.143 78 78 80 0 0
0.3959 2.9189 2.3487 -0.958 -0.263 0.114 36 36 38 0 0
0.3708 3.2581 2.3157 -0.965 0.142 0.220 45 46 49 0 0
0.3725 3.2724 2.3148 -0.874 0.099 0.475 44 45 47 0 0
0.3726 3.2863 2.3136 -0.850 0.031 0.526 44 45 48 0 0
0.3701 3.2996 2.3121 -0.762 0.107 0.639 45 46 50 0 0
1.2989 2.3753 2.5461 -0.817 -0.576 -0.000 96 98 100 0 0
0.6415 3.8603 2.3188 -0.541 0.798 0.265 80 79 83 0 0
1.3423 2.5164 2.5557 -0.321 0.552 -0.769 38 39 44 0 0
1.3488 2.5322 2.5553 -0.118 -0.604 -0.788 38 39 44 0 0
1.3498 2.5473 2.5542 -0.207 -0.401 -0.892 37 38 43 0 0
1.3561 2.5632 2.5538 -0.171 -0.637 -0.752 38 39 44 0 0
0.6575 3.7497 2.3451 -0.864 0.473 0.170 61 61 63 0 0
0.6694 3.7678 2.3454 -0.813 0.582 0.034 54 54 57 0 0
0.6735 3.7836 2.3446 -0.338 -0.077 0.938 53 52 58 0 0
1.3187 2.5448 2.5647 -0.177 -0.478 -0.860 37 37 43 0 0
1.2905 2.5560 2.5594 -0.183 -0.425 -0.886 37 38 43 0 0
0.7377 3.6568 2.3798 -0.855 0.497 -0.149 67 66 71 0 0
0.6656 3.7683 2.3591 -0.608 0.427 0.669 58 58 60 0 0
0.7810 3.9507 2.3614 -0.477 0.834 0.278 75 75 79 0 0
1.2564 2.5827 2.5668 -0.093 -0.283 -0.955 38 39 44 0 0
1.1302 2.5538 2.5790 -0.024 -0.181 -0.983 34 35 40 0 0
0.6974 3.9021 2.4104 -0.500 0.846 0.185 84 85 87 0 0
0.5932 3.6685 2.4274 -0.091 0.077 -0.993 27 30 32 0 0
1.4834 2.4856 2.6872 -0.477 0.123 0.870 198 200 198 0 0
0.6064 3.8192 2.4312 -0.489 0.648 -0.584 71 71 73 0 0
0.3179 3.3901 2.4742 -0.309 -0.848 0.431 37 37 39 0 0
0.4799 3.6162 2.4833 -0.534 0.141 -0.834 55 56 60 0 0
0.3060 3.3057 2.4927 -0.584 0.634 0.506 36 35 41 0 0
0.2895 3.3292 2.4879 -0.353 -0.327 0.877 37 36 42 0 0
0.4488 3.5949 2.4937 -0.600 -0.425 0.678 56 57 61 0 0
0.3004 3.2783 2.5076 -0.722 0.458 0.520 38 37 42 0 0
0.3126 3.2951 2.5084 -0.697 0.510 0.504 39 38 43 0 0
0.3305 3.3133 2.5100 -0.595 0.601 0.533 39 38 43 0 0
0.3521 3.3325 2.5122 -0.613 0.585 0.531 39 38 43 0 0
0.3274 3.3402 2.5073 -0.353 -0.327 0.877 43 42 47 0 0
0.3547 3.5004 2.4989 -0.579 0.761 0.294 56 55 60 0 0
0.4545 3.6550 2.5037 -0.521 0.309 0.795 39 39 42 0 0
0.3275 3.3003 2.5242 -0.712 0.486 0.507 45 44 48 0 0
0.3392 3.3170 2.5249 -0.709 0.514 0.484 45 45 47 0 0
0.3664 3.3376 2.5280 -0.704 0.470 0.532 48 47 50 0 0
0.4778 3.6347 2.5235 -0.780 0.430 -0.455 12 10 15 0 0
0.4882 3.6519 2.5239 -0.776 0.360 -0.517 20 18 21 0 0
0.5020 3.6702 2.5248 -0.761 0.551 -0.341 31 29 32 0 0
0.6906 2.7204 2.6496 -0.696 -0.163 -0.699 15 13 18 0 0
0.2982 3.2671 2.5354 -0.435 0.609 0.664 41 39 44 0 0
0.3430 3.3056 2.5402 -0.719 0.531 0.448 33 32 36 0 0
0.3562 3.3227 2.5412 -0.700 0.572 0.428 32 31 35 0 0
0.3773 3.3558 2.5422 -0.273 0.047 0.961 26 26 29 0 0
0.4503 3.5718 2.5377 -0.623 0.664 0.414 11 9 13 0 0
0.6809 2.7204 2.6620 -0.834 -0.552 -0.003 10 10 12 0 0
0.6811 2.7345 2.6609 -0.769 -0.638 0.029 11 10 14 0 0
0.3983 3.4186 2.5547 -0.264 -0.086 0.961 14 14 16 0 0
0.3942 3.4316 2.5529 -0.282 -0.102 0.954 14 14 16 0 0
0.7735 2.7230 2.6926 -0.272 0.079 0.959 24 24 26 0 0
0.4342 3.4717 2.5708 -0.316 0.079 0.946 11 11 13 0 0
0.4195 3.5242 2.5639 -0.608 0.137 0.782 10 10 13 0 0
0.4381 3.5434 2.5657 -0.880 0.340 0.333 14 13 17 0 0
0.4627 3.5642 2.5685 -0.948 0.042 0.316 14 14 18 0 0
0.4791 3.5829 2.5699 -0.703 0.583 0.407 14 13 17 0 0
0.8669 3.9594 2.6099 -0.569 0.821 0.039 91 93 92 0 0
0.6264 2.8124 2.6728 -0.680 -0.120 -0.723 14 14 16 0 0
1.0900 2.6326 2.8015 -0.011 -0.446 -0.895 40 39 44 0 0
0.5361 3.6674 2.6723 -0.362 0.743 -0.563 53 54 57 0 0
1.2910 2.4613 2.9277 -0.104 -0.785 -0.610 85 85 85 0 0
1.0781 2.5367 2.8804 -0.075 -0.940 -0.333 69 70 74 0 0
1.2900 2.4479 2.9435 -0.104 -0.789 -0.605 94 94 96 0 0
0.8261 2.6602 2.8360 -0.728 -0.198 0.656 62 62 64 0 0
0.5018 3.5894 2.7000 -0.449 0.892 0.053 52 53 56 0 0
0.3339 3.3915 2.6962 -0.491 -0.035 0.871 31 32 33 0 0
0.4077 3.4384 2.7071 -0.600 0.763 0.239 36 35 40 0 0
0.4717 3.4834 2.7163 -0.428 0.789 0.441 39 39 44 0 0
0.5038 3.5773 2.7154 -0.468 0.846 0.255 53 54 56 0 0
1.0698 2.5128 2.9393 -0.166 -0.579 -0.799 64 63 67 0 0
0.4259 3.4057 2.7549 -0.671 0.678 0.300 51 50 56 0 0
0.4087 3.4294 2.7496 -0.809 -0.038 0.586 49 48 54 0 0
0.4155 3.4452 2.7498 -0.890 0.348 0.296 50 49 55 0 0
0.4232 3.4613 2.7501 -0.627 0.764 -0.151 51 50 55 0 0
0.4223 3.5033 2.7467 -0.424 0.580 0.696 54 53 58 0 0
0.8155 2.7806 2.8962 -0.997 0.032 0.067 23 23 25 0 0
0.4445 3.4120 2.7721 -0.678 0.677 0.286 49 48 53 0 0
0.4234 3.4489 2.7650 -0.607 -0.779 0.158 47 46 51 0 0
0.4194 3.4619 2.7632 -0.623 0.775 0.109 45 44 49 0 0
0.4556 3.4855 2.7688 -0.507 0.860 0.053 42 41 46 0 0
1.1621 4.1740 2.9063 -0.290 -0.088 -0.953 73 71 74 0 0
0.3204 3.0970 2.8254 -0.755 -0.121 0.644 23 21 26 0 0
0.3334 3.1014 2.8414 -0.755 -0.121 0.644 30 28 31 0 0
0.3249 3.1132 2.8387 -0.232 -0.876 0.423 26 24 28 0 0
0.3875 3.2937 2.8385 -0.839 0.544 -0.022 30 30 32 0 0
0.8328 2.6215 2.9979 -0.291 -0.487 0.823 47 46 51 0 0
0.3388 3.1316 2.8539 -0.290 -0.653 -0.699 62 60 62 0 0
0.3698 3.2771 2.8497 -0.685 0.274 -0.675 74 73 74 0 0
0.3640 3.1526 2.8715 -0.899 0.381 0.214 79 77 77 0 0
1.3009 2.4557 3.1406 -0.675 -0.443 -0.590 63 64 68 0 0
1.2445 2.4503 3.1437 -0.495 -0.591 -0.637 61 62 67 0 0
0.8394 4.1281 2.9457 -0.455 0.795 -0.402 71 70 74 0 0
1.2440 2.4683 3.1722 -0.312 -0.116 -0.943 49 49 55 0 0
1.3235 2.6031 3.2254 -0.139 0.211 -0.968 46 45 50 0 0
1.1395 2.5349 3.2033 -0.314 0.597 -0.738 44 43 49 0 0
1.2592 2.5958 3.2264 -0.141 0.190 -0.972 45 44 49 0 0
1.2590 2.6107 3.2252 -0.143 0.112 -0.983 44 43 48 0 0
1.2658 2.4347 3.2545 -0.544 -0.828 -0.133 89 89 91 0 0
1.0691 2.4833 3.2056 -0.474 -0.881 -0.018 59 58 61 0 0
1.2660 2.4363 3.2694 -0.684 -0.714 -0.150 91 91 93 0 0
1.0650 2.4844 3.2193 -0.525 -0.849 -0.063 63 63 65 0 0
1.0433 2.4961 3.2134 -0.446 -0.889 -0.105 55 55 58 0 0
1.1271 2.5658 3.2279 -0.153 0.404 -0.902 43 42 47 0 0
1.0130 2.5226 3.2191 -0.428 -0.904 0.021 53 52 58 0 0
0.9350 3.5375 3.1285 -0.365 0.016 0.931 27 26 32 0 0
1.1022 2.4519 3.2892 -0.541 -0.800 0.258 85 85 83 0 0
