ply
format ascii 1.0
element vertex 882
property float x
property float y
property float z
property float nx
property float ny
property float nz
property uchar diffuse_red
property uchar diffuse_green
property uchar diffuse_blue
property uchar class
property uchar detection
end_header
0.8796 2.0353 0.6406 -0.888 -0.460 0.005 51 51 53 0 0
0.7934 2.0155 0.6570 -0.233 -0.914 -0.332 55 55 55 0 0
1.2378 2.3202 0.5801 0.366 -0.753 0.547 50 50 52 0 0
0.9247 1.9994 0.6462 0.787 -0.608 0.106 47 47 47 0 0
0.9030 1.9722 0.6509 -0.578 -0.749 0.325 57 57 59 0 0
0.8230 2.0017 0.6648 -0.239 -0.819 -0.521 56 56 56 0 0
0.7963 2.0113 0.6695 -0.203 -0.828 -0.522 62 62 62 0 0
0.9311 1.9673 0.6588 -0.448 -0.849 0.279 48 48 48 0 0
0.9299 1.9936 0.6712 0.191 -0.700 0.688 51 50 51 0 0
0.9174 1.9924 0.6736 -0.175 -0.688 0.704 53 51 56 0 0
0.7675 1.9787 0.7015 -0.310 -0.596 -0.740 57 57 59 0 0
0.9724 1.9754 0.6767 0.617 -0.786 -0.041 34 34 37 0 0
0.8633 2.0337 0.6955 -0.539 -0.493 0.683 76 74 76 0 0
0.8282 2.0124 0.7025 -0.197 -0.979 -0.056 69 68 71 0 0
0.7851 1.9604 0.7115 0.479 -0.619 -0.622 60 60 62 0 0
0.8307 2.0099 0.7150 -0.086 -0.930 0.358 74 74 76 0 0
0.7776 1.9406 0.7262 0.495 -0.592 -0.636 64 64 66 0 0
0.8682 2.0309 0.7207 0.501 -0.803 -0.323 83 82 82 0 0
0.8577 2.0144 0.7229 -0.159 -0.927 -0.339 81 80 80 0 0
0.8454 2.0118 0.7253 0.481 -0.788 -0.383 79 79 79 0 0
0.8002 1.9734 0.7343 0.362 -0.568 -0.739 78 77 79 0 0
0.7901 1.9563 0.7365 0.444 -0.446 -0.777 86 85 87 0 0
1.2760 2.3481 0.6532 0.856 -0.251 0.452 56 56 58 0 0
0.8681 2.0480 0.7334 0.130 -0.469 -0.874 86 84 83 0 0
0.8554 2.0472 0.7358 -0.116 -0.417 -0.901 90 89 87 0 0
0.8055 1.9522 0.7466 0.145 -0.657 -0.740 72 70 73 0 0
0.5648 2.2510 0.7860 0.554 -0.775 -0.305 58 59 59 0 0
1.2714 2.2735 0.6686 0.755 -0.648 0.104 54 54 56 0 0
0.5651 2.2630 0.7991 0.597 -0.683 -0.420 64 64 64 0 0
1.3225 2.6771 0.6671 0.978 -0.163 0.128 45 45 47 0 0
1.1768 2.0862 0.7151 -0.472 -0.740 -0.480 36 36 38 0 0
0.9154 1.9341 0.7652 -0.416 -0.356 -0.837 82 81 80 0 0
0.9014 1.9447 0.7676 -0.416 -0.356 -0.837 92 91 89 0 0
0.8342 1.9746 0.7797 -0.756 -0.258 -0.601 59 58 63 0 0
1.2280 2.2535 0.7170 0.788 -0.589 -0.182 46 46 48 0 0
1.1800 2.0760 0.7277 -0.472 -0.740 -0.480 37 37 39 0 0
1.1654 2.0951 0.7302 -0.731 -0.604 -0.317 35 35 37 0 0
0.7494 1.8826 0.8092 -0.673 -0.288 -0.681 50 50 52 0 0
0.6815 1.9922 0.8207 -0.296 -0.292 -0.909 57 55 58 0 0
1.2300 2.2575 0.7300 0.377 -0.916 -0.140 44 44 46 0 0
1.1377 2.1382 0.7480 -0.608 -0.793 0.037 31 31 33 0 0
0.7046 1.9409 0.8298 -0.767 -0.340 -0.544 53 53 55 0 0
0.6874 1.9692 0.8327 -0.548 -0.353 -0.758 58 56 59 0 0
0.6719 1.9867 0.8355 -0.536 -0.363 -0.762 60 60 62 0 0
1.1398 2.1408 0.7608 -0.401 -0.913 0.078 32 32 34 0 0
0.8242 1.8290 0.8213 -0.270 -0.178 -0.946 48 48 50 0 0
0.6644 1.9683 0.8499 -0.621 -0.375 -0.689 61 62 64 0 0
1.4155 2.9306 0.7189 0.534 -0.761 -0.368 49 49 51 0 0
1.1554 2.1593 0.7842 0.099 -0.910 0.403 35 35 37 0 0
0.8558 1.8999 0.8406 -0.955 -0.297 -0.017 50 50 52 0 0
0.6998 1.8551 0.8697 -0.724 -0.294 -0.624 54 55 57 0 0
0.6856 1.8788 0.8850 -0.722 -0.294 -0.626 52 53 55 0 0
1.6722 3.6714 0.7302 -0.926 -0.302 0.228 147 146 148 0 0
0.6886 1.8110 0.9100 -0.861 -0.443 0.248 45 44 48 0 0
1.6750 3.6736 0.7454 -0.906 -0.355 0.231 143 142 145 0 0
0.9550 1.9777 0.8738 0.864 -0.314 0.393 33 34 39 0 0
0.9421 1.9795 0.8762 0.962 -0.273 0.027 33 34 39 0 0
0.6567 1.8653 0.9288 -0.334 -0.557 -0.760 49 49 51 0 0
0.9696 1.9802 0.8841 0.423 -0.214 0.881 32 33 38 0 0
0.9565 1.9835 0.8865 0.922 -0.271 0.276 32 33 38 0 0
0.8823 1.7888 0.8994 0.777 -0.603 -0.183 48 49 51 0 0
0.8715 1.7780 0.9013 0.703 -0.702 -0.109 55 55 57 0 0
0.7311 1.7283 0.9272 -0.403 -0.682 0.610 73 71 71 0 0
0.7142 1.7563 0.9304 -0.656 -0.650 0.383 67 65 67 0 0
0.6634 1.8382 0.9403 -0.023 -0.523 -0.852 48 47 50 0 0
1.6808 3.6711 0.7757 -0.769 -0.627 0.126 138 137 139 0 0
1.6653 3.6783 0.7787 -0.116 -0.992 -0.042 74 75 77 0 0
0.9864 1.9651 0.8938 -0.296 -0.450 -0.843 33 33 36 0 0
0.9725 1.9750 0.8965 -0.444 -0.397 -0.803 33 32 37 0 0
0.7971 1.7126 0.9274 0.153 -0.887 0.435 83 82 79 0 0
0.7860 1.7048 0.9294 0.163 -0.793 0.587 87 86 82 0 0
0.7349 1.7175 0.9390 0.008 -0.879 0.476 65 63 65 0 0
0.7153 1.7625 0.9429 -0.656 -0.650 0.383 63 61 64 0 0
0.6688 1.8190 0.9519 -0.023 -0.523 -0.852 54 54 56 0 0
1.0427 1.8282 0.8952 -0.555 -0.657 -0.511 39 39 41 0 0
0.7877 1.7078 0.9417 0.025 -0.980 0.197 77 75 75 0 0
0.7753 1.7086 0.9440 -0.125 -0.968 0.219 78 77 75 0 0
0.7360 1.7238 0.9514 -0.013 -0.805 0.592 54 52 56 0 0
0.7222 1.7334 0.9540 -0.389 -0.780 0.490 48 46 49 0 0
0.6730 1.8065 0.9638 0.305 -0.596 -0.743 49 49 51 0 0
0.6596 1.8122 0.9663 0.153 -0.468 -0.870 56 56 58 0 0
1.0463 1.8156 0.9072 -0.045 -0.524 -0.850 40 40 42 0 0
0.7393 1.7166 0.9633 0.205 -0.944 0.258 35 33 38 0 0
0.7251 1.7286 0.9660 -0.231 -0.516 0.825 32 30 34 0 0
0.6617 1.8128 0.9786 -0.001 -0.998 -0.063 44 44 46 0 0
0.6484 1.8179 0.9812 -0.208 -0.974 -0.088 51 51 53 0 0
1.1058 1.8989 0.9354 -0.003 -0.891 -0.454 40 40 42 0 0
1.0212 1.8735 0.9508 -0.367 -0.519 -0.772 37 37 39 0 0
1.1081 1.8988 0.9479 0.347 -0.918 -0.193 42 42 44 0 0
1.0987 1.8700 0.9491 0.779 -0.610 -0.141 44 44 46 0 0
1.0260 1.8519 0.9624 -0.413 -0.781 -0.468 35 35 37 0 0
1.1101 1.9005 0.9604 0.553 -0.805 -0.216 44 44 46 0 0
1.1003 1.8757 0.9617 0.851 -0.499 -0.164 46 46 48 0 0
0.7684 1.7562 1.0215 0.025 -0.847 -0.531 12 12 14 0 0
1.4848 3.1657 0.9282 -0.969 -0.241 -0.047 38 38 40 0 0
0.7713 1.7512 1.0335 0.259 -0.923 -0.283 11 11 13 0 0
0.4775 1.9981 1.0931 -0.904 -0.388 0.178 168 168 166 0 0
0.6901 1.7320 1.0609 -0.557 -0.384 -0.737 11 11 13 0 0
1.1060 1.8853 0.9994 0.900 -0.347 -0.264 50 50 52 0 0
1.0859 1.8410 1.0021 0.489 -0.872 0.037 50 50 52 0 0
0.9787 1.8029 1.0213 -0.002 -0.582 -0.813 36 36 39 0 0
0.7236 1.6911 1.0663 -0.276 -0.625 -0.730 13 12 15 0 0
0.6921 1.7330 1.0732 -0.601 -0.529 -0.599 11 11 13 0 0
1.6976 3.6457 0.9451 0.422 -0.837 -0.349 67 66 70 0 0
1.1262 1.9523 1.0101 0.780 -0.392 -0.488 48 48 50 0 0
1.0872 1.8497 1.0149 0.434 -0.891 0.132 51 51 53 0 0
0.9604 1.7698 1.0366 0.366 -0.930 0.025 32 33 35 0 0
0.9496 1.7579 1.0383 -0.099 -0.995 -0.001 34 34 35 0 0
0.9373 1.7574 1.0406 -0.017 -0.982 0.191 39 40 37 0 0
0.9250 1.7576 1.0429 0.122 -0.917 0.380 37 38 36 0 0
0.9126 1.7576 1.0452 -0.064 -0.861 0.504 31 32 31 0 0
0.9000 1.7600 1.0476 -0.064 -0.861 0.504 23 23 25 0 0
0.7480 1.6286 1.0728 0.496 -0.837 -0.231 13 12 17 0 0
0.7370 1.6216 1.0747 0.496 -0.837 -0.231 13 12 17 0 0
0.5716 1.7966 1.1099 -0.871 -0.430 0.238 67 67 68 0 0
1.7006 3.6404 0.9601 0.479 -0.813 -0.332 66 65 71 0 0
1.1785 2.0861 1.0168 -0.816 -0.493 -0.303 42 41 46 0 0
1.1683 2.0594 1.0180 -0.338 -0.604 -0.722 42 41 46 0 0
1.1474 2.0140 1.0207 0.528 -0.527 -0.666 45 44 49 0 0
1.1367 1.9942 1.0222 0.681 -0.358 -0.638 47 47 49 0 0
1.1277 1.9591 1.0230 0.768 -0.299 -0.566 50 50 52 0 0
1.1209 1.9046 1.0228 0.886 -0.368 -0.281 51 51 53 0 0
1.1009 1.8583 1.0253 0.383 -0.916 0.118 52 52 54 0 0
1.0891 1.8524 1.0274 0.434 -0.891 0.132 51 51 53 0 0
0.9861 1.7791 1.0447 0.257 -0.963 -0.085 27 26 29 0 0
0.9516 1.7591 1.0506 -0.017 -0.982 0.191 12 11 13 0 0
0.9392 1.7597 1.0530 -0.017 -0.982 0.191 21 21 22 0 0
0.9265 1.7622 1.0554 0.229 -0.948 0.220 38 38 38 0 0
0.9139 1.7638 1.0578 -0.039 -0.888 0.458 36 35 35 0 0
0.9014 1.7656 1.0602 -0.039 -0.888 0.458 27 27 29 0 0
0.8399 1.7629 1.0716 0.839 -0.544 0.020 8 8 10 0 0
0.8296 1.7493 1.0732 0.657 -0.649 0.384 9 9 11 0 0
1.7036 3.6355 0.9752 0.554 -0.783 -0.282 67 66 69 0 0
1.2665 2.4467 1.0236 0.951 -0.282 0.126 74 75 77 0 0
1.1816 2.0777 1.0292 -0.762 -0.442 -0.473 46 45 50 0 0
1.1721 2.0440 1.0300 -0.357 -0.594 -0.721 44 43 48 0 0
1.1401 1.9829 1.0343 0.832 -0.366 -0.417 50 50 52 0 0
1.1022 1.8663 1.0381 0.457 -0.869 0.193 51 51 53 0 0
1.0907 1.8582 1.0401 0.441 -0.876 0.193 47 47 49 0 0
0.9883 1.7786 1.0570 0.059 -0.990 0.128 19 17 21 0 0
0.9535 1.7615 1.0630 0.068 -0.977 0.200 13 11 15 0 0
0.9401 1.7696 1.0657 0.355 -0.933 0.052 13 11 16 0 0
0.9284 1.7647 1.0678 0.393 -0.910 -0.134 25 23 26 0 0
0.9153 1.7699 1.0704 -0.145 -0.920 0.363 40 38 39 0 0
0.9017 1.7790 1.0732 -0.427 -0.901 0.076 32 32 33 0 0
0.8882 1.7868 1.0759 -0.594 -0.773 -0.223 24 24 26 0 0
0.8607 1.8058 1.0816 0.091 -0.991 0.094 10 10 12 0 0
0.5077 1.9627 1.1520 -0.919 -0.385 0.084 155 155 155 0 0
1.7064 3.6362 0.9904 0.405 -0.898 -0.173 68 68 68 0 0
1.2576 2.4226 1.0384 0.878 -0.267 0.396 70 70 72 0 0
1.2369 2.3529 1.0402 0.916 -0.251 0.313 75 76 78 0 0
1.1761 2.0265 1.0419 -0.338 -0.604 -0.722 46 47 49 0 0
1.1634 2.0268 1.0443 0.092 -0.580 -0.809 45 46 48 0 0
1.1510 2.0233 1.0465 0.412 -0.450 -0.792 47 48 50 0 0
1.1408 1.9982 1.0476 0.872 -0.463 -0.155 50 50 54 0 0
1.1162 1.8731 1.0485 0.856 -0.513 -0.068 54 53 56 0 0
1.1041 1.8700 1.0507 0.457 -0.869 0.193 51 51 54 0 0
1.0922 1.8643 1.0528 0.457 -0.869 0.193 46 45 50 0 0
1.0350 1.8198 1.0621 0.730 -0.663 0.166 19 19 21 0 0
0.9790 1.7723 1.0712 0.279 -0.953 -0.121 18 18 20 0 0
0.9676 1.7642 1.0731 0.180 -0.981 0.072 21 21 23 0 0
0.9558 1.7604 1.0752 -0.012 -1.000 0.013 20 20 22 0 0
0.9433 1.7618 1.0776 0.072 -0.994 -0.079 14 14 16 0 0
0.9308 1.7629 1.0800 0.223 -0.946 -0.235 14 14 15 0 0
0.8632 1.8038 1.0938 -0.019 -0.997 -0.071 11 11 13 0 0
0.8521 1.7945 1.0956 0.697 -0.717 -0.008 8 8 10 0 0
0.8426 1.7743 1.0968 0.661 -0.739 0.127 8 8 10 0 0
0.7884 1.6444 1.1031 0.152 -0.988 -0.014 11 10 15 0 0
1.7093 3.6354 1.0055 0.336 -0.933 -0.130 67 66 69 0 0
1.3818 2.8064 1.0409 0.562 -0.292 0.774 33 33 35 0 0
1.2478 2.4092 1.0535 0.903 -0.260 0.341 38 38 42 0 0
1.1644 2.0390 1.0576 -0.286 -0.474 -0.832 48 49 51 0 0
1.1550 2.0063 1.0583 0.493 -0.472 -0.731 48 49 51 0 0
1.1442 1.9871 1.0597 0.643 -0.753 -0.139 51 51 55 0 0
1.0943 1.8659 1.0653 0.476 -0.879 0.011 45 44 49 0 0
1.0377 1.8162 1.0743 0.640 -0.760 -0.118 16 16 18 0 0
0.9568 1.7697 1.0880 0.142 -0.951 0.273 21 21 23 0 0
0.9452 1.7637 1.0900 0.127 -0.982 0.140 15 15 17 0 0
0.9326 1.7655 1.0924 0.199 -0.980 0.016 12 12 13 0 0
0.8671 1.7913 1.1054 -0.009 -0.951 -0.308 12 12 14 0 0
0.8573 1.7733 1.1067 -0.155 -0.897 -0.414 9 9 11 0 0
0.8464 1.7627 1.1084 0.042 -0.913 -0.407 8 8 10 0 0
0.7905 1.6445 1.1152 0.152 -0.988 -0.014 10 9 14 0 0
1.7122 3.6343 1.0207 0.336 -0.933 -0.130 67 66 71 0 0
1.3633 2.7052 1.0554 0.926 -0.343 0.156 30 30 32 0 0
1.3287 2.6116 1.0588 0.831 -0.367 0.417 39 38 41 0 0
1.3161 2.5980 1.0607 0.849 -0.380 0.368 31 30 33 0 0
1.3044 2.5731 1.0621 0.849 -0.380 0.368 19 18 20 0 0
1.2383 2.3928 1.0685 0.912 -0.268 0.311 25 23 28 0 0
1.2271 2.3687 1.0698 0.904 -0.197 0.380 31 30 34 0 0
1.1565 2.0141 1.0713 0.008 -0.506 -0.862 50 51 53 0 0
1.1447 2.0045 1.0732 0.542 -0.504 -0.672 52 53 57 0 0
1.0956 1.8738 1.0781 0.494 -0.867 -0.067 44 44 46 0 0
1.0407 1.8091 1.0863 0.568 -0.807 -0.163 23 23 26 0 0
0.9836 1.7700 1.0957 0.388 -0.891 -0.238 12 12 14 0 0
0.9707 1.7740 1.0982 0.070 -0.998 -0.008 20 20 22 0 0
0.9585 1.7730 1.1005 -0.016 -0.986 0.166 23 23 25 0 0
0.9332 1.7775 1.1054 0.174 -0.953 0.247 12 12 13 0 0
0.9207 1.7784 1.1077 -0.092 -0.986 0.139 19 19 19 0 0
0.9081 1.7799 1.1101 -0.092 -0.986 0.139 19 19 20 0 0
0.8956 1.7809 1.1125 -0.095 -0.994 0.060 16 16 18 0 0
0.8699 1.7874 1.1175 -0.009 -0.951 -0.308 13 13 15 0 0
0.8601 1.7689 1.1188 -0.193 -0.938 -0.289 9 9 11 0 0
0.8493 1.7576 1.1204 0.044 -0.929 -0.367 9 9 11 0 0
1.4514 3.1569 1.0688 -0.038 -0.945 -0.324 54 53 57 0 0
1.1088 1.8879 1.0890 0.439 -0.898 -0.033 52 52 54 0 0
1.0978 1.8741 1.0906 0.494 -0.867 -0.067 44 44 45 0 0
1.0703 1.7870 1.0927 -0.466 -0.859 -0.211 29 28 33 0 0
1.0547 1.8145 1.0966 0.514 -0.856 -0.058 24 23 28 0 0
1.0430 1.8085 1.0986 0.335 -0.935 -0.116 23 23 26 0 0
0.9978 1.7730 1.1058 0.488 -0.797 -0.355 21 20 23 0 0
0.9861 1.7678 1.1078 0.388 -0.891 -0.238 28 27 30 0 0
0.9729 1.7744 1.1105 0.081 -0.950 -0.302 41 41 44 0 0
0.9606 1.7738 1.1128 -0.039 -0.967 -0.250 38 38 40 0 0
0.9488 1.7693 1.1149 -0.263 -0.959 0.108 27 26 28 0 0
0.9350 1.7802 1.1178 0.312 -0.891 0.328 16 15 17 0 0
0.8976 1.7814 1.1249 -0.095 -0.994 0.060 17 16 18 0 0
0.8493 1.7726 1.1336 -0.149 -0.988 -0.035 9 9 11 0 0
0.7994 1.6144 1.1375 -0.243 -0.961 0.134 11 10 15 0 0
1.4543 3.1514 1.0830 0.054 -0.887 -0.458 53 51 56 0 0
1.4394 3.1583 1.0860 -0.494 -0.819 -0.292 60 60 62 0 0
1.2831 2.5603 1.0936 0.628 -0.537 0.563 31 31 33 0 0
1.2070 2.3496 1.1002 0.905 -0.108 0.412 24 23 28 0 0
1.1410 1.9617 1.0985 0.707 -0.274 -0.652 56 57 61 0 0
1.1354 1.8943 1.0971 0.567 -0.710 -0.418 56 57 61 0 0
1.1011 1.8645 1.1025 0.790 -0.531 -0.307 47 46 49 0 0
1.0708 1.8017 1.1059 -0.015 -0.845 -0.535 30 29 34 0 0
1.0577 1.8081 1.1086 0.397 -0.917 -0.034 24 24 27 0 0
1.0464 1.7986 1.1103 0.059 -0.976 0.208 25 24 26 0 0
1.0001 1.7719 1.1180 0.266 -0.934 0.237 46 44 47 0 0
0.9876 1.7726 1.1204 0.322 -0.936 -0.144 33 31 34 0 0
0.9625 1.7757 1.1252 0.020 -0.956 -0.293 25 25 27 0 0
0.8998 1.7817 1.1372 -0.005 -0.855 0.519 20 18 21 0 0
0.8013 1.6156 1.1496 -0.243 -0.961 0.134 11 10 15 0 0
1.4725 3.1332 1.0939 -0.420 -0.790 -0.446 38 36 42 0 0
1.4569 3.1532 1.0975 0.093 -0.804 -0.587 52 50 55 0 0
1.4425 3.1514 1.1002 -0.494 -0.819 -0.292 62 62 64 0 0
1.4274 3.1616 1.1034 -0.255 -0.919 -0.300 58 58 60 0 0
1.0716 1.8137 1.1189 0.563 -0.594 -0.575 31 29 34 0 0
1.0601 1.8065 1.1208 0.338 -0.941 0.018 23 23 26 0 0
1.0482 1.8014 1.1228 0.059 -0.976 0.208 21 21 23 0 0
1.0020 1.7742 1.1305 0.375 -0.863 0.337 62 60 61 0 0
0.9903 1.7690 1.1325 0.400 -0.915 0.044 39 37 38 0 0
0.9774 1.7732 1.1351 0.273 -0.837 -0.474 25 25 25 0 0
0.9652 1.7720 1.1373 0.020 -0.956 -0.293 26 25 26 0 0
0.9388 1.7842 1.1427 -0.078 -0.977 0.201 36 34 37 0 0
0.9009 1.7895 1.1500 -0.005 -0.855 0.519 27 25 29 0 0
0.7501 1.6451 1.1728 -0.513 -0.852 0.101 12 12 14 0 0
0.7387 1.6402 1.1748 0.153 -0.902 0.403 12 12 14 0 0
1.1927 2.2703 1.1271 0.987 -0.137 0.090 29 28 34 0 0
1.0620 1.8084 1.1333 0.417 -0.894 -0.165 26 26 29 0 0
1.0506 1.7998 1.1351 0.127 -0.952 -0.280 21 20 22 0 0
1.0270 1.7899 1.1391 0.504 -0.851 0.150 33 31 33 0 0
0.9805 1.7658 1.1469 0.223 -0.829 -0.512 75 75 75 0 0
0.9678 1.7684 1.1494 0.020 -0.956 -0.293 75 74 75 0 0
0.9550 1.7718 1.1519 -0.263 -0.959 0.108 72 70 73 0 0
0.9023 1.7951 1.1627 0.029 -0.842 0.539 30 27 33 0 0
1.3022 2.7681 1.1406 -0.575 -0.454 0.681 25 25 27 0 0
1.1877 2.2091 1.1390 0.935 -0.277 -0.220 23 23 28 0 0
1.0631 1.8184 1.1463 0.662 -0.713 -0.230 30 29 32 0 0
1.0524 1.8036 1.1477 0.446 -0.853 -0.269 25 23 26 0 0
0.9835 1.7599 1.1588 0.210 -0.821 -0.531 67 65 68 0 0
1.4120 3.0668 1.1472 -0.664 -0.735 -0.136 46 46 45 0 0
1.1900 2.2090 1.1520 0.958 -0.254 -0.131 11 11 16 0 0
1.0655 1.8167 1.1585 0.662 -0.713 -0.230 40 38 41 0 0
0.8358 1.7699 1.1997 0.397 -0.682 -0.614 9 9 11 0 0
1.4548 3.1217 1.1564 -0.753 -0.612 -0.242 58 58 60 0 0
1.3086 2.7498 1.1673 0.268 -0.803 0.532 31 31 33 0 0
1.1833 2.1670 1.1648 0.933 -0.330 -0.142 16 15 20 0 0
1.0681 1.8135 1.1707 0.671 -0.732 -0.123 49 47 50 0 0
0.8395 1.7589 1.2112 -0.019 -0.942 0.334 9 9 11 0 0
1.4583 3.1074 1.1701 -0.740 -0.670 -0.060 57 57 59 0 0
1.1087 1.9182 1.1807 0.539 -0.272 -0.797 42 40 45 0 0
1.0453 1.8147 1.1878 0.422 -0.904 0.068 42 42 44 0 0
0.8590 1.7246 1.2187 0.720 -0.676 -0.158 12 11 14 0 0
0.8186 1.7478 1.2274 0.052 -0.965 0.257 11 11 14 0 0
1.4612 3.1030 1.1842 -0.740 -0.670 -0.060 57 57 59 0 0
1.1113 1.9142 1.1930 0.772 -0.320 -0.549 44 43 48 0 0
0.9510 1.7914 1.2173 -0.633 -0.703 -0.324 26 25 30 0 0
0.8718 1.7364 1.2295 -0.034 -0.586 -0.809 17 16 21 0 0
0.7464 1.7479 1.2537 0.042 -0.850 0.526 31 29 32 0 0
0.6893 1.7941 1.2666 -0.646 -0.539 0.541 31 31 32 0 0
0.6728 1.8181 1.2709 -0.646 -0.539 0.541 34 34 34 0 0
1.4641 3.0985 1.1984 -0.740 -0.670 -0.060 57 57 59 0 0
0.8465 1.7558 1.2479 0.177 -0.827 0.533 28 28 30 0 0
0.7850 1.7527 1.2594 -0.012 -0.930 0.367 18 18 20 0 0
0.8474 1.7644 1.2609 0.177 -0.827 0.533 30 30 32 0 0
0.7865 1.7573 1.2721 -0.077 -0.925 0.372 32 30 33 0 0
0.7734 1.7614 1.2747 -0.099 -0.857 0.505 37 35 38 0 0
0.7603 1.7662 1.2774 -0.087 -0.783 0.616 42 40 44 0 0
0.6936 1.7941 1.2914 -0.320 -0.632 0.706 46 45 50 0 0
0.6758 1.8259 1.2964 -0.724 -0.522 0.452 49 49 52 0 0
1.0750 1.8504 1.2354 0.535 -0.747 0.395 31 31 33 0 0
0.8787 1.7336 1.2662 -0.388 -0.774 -0.500 37 37 39 0 0
0.8528 1.7418 1.2715 -0.474 -0.844 -0.252 36 36 38 0 0
0.8385 1.7553 1.2749 0.050 -0.946 -0.321 37 37 39 0 0
0.8260 1.7560 1.2773 0.013 -0.980 -0.197 38 38 40 0 0
0.7876 1.7638 1.2849 -0.159 -0.926 0.342 40 39 40 0 0
0.7748 1.7667 1.2875 -0.142 -0.910 0.391 46 45 45 0 0
0.7615 1.7720 1.2903 -0.099 -0.857 0.505 50 49 51 0 0
0.6921 1.8162 1.3057 -0.465 -0.526 0.712 53 53 56 0 0
0.6543 1.8179 1.3129 -0.506 -0.405 0.761 66 66 68 0 0
1.4725 3.0899 1.2411 -0.567 -0.706 -0.424 51 51 53 0 0
1.4572 3.1069 1.2449 -0.650 -0.663 -0.372 58 58 60 0 0
1.3822 3.1488 1.2613 -0.920 -0.367 -0.135 38 38 40 0 0
1.0768 1.8540 1.2481 0.543 -0.823 0.168 41 41 43 0 0
1.0530 1.8434 1.2520 0.344 -0.914 0.213 32 32 34 0 0
0.7854 1.7928 1.2997 0.134 -0.606 0.784 47 47 48 0 0
0.7727 1.7938 1.3021 -0.146 -0.688 0.711 55 55 53 0 0
0.7056 1.8235 1.3164 -0.463 -0.564 0.684 60 60 62 0 0
0.6906 1.8385 1.3201 -0.388 -0.513 0.766 63 63 65 0 0
0.6830 1.8084 1.3198 -0.250 -0.449 0.858 68 68 70 0 0
0.6679 1.8239 1.3235 -0.470 -0.445 0.762 74 74 76 0 0
0.6492 1.8604 1.3291 -0.663 -0.421 0.619 88 88 90 0 0
0.6103 1.9399 1.3407 -0.769 -0.343 0.540 71 71 71 0 0
1.4783 3.0311 1.2516 -0.605 -0.786 -0.128 48 48 50 0 0
1.0554 1.8416 1.2643 0.167 -0.982 -0.089 34 34 37 0 0
1.0429 1.8423 1.2667 -0.303 -0.948 -0.102 38 38 41 0 0
1.0183 1.8386 1.2712 -0.009 -0.981 0.192 41 40 45 0 0
1.0072 1.8273 1.2726 0.695 -0.690 0.201 40 40 43 0 0
0.7586 1.8186 1.3190 -0.371 -0.680 0.632 56 56 56 0 0
0.7449 1.8261 1.3220 -0.163 -0.583 0.796 59 59 61 0 0
0.7169 1.8446 1.3283 -0.045 -0.531 0.846 67 67 69 0 0
0.6796 1.8421 1.3352 -0.261 -0.475 0.841 91 91 93 0 0
0.6661 1.8481 1.3381 -0.546 -0.430 0.719 89 89 91 0 0
0.6474 1.8840 1.3437 -0.683 -0.417 0.600 69 69 71 0 0
0.6284 1.9213 1.3493 -0.746 -0.391 0.540 56 56 57 0 0
1.6254 3.4092 1.2606 -0.875 -0.484 0.024 55 54 58 0 0
1.4811 3.0268 1.2657 -0.601 -0.791 -0.117 46 46 48 0 0
1.0574 1.8439 1.2770 0.299 -0.927 -0.228 41 40 45 0 0
1.0221 1.8258 1.2826 -0.182 -0.936 -0.302 41 40 45 0 0
0.6885 1.8778 1.3485 -0.381 -0.430 0.818 71 71 73 0 0
0.6778 1.8660 1.3499 -0.341 -0.500 0.796 61 61 63 0 0
0.6455 1.9085 1.3584 -0.683 -0.417 0.600 48 48 49 0 0
0.6258 1.9495 1.3645 -0.683 -0.417 0.600 59 59 59 0 0
0.5829 2.0503 1.3785 -0.715 -0.392 0.580 170 170 170 0 0
1.4513 3.0958 1.2902 -0.482 -0.744 -0.463 54 54 56 0 0
1.0587 1.8517 1.2901 0.404 -0.908 0.115 45 44 49 0 0
1.0226 1.8397 1.2962 -0.257 -0.965 -0.051 41 41 44 0 0
1.0103 1.8383 1.2984 0.477 -0.842 0.251 40 40 42 0 0
0.9517 1.8083 1.3077 0.419 -0.258 0.871 33 33 35 0 0
0.6761 1.8899 1.3646 -0.428 -0.523 0.737 46 46 46 0 0
0.6413 1.9465 1.3745 -0.645 -0.463 0.608 62 62 60 0 0
0.6012 2.0313 1.3872 -0.654 -0.404 0.639 163 163 161 0 0
0.5806 2.0761 1.3937 -0.703 -0.391 0.594 170 170 170 0 0
1.7773 3.5660 1.2725 0.039 -0.995 -0.095 79 81 81 0 0
1.7802 3.5646 1.2875 0.039 -0.995 -0.095 76 79 79 0 0
1.7652 3.5551 1.2898 0.683 -0.706 -0.187 62 64 68 0 0
1.5651 2.9258 1.2879 0.106 -0.896 -0.430 42 39 46 0 0
1.4737 3.0459 1.3127 -0.682 -0.577 -0.450 51 51 53 0 0
1.4580 3.0702 1.3172 -0.716 -0.599 -0.360 53 53 55 0 0
1.1510 2.0981 1.3140 0.903 -0.254 0.346 6 6 8 0 0
0.6769 1.9894 1.3967 -0.373 -0.506 0.778 61 61 61 0 0
0.6582 2.0251 1.4025 0.056 -0.984 -0.170 75 75 75 0 0
0.6161 2.0457 1.4117 -0.531 -0.427 0.732 171 171 169 0 0
0.5975 2.0792 1.4174 -0.557 -0.427 0.712 171 171 169 0 0
1.7829 3.5733 1.3033 0.255 -0.951 0.173 77 79 80 0 0
1.4766 3.0414 1.3268 -0.570 -0.762 -0.306 49 48 52 0 0
1.4614 3.0568 1.3306 -0.723 -0.657 -0.211 54 53 57 0 0
1.2496 2.6525 1.3445 0.655 -0.421 -0.628 26 26 28 0 0
0.9877 1.8723 1.3435 0.401 -0.741 0.538 43 43 46 0 0
0.9748 1.8747 1.3461 0.629 -0.771 0.098 43 42 46 0 0
0.6699 2.0462 1.4149 0.400 -0.883 -0.247 78 78 77 0 0
0.6596 2.0303 1.4158 0.511 -0.787 -0.345 105 105 104 0 0
1.4796 3.0346 1.3406 -0.553 -0.778 -0.297 48 47 52 0 0
1.4644 3.0508 1.3446 -0.744 -0.658 -0.112 51 50 55 0 0
1.2517 2.6564 1.3586 0.573 -0.305 -0.761 27 27 29 0 0
1.1437 2.0878 1.3413 0.850 -0.291 0.439 8 8 10 0 0
0.6686 1.9888 1.4246 0.477 -0.521 -0.707 167 167 165 0 0
1.5594 2.9113 1.3320 -0.106 -0.885 -0.454 38 38 40 0 0
1.2581 2.6089 1.3684 0.432 -0.362 -0.826 26 26 28 0 0
1.2418 2.6405 1.3737 0.729 -0.162 -0.665 23 23 25 0 0
1.0704 1.9583 1.3597 0.532 -0.534 0.657 28 28 33 0 0
0.6396 2.1002 1.4508 -0.424 -0.380 0.822 171 171 169 0 0
1.5627 2.8971 1.3450 0.145 -0.864 -0.482 36 36 38 0 0
1.3798 3.1062 1.3942 0.505 -0.831 0.232 25 25 27 0 0
1.2430 2.6562 1.3888 0.814 -0.107 -0.571 21 21 23 0 0
1.1173 2.0153 1.3678 0.740 -0.578 0.344 10 10 12 0 0
1.0595 1.9616 1.3750 -0.594 -0.596 -0.540 38 36 41 0 0
1.0481 1.9508 1.3764 -0.544 -0.761 0.354 27 25 29 0 0
1.7943 3.5713 1.3639 -0.119 -0.930 -0.347 72 74 76 0 0
1.5657 2.8873 1.3584 0.313 -0.865 -0.392 37 37 39 0 0
1.3821 3.1118 1.4092 0.505 -0.831 0.232 25 25 27 0 0
1.0860 1.9724 1.3839 0.770 -0.632 0.087 35 34 39 0 0
1.0355 1.9691 1.3932 -0.257 -0.934 0.248 36 36 36 0 0
1.7974 3.5556 1.3780 0.308 -0.800 -0.516 73 75 77 0 0
1.7107 3.3910 1.3824 -0.361 -0.923 -0.133 34 33 38 0 0
1.5961 2.8972 1.3680 0.333 -0.861 -0.385 53 53 55 0 0
1.3847 3.1127 1.4238 0.740 -0.669 -0.071 25 25 27 0 0
1.2193 2.5096 1.4110 0.320 -0.895 -0.310 12 12 14 0 0
1.8004 3.5464 1.3924 0.102 -0.867 -0.488 72 74 76 0 0
1.7136 3.3866 1.3970 -0.274 -0.927 -0.257 34 33 38 0 0
1.6679 3.4197 1.4081 -0.721 -0.693 -0.011 51 50 55 0 0
1.3878 3.1062 1.4378 -0.349 -0.835 -0.425 24 24 26 0 0
1.8032 3.5519 1.4080 0.232 -0.945 -0.232 72 74 76 0 0
1.7165 3.3817 1.4115 -0.274 -0.927 -0.257 34 33 38 0 0
1.3906 3.1038 1.4521 -0.496 -0.834 -0.241 24 24 26 0 0
1.2240 2.5119 1.4384 0.443 -0.896 -0.045 13 13 15 0 0
1.6580 3.4358 1.4423 -0.600 -0.799 -0.037 49 48 53 0 0
1.6764 3.4149 1.4527 -0.687 -0.697 -0.205 48 48 53 0 0
1.3966 3.0930 1.4801 -0.715 -0.669 0.203 26 26 28 0 0
1.1996 2.5371 1.4731 0.011 -0.998 -0.068 17 17 19 0 0
1.0855 2.4537 1.4881 -0.124 -0.978 -0.167 9 9 11 0 0
0.8864 2.4246 1.5236 0.013 -0.235 0.972 56 56 58 0 0
1.6791 3.4183 1.4679 -0.622 -0.720 -0.307 46 47 51 0 0
1.6641 3.4214 1.4711 -0.419 -0.874 -0.245 48 47 52 0 0
1.4185 3.0121 1.4843 -0.955 -0.295 -0.045 29 29 31 0 0
1.3838 3.1084 1.4988 -0.916 -0.301 0.265 26 26 28 0 0
1.4801 2.9836 1.4851 -0.828 -0.424 0.366 38 38 40 0 0
1.4662 2.9748 1.4870 -0.737 -0.658 0.151 36 36 38 0 0
1.6816 3.1076 1.4872 0.266 -0.245 -0.932 47 47 49 0 0
1.4851 2.9889 1.5143 -0.875 -0.471 0.112 44 44 46 0 0
1.1353 2.4834 1.5511 -0.109 -0.811 -0.574 9 9 11 0 0
1.1217 2.4834 1.5537 -0.109 -0.811 -0.574 9 9 11 0 0
1.1082 2.4828 1.5562 -0.262 -0.914 -0.309 9 9 11 0 0
0.7758 2.8314 1.6503 0.013 -0.793 0.609 51 50 54 0 0
1.1379 2.4818 1.5645 -0.097 -0.602 -0.792 11 11 13 0 0
1.8450 3.4704 1.5344 0.949 -0.269 -0.166 80 80 82 0 0
1.6654 2.9638 1.5222 0.392 -0.845 0.364 58 58 60 0 0
1.1700 2.4544 1.5699 0.158 -0.902 -0.402 10 10 12 0 0
1.1569 2.4494 1.5720 -0.411 -0.907 0.086 18 18 20 0 0
1.1284 2.4654 1.5789 -0.184 -0.822 -0.538 11 11 13 0 0
1.1133 2.4808 1.5832 -0.586 -0.801 0.121 11 11 13 0 0
1.8478 3.4689 1.5494 0.926 -0.343 -0.158 79 79 81 0 0
1.6812 2.9992 1.5373 0.013 -0.910 -0.413 61 61 63 0 0
1.6674 2.9824 1.5383 -0.052 -0.900 0.433 61 61 63 0 0
1.5866 2.8641 1.5427 0.584 -0.710 0.394 59 59 61 0 0
1.1725 2.4532 1.5833 0.024 -0.981 -0.193 19 19 21 0 0
1.1594 2.4496 1.5855 -0.411 -0.907 0.086 35 35 37 0 0
1.1456 2.4524 1.5884 -0.103 -0.697 -0.710 10 10 12 0 0
1.1310 2.4632 1.5922 -0.359 -0.870 -0.337 11 11 13 0 0
1.6972 3.0331 1.5523 -0.009 -0.705 -0.709 65 63 68 0 0
1.6835 3.0112 1.5529 0.332 -0.726 0.603 65 64 68 0 0
1.6006 2.9334 1.5613 0.565 -0.540 -0.624 56 55 59 0 0
1.5871 2.9174 1.5623 0.440 -0.616 -0.654 49 49 53 0 0
1.2153 2.4552 1.5893 -0.161 -0.978 0.135 30 30 32 0 0
1.1880 2.4579 1.5948 0.148 -0.950 0.276 26 26 26 0 0
1.1748 2.4549 1.5970 -0.002 -0.994 0.109 42 42 42 0 0
1.1615 2.4526 1.5994 -0.406 -0.904 0.132 32 32 32 0 0
1.1333 2.4648 1.6059 -0.333 -0.932 0.145 27 27 27 0 0
1.1190 2.4719 1.6093 0.008 -0.843 0.538 26 27 27 0 0
1.0350 2.4963 1.6277 -0.238 -0.894 0.379 21 22 24 0 0
1.0199 2.5101 1.6318 -0.343 -0.933 0.112 23 24 26 0 0
1.7137 3.0574 1.5665 0.330 -0.351 -0.876 66 64 69 0 0
1.7000 3.0313 1.5665 0.638 -0.661 -0.395 66 64 69 0 0
1.6312 2.9468 1.5715 0.802 -0.561 0.205 57 56 61 0 0
1.6044 2.9037 1.5724 0.742 -0.482 -0.465 46 45 50 0 0
1.0649 2.4943 1.6358 -0.680 -0.658 -0.325 48 47 51 0 0
1.0508 2.4990 1.6390 -0.393 -0.914 -0.096 22 22 25 0 0
1.0365 2.5048 1.6423 -0.393 -0.914 -0.096 16 17 19 0 0
1.0223 2.5106 1.6456 -0.393 -0.914 -0.096 20 21 23 0 0
0.7571 2.8518 1.7292 -0.438 -0.887 -0.143 61 64 66 0 0
1.7174 3.0162 1.5767 0.716 -0.336 -0.612 66 64 69 0 0
1.7036 2.9963 1.5773 0.815 -0.368 -0.448 65 63 68 0 0
1.6760 2.9628 1.5793 0.908 -0.391 -0.152 61 59 64 0 0
1.6623 2.9457 1.5802 0.889 -0.442 0.117 57 56 61 0 0
1.6356 2.8983 1.5807 0.888 -0.460 0.009 46 45 50 0 0
1.2055 2.4683 1.6205 0.460 -0.734 0.500 39 38 41 0 0
1.0827 2.4769 1.6448 -0.110 -0.774 -0.623 18 17 20 0 0
0.7249 2.9139 1.7710 0.679 -0.521 -0.517 81 78 79 0 0
1.7096 2.9707 1.6033 0.881 -0.443 0.169 49 48 53 0 0
1.6959 2.9517 1.6040 0.921 -0.356 -0.155 44 43 48 0 0
1.6690 2.9015 1.6040 0.881 -0.326 -0.344 39 38 44 0 0
1.6426 2.8458 1.6034 0.813 -0.225 -0.538 37 36 42 0 0
0.7335 2.8700 1.7797 -0.475 -0.725 -0.499 77 77 79 0 0
1.2200 2.5421 1.6675 0.874 -0.455 -0.170 56 54 57 0 0
0.7337 2.8869 1.7962 0.204 -0.849 -0.487 77 77 79 0 0
0.7217 2.8706 1.7968 0.087 -0.847 -0.525 87 88 90 0 0
1.1317 2.6334 1.7082 0.707 -0.705 -0.051 12 12 14 0 0
1.1190 2.6216 1.7093 0.095 -0.960 0.262 11 11 13 0 0
0.7201 2.8992 1.8149 0.803 -0.593 -0.058 85 86 87 0 0
1.1233 2.6029 1.7208 -0.502 -0.864 0.039 11 11 13 0 0
1.0970 2.5901 1.7245 -0.303 -0.660 -0.687 10 10 12 0 0
1.9191 3.2736 1.6555 0.681 0.013 -0.732 114 113 115 0 0
1.0775 2.4075 1.7227 0.654 -0.753 -0.074 11 11 13 0 0
1.9366 3.2919 1.6695 0.715 0.014 -0.699 131 131 132 0 0
1.1333 2.7208 1.7750 -0.670 -0.622 0.405 12 12 14 0 0
1.1225 2.6878 1.7734 0.299 -0.769 0.565 11 11 13 0 0
1.2173 2.5864 1.7581 -0.860 -0.420 0.291 28 28 30 0 0
1.1986 2.6427 1.7681 -0.787 -0.500 0.361 25 25 27 0 0
1.1655 2.7022 1.7812 -0.788 -0.486 0.377 19 19 21 0 0
1.1349 2.7306 1.7903 -0.713 -0.494 0.498 14 14 16 0 0
1.6874 2.9978 1.7296 -0.515 -0.213 0.830 42 41 46 0 0
1.1206 2.7599 1.8110 0.456 -0.451 0.767 12 12 14 0 0
1.0680 2.3794 1.8051 0.970 -0.242 -0.038 14 14 16 0 0
0.6840 2.8911 1.9396 0.500 -0.762 0.412 94 95 95 0 0
1.8086 3.0957 1.7629 0.023 -0.989 0.144 54 54 56 0 0
1.0805 2.4112 1.8204 0.898 -0.348 0.268 14 14 16 0 0
1.0711 2.3727 1.8176 0.923 -0.379 0.071 13 13 15 0 0
1.6898 3.5047 1.8824 -0.434 -0.606 0.667 38 38 43 0 0
1.0557 2.3329 1.8574 0.470 -0.865 -0.175 11 10 13 0 0
1.7231 3.4972 1.8909 0.956 -0.295 0.001 36 35 40 0 0
1.7075 3.5153 1.8962 0.842 -0.538 0.045 37 36 41 0 0
1.8937 3.2708 1.8446 0.801 -0.313 -0.511 58 57 63 0 0
1.8790 3.2533 1.8452 0.888 -0.322 -0.328 51 50 56 0 0
1.7101 3.5246 1.9127 0.811 -0.577 0.094 37 36 41 0 0
0.9044 2.6214 1.9516 -0.609 -0.368 -0.702 54 55 58 0 0
0.8903 2.6234 1.9546 -0.609 -0.374 -0.699 49 49 54 0 0
0.8734 2.6473 1.9609 -0.443 -0.260 -0.858 45 44 48 0 0
1.8964 3.2758 1.8602 -0.654 -0.490 0.576 56 56 61 0 0
1.8816 3.2918 1.8651 0.873 -0.459 -0.165 51 50 56 0 0
1.7580 3.5554 1.9234 0.921 -0.319 -0.224 35 34 39 0 0
1.7279 3.5353 1.9266 0.932 -0.360 -0.032 35 34 39 0 0
0.9102 2.5946 1.9614 -0.417 -0.219 -0.882 53 54 57 0 0
0.8964 2.5940 1.9640 -0.529 -0.304 -0.792 50 51 54 0 0
1.8988 3.3769 1.8885 0.269 -0.935 0.232 55 56 60 0 0
0.7458 2.6966 2.0210 -0.848 -0.493 0.195 62 63 65 0 0
1.8866 3.3845 1.9075 0.855 -0.478 -0.202 46 45 50 0 0
0.7503 2.6823 2.0327 -0.859 -0.488 0.153 61 62 65 0 0
1.9194 3.3724 1.9152 0.918 -0.333 -0.217 55 55 62 0 0
0.9019 2.4984 1.9930 -0.338 -0.528 -0.779 41 42 44 0 0
1.0677 2.3777 1.9586 0.037 -0.978 -0.205 9 9 11 0 0
1.0544 2.3763 1.9610 -0.228 -0.963 0.147 9 9 11 0 0
1.3876 2.4514 1.9210 -0.029 -0.645 0.763 43 43 44 0 0
1.0439 2.3708 1.9763 -0.448 -0.755 0.479 16 16 18 0 0
0.6168 2.9640 2.1414 0.569 -0.822 -0.040 152 154 151 0 0
1.0606 2.3630 1.9859 0.341 -0.885 0.319 12 12 14 0 0
1.0449 2.3839 1.9919 0.631 -0.705 -0.325 16 16 18 0 0
0.6546 2.9217 2.1432 0.718 -0.608 -0.337 73 75 72 0 0
1.1628 2.4443 1.9917 0.707 -0.544 0.452 42 40 46 0 0
1.1516 2.4198 1.9904 0.766 -0.523 0.373 41 39 45 0 0
1.0625 2.3681 2.0003 0.419 -0.837 0.351 31 31 33 0 0
0.6560 2.9294 2.1590 0.696 -0.616 -0.370 74 76 73 0 0
1.4231 2.4352 1.9541 -0.427 -0.900 -0.090 44 43 48 0 0
1.3816 2.4500 1.9643 -0.250 -0.958 -0.142 46 45 49 0 0
1.3011 2.4409 1.9786 0.034 -0.821 -0.570 44 43 48 0 0
1.1431 2.3938 2.0024 0.622 -0.590 0.514 45 44 49 0 0
1.1304 2.3853 2.0036 0.499 -0.659 0.563 45 44 49 0 0
1.1035 2.3851 2.0088 -0.227 -0.973 0.047 42 41 46 0 0
0.6600 2.9193 2.1718 0.688 -0.640 -0.340 76 78 75 0 0
1.4390 2.4377 1.9655 0.250 -0.946 0.205 42 41 46 0 0
1.3167 2.4458 1.9904 -0.126 -0.748 -0.652 43 42 47 0 0
1.1610 2.3725 2.0099 0.751 -0.499 0.433 44 43 48 0 0
0.6635 2.9125 2.1851 0.647 -0.655 -0.390 78 80 77 0 0
1.3200 2.4349 2.0023 -0.126 -0.748 -0.652 38 37 42 0 0
1.0568 2.3627 2.0426 0.015 -0.853 0.521 44 44 47 0 0
1.2219 2.5020 2.0454 0.849 -0.392 0.353 34 33 37 0 0
1.5390 2.5281 2.0163 0.294 -0.953 -0.076 42 41 46 0 0
1.2250 2.5228 2.0765 0.866 -0.375 -0.332 26 25 29 0 0
0.6906 2.8944 2.2370 -0.281 -0.867 0.412 78 78 80 0 0
1.5416 2.5278 2.0300 0.294 -0.953 -0.076 42 41 46 0 0
1.2528 2.5478 2.0892 0.711 -0.269 -0.650 27 27 29 0 0
0.6921 2.9014 2.2527 -0.281 -0.867 0.412 81 81 82 0 0
0.9854 2.5023 2.1484 -0.541 -0.769 -0.342 48 49 51 0 0
0.6931 2.9120 2.2692 0.094 -0.840 0.535 80 80 80 0 0
0.6738 2.9457 2.2782 0.747 -0.464 0.475 89 89 89 0 0
1.8731 2.9065 2.0688 0.902 -0.326 -0.283 61 62 66 0 0
1.3417 2.8314 2.1898 -0.491 -0.469 0.734 32 32 34 0 0
1.0306 2.4297 2.1849 -0.434 -0.551 0.713 18 18 20 0 0
1.7464 2.5846 2.0852 0.805 -0.417 0.422 58 57 62 0 0
0.6154 3.0322 2.3792 0.520 -0.742 0.423 136 136 134 0 0
0.6034 3.0484 2.4148 0.839 -0.417 0.350 137 137 135 0 0
0.8515 2.7352 2.3285 0.718 -0.454 -0.528 44 43 48 0 0
1.7221 2.5274 2.1662 0.308 -0.935 -0.175 67 66 71 0 0
1.7084 2.5301 2.1693 -0.224 -0.971 -0.086 61 60 65 0 0
1.6947 2.5330 2.1725 -0.224 -0.971 -0.086 58 57 62 0 0
1.3310 3.2595 2.3708 0.138 -0.917 0.375 32 33 37 0 0
1.3122 3.3147 2.3841 0.760 -0.631 0.155 30 31 35 0 0
1.2958 3.3347 2.3908 0.820 -0.565 0.088 28 29 32 0 0
0.8615 2.7151 2.3672 0.762 -0.644 -0.073 47 46 51 0 0
0.8453 2.7315 2.3732 0.637 -0.718 0.280 45 44 49 0 0
0.5841 3.0496 2.4800 0.852 -0.495 0.172 142 145 142 0 0
2.0466 3.2891 2.2517 -0.542 -0.635 0.551 55 54 56 0 0
2.0320 3.3126 2.2587 -0.467 -0.466 0.751 53 53 55 0 0
1.7257 2.4910 2.1734 0.451 -0.682 0.576 67 66 71 0 0
1.3328 3.2732 2.3884 -0.353 -0.915 0.198 32 33 37 0 0
1.3145 3.3212 2.4005 0.608 -0.787 0.103 30 31 35 0 0
0.8480 2.7299 2.3872 0.448 -0.820 0.357 44 43 48 0 0
2.0498 3.3214 2.2724 -0.398 -0.601 0.693 54 53 56 0 0
2.0352 3.3439 2.2793 -0.423 -0.479 0.769 51 51 53 0 0
1.3340 3.2960 2.4079 -0.229 -0.844 0.485 32 33 37 0 0
1.3170 3.3255 2.4165 0.598 -0.780 0.184 30 31 35 0 0
2.0859 3.5501 2.3222 -0.434 -0.771 0.467 59 58 63 0 0
1.3347 3.3256 2.4288 0.006 -0.845 0.534 32 33 37 0 0
0.5853 3.0125 2.5343 0.861 -0.178 -0.477 133 133 131 0 0
0.6121 3.0459 2.5504 0.886 -0.115 -0.449 81 80 81 0 0
0.5150 3.1011 2.5796 0.809 -0.407 -0.424 204 204 202 0 0
0.6282 2.9729 2.5643 0.697 -0.203 -0.688 78 76 78 0 0
0.6506 2.9372 2.5684 0.553 -0.143 -0.821 64 64 67 0 0
0.6236 2.9235 2.5711 0.656 -0.189 -0.731 97 97 95 0 0
0.6177 2.9000 2.5980 0.973 -0.099 -0.208 172 172 170 0 0
1.0840 2.3383 2.4125 -0.553 -0.809 0.202 21 21 23 0 0
1.9888 3.3118 2.4393 -0.228 -0.008 -0.974 34 35 39 0 0
1.0901 2.3260 2.4371 0.254 -0.966 0.052 21 21 23 0 0
1.0766 2.3261 2.4397 0.026 -0.999 0.027 19 19 21 0 0
1.3301 3.3982 2.6175 0.996 -0.087 -0.014 22 23 26 0 0
1.1155 2.3652 2.4540 0.096 -0.646 -0.757 14 14 16 0 0
1.1061 2.3248 2.4478 -0.387 -0.837 -0.386 18 18 20 0 0
1.1188 2.3559 2.4656 -0.004 -0.770 -0.639 12 12 14 0 0
1.1052 2.3575 2.4686 -0.033 -0.748 -0.663 17 17 19 0 0
1.1252 2.3409 2.4896 0.207 -0.811 -0.547 12 11 15 0 0
1.1283 2.3341 2.5017 0.178 -0.875 -0.451 13 13 15 0 0
1.1313 2.3283 2.5140 0.178 -0.875 -0.451 17 19 18 0 0
1.0926 2.3113 2.5181 -0.617 -0.723 -0.310 24 25 27 0 0
1.1340 2.3252 2.5269 0.197 -0.825 -0.529 32 34 34 0 0
1.1076 2.3202 2.5311 -0.241 -0.965 -0.102 30 31 33 0 0
1.0940 2.3211 2.5340 -0.057 -0.982 -0.178 29 30 32 0 0
1.7888 2.5768 2.4649 0.908 -0.401 0.120 49 48 53 0 0
1.1771 2.3223 2.5319 -0.695 -0.399 0.599 39 40 42 0 0
1.1488 2.3364 2.5405 0.475 -0.862 0.178 39 40 42 0 0
1.1371 2.3182 2.5390 -0.147 -0.978 0.148 39 40 42 0 0
0.6246 3.0397 2.7926 0.454 -0.529 -0.717 111 112 109 0 0
1.8583 2.7593 2.5045 0.638 -0.223 -0.738 60 60 62 0 0
1.8447 2.7217 2.4992 0.687 -0.281 -0.670 58 58 60 0 0
1.2612 2.3101 2.5268 -0.332 -0.506 0.796 43 42 47 0 0
0.9694 2.5051 2.6260 -0.136 -0.413 0.900 34 34 39 0 0
0.7339 2.8050 2.7364 -0.749 -0.270 -0.605 53 52 57 0 0
0.6293 3.0258 2.8041 0.416 -0.514 -0.750 116 117 114 0 0
1.8895 2.6940 2.4992 -0.396 -0.070 -0.916 45 45 47 0 0
1.7923 2.6697 2.5132 0.390 -0.164 -0.906 55 54 59 0 0
1.7778 2.6986 2.5222 -0.390 -0.224 -0.893 54 53 58 0 0
1.3531 2.3723 2.5361 0.697 -0.700 -0.156 42 43 47 0 0
1.3405 2.3598 2.5359 0.697 -0.700 -0.156 43 44 48 0 0
1.3286 2.3384 2.5337 0.417 -0.905 -0.081 44 44 49 0 0
1.3156 2.3323 2.5349 0.417 -0.905 -0.081 45 44 49 0 0
1.3035 2.3153 2.5337 0.542 -0.835 0.090 45 44 49 0 0
1.2908 2.3071 2.5344 0.542 -0.835 0.090 45 44 49 0 0
1.2776 2.3040 2.5364 0.725 -0.534 -0.436 46 45 50 0 0
0.9172 2.6136 2.6741 -0.007 -0.389 0.921 37 36 39 0 0
0.6501 3.0015 2.8102 -0.710 -0.703 0.040 96 98 96 0 0
0.6321 3.0239 2.8185 0.654 -0.640 -0.404 124 125 123 0 0
1.7952 2.6516 2.5233 -0.361 -0.505 -0.784 55 55 58 0 0
1.7812 2.6597 2.5279 -0.367 -0.334 -0.868 56 55 60 0 0
1.3043 2.3367 2.5522 -0.087 -0.898 0.432 48 47 52 0 0
1.2906 2.3396 2.5556 -0.087 -0.898 0.432 47 46 51 0 0
1.2683 2.2838 2.5479 -0.088 -0.987 -0.133 47 47 52 0 0
1.0341 2.4637 2.6332 -0.080 -0.433 0.898 16 18 19 0 0
0.6326 3.0381 2.8369 -0.611 -0.491 0.621 145 145 143 0 0
1.7982 2.6337 2.5335 -0.361 -0.505 -0.784 33 33 35 0 0
1.7577 2.5842 2.5307 0.171 -0.876 -0.450 43 42 47 0 0
1.6242 2.4660 2.5313 0.436 -0.453 0.778 52 51 55 0 0
1.5049 2.4034 2.5412 0.691 -0.553 -0.466 48 47 51 0 0
1.3603 2.3405 2.5561 -0.063 -0.952 0.298 49 48 53 0 0
1.3339 2.3339 2.5599 -0.466 -0.814 0.347 50 49 54 0 0
1.3059 2.3474 2.5684 -0.104 -0.936 0.337 49 48 53 0 0
1.2787 2.3501 2.5744 -0.038 -0.944 0.327 48 49 53 0 0
0.8098 2.7220 2.7483 -0.543 -0.806 -0.238 45 44 49 0 0
0.7913 2.7535 2.7588 -0.164 -0.785 -0.597 46 45 50 0 0
1.8149 2.6174 2.5412 -0.358 -0.657 -0.663 60 58 61 0 0
1.8009 2.6234 2.5453 -0.291 -0.906 -0.309 53 53 53 0 0
1.7877 2.5919 2.5410 0.522 -0.842 -0.137 46 46 48 0 0
1.7472 2.5538 2.5406 0.211 -0.947 0.241 36 35 40 0 0
1.6923 2.5512 2.5509 0.380 -0.515 -0.768 34 33 38 0 0
1.3624 2.3450 2.5708 -0.063 -0.952 0.298 45 44 49 0 0
1.3488 2.3469 2.5739 -0.063 -0.952 0.298 47 46 51 0 0
1.2807 2.3559 2.5894 -0.004 -0.978 0.206 42 43 47 0 0
0.9186 2.6635 2.7287 -0.205 -0.859 0.469 44 43 47 0 0
0.8098 2.7409 2.7673 -0.298 -0.494 -0.817 45 44 49 0 0
1.8176 2.6125 2.5542 -0.539 -0.734 -0.413 64 60 64 0 0
1.8036 2.6228 2.5592 -0.584 -0.810 0.040 63 63 63 0 0
1.7898 2.6175 2.5607 -0.529 -0.788 -0.314 61 61 62 0 0
1.7766 2.5843 2.5560 0.430 -0.888 0.166 58 57 60 0 0
1.7495 2.5633 2.5567 0.327 -0.913 0.245 51 51 53 0 0
1.7222 2.5568 2.5607 0.390 -0.670 -0.632 40 40 42 0 0
1.7090 2.5359 2.5587 0.495 -0.803 -0.332 37 36 40 0 0
1.6819 2.5264 2.5619 0.611 -0.630 -0.479 28 26 31 0 0
1.6136 2.5176 2.5735 -0.289 -0.372 0.882 26 26 30 0 0
1.3641 2.3557 2.5870 0.117 -0.924 0.365 25 24 28 0 0
1.3510 2.3513 2.5887 -0.063 -0.952 0.298 26 26 30 0 0
1.3100 2.3576 2.5982 -0.004 -0.978 0.206 26 26 30 0 0
1.2963 2.3607 2.6016 -0.074 -0.988 0.139 23 22 27 0 0
0.9362 2.6555 2.7383 -0.057 -0.851 0.523 38 38 40 0 0
1.8059 2.6408 2.5774 -0.529 -0.678 0.510 63 61 64 0 0
1.7925 2.6104 2.5732 -0.598 -0.610 -0.520 62 60 63 0 0
1.7793 2.5808 2.5692 0.220 -0.966 -0.134 59 57 61 0 0
1.7522 2.5602 2.5700 0.254 -0.948 0.190 52 52 54 0 0
1.7252 2.5409 2.5710 0.352 -0.649 -0.675 45 45 47 0 0
1.7118 2.5294 2.5711 0.384 -0.706 -0.595 51 49 53 0 0
1.3662 2.3620 2.6022 0.117 -0.924 0.365 18 18 20 0 0
1.3531 2.3558 2.6034 -0.063 -0.952 0.298 16 16 18 0 0
1.3395 2.3577 2.6065 -0.063 -0.952 0.298 15 15 17 0 0
1.3258 2.3596 2.6097 -0.063 -0.952 0.298 47 47 49 0 0
1.3122 2.3606 2.6126 -0.004 -0.978 0.206 18 18 20 0 0
1.2986 2.3625 2.6157 -0.074 -0.988 0.139 11 11 13 0 0
1.0278 2.6115 2.7250 0.309 -0.151 -0.939 30 31 33 0 0
1.0022 2.5904 2.7254 -0.696 -0.380 -0.609 29 30 34 0 0
0.9854 2.6155 2.7343 -0.797 -0.373 -0.475 30 31 35 0 0
2.3547 3.7554 2.7341 0.937 -0.153 -0.315 205 205 205 0 0
1.7946 2.6392 2.5939 0.206 -0.678 0.705 45 42 48 0 0
1.7412 2.5514 2.5847 0.493 -0.739 -0.459 44 43 47 0 0
1.7146 2.5182 2.5825 0.304 -0.571 -0.763 58 56 61 0 0
1.3550 2.3631 2.6189 -0.020 -0.949 0.314 12 12 14 0 0
1.3416 2.3622 2.6213 -0.063 -0.952 0.298 12 12 14 0 0
1.3280 2.3641 2.6245 -0.063 -0.952 0.298 14 14 16 0 0
1.3143 2.3660 2.6276 -0.063 -0.952 0.298 45 45 47 0 0
1.3009 2.3643 2.6299 -0.004 -0.978 0.206 31 31 33 0 0
1.8107 2.6663 2.6115 -0.291 -0.520 0.803 26 24 30 0 0
1.7186 2.4665 2.5844 0.173 -0.646 -0.744 39 37 42 0 0
1.3859 2.3433 2.6225 -0.053 -0.867 0.496 14 14 16 0 0
1.3710 2.3635 2.6300 -0.055 -0.963 0.262 13 13 15 0 0
1.3574 2.3651 2.6331 -0.055 -0.963 0.262 14 14 16 0 0
1.2891 2.3732 2.6484 -0.053 -0.960 0.274 31 31 33 0 0
1.2605 2.3921 2.6584 0.171 -0.971 0.169 23 23 25 0 0
1.7989 2.6967 2.6355 -0.152 -0.548 0.823 21 18 24 0 0
1.7855 2.6675 2.6314 0.087 -0.583 0.808 26 23 30 0 0
1.7478 2.4924 2.5989 0.467 -0.880 -0.087 28 27 34 0 0
1.6237 2.5196 2.6297 -0.911 -0.406 -0.079 32 32 34 0 0
1.2774 2.3809 2.6668 -0.207 -0.889 -0.409 19 19 21 0 0
1.2630 2.3907 2.6719 -0.078 -0.996 -0.053 20 20 22 0 0
1.0849 2.5366 2.7406 -0.783 -0.577 -0.232 25 26 28 0 0
1.0710 2.5374 2.7435 -0.761 -0.608 -0.225 26 27 29 0 0
1.6278 2.4806 2.6344 -0.513 -0.322 -0.796 30 30 33 0 0
1.2254 2.3834 2.6919 0.082 -0.899 -0.430 21 21 23 0 0
1.2123 2.3784 2.6934 0.210 -0.977 -0.017 20 20 22 0 0
1.1980 2.3856 2.6979 -0.106 -0.985 0.135 21 21 23 0 0
1.0732 2.5395 2.7581 -0.852 -0.486 -0.192 31 32 34 0 0
1.0630 2.5288 2.7722 -0.776 -0.552 -0.306 32 33 35 0 0
1.7115 2.6017 2.6749 -0.415 -0.752 0.513 39 39 41 0 0
1.0993 2.4689 2.7655 0.000 -0.425 -0.905 37 38 40 0 0
1.0720 2.4673 2.7706 -0.553 -0.827 0.103 40 41 43 0 0
1.0444 2.4675 2.7761 -0.518 -0.685 -0.513 45 44 49 0 0
1.0276 2.4950 2.7859 0.036 -0.974 0.223 50 49 54 0 0
1.0160 2.4761 2.7838 -0.161 -0.815 0.557 52 51 56 0 0
1.8790 2.7408 2.6889 0.765 -0.558 0.322 55 54 58 0 0
1.8652 2.7206 2.6869 0.765 -0.558 0.322 54 53 58 0 0
1.8513 2.7089 2.6870 0.764 -0.544 0.347 53 52 57 0 0
1.8374 2.6954 2.6865 0.944 -0.296 -0.144 52 51 56 0 0
1.4349 2.4033 2.6977 0.451 -0.347 -0.822 33 34 38 0 0
1.3008 2.3805 2.7191 -0.318 -0.899 0.302 39 38 43 0 0
1.2560 2.4305 2.7398 -0.710 -0.678 -0.190 39 39 44 0 0
1.2411 2.4448 2.7461 -0.706 -0.708 0.033 40 41 45 0 0
1.2292 2.4242 2.7436 -0.671 -0.742 -0.002 41 42 46 0 0
1.0435 2.4983 2.7980 0.036 -0.974 0.223 49 50 54 0 0
1.0297 2.4985 2.8008 0.036 -0.974 0.223 50 51 55 0 0
1.0026 2.4939 2.8051 -0.344 -0.938 0.042 53 54 59 0 0
1.8822 2.6689 2.6861 -0.000 -0.527 -0.850 56 54 58 0 0
1.8536 2.7383 2.7082 0.975 -0.222 0.006 54 53 58 0 0
1.7332 2.4940 2.6742 0.677 -0.721 0.146 46 46 47 0 0
1.5552 2.4950 2.7099 0.961 -0.276 0.001 42 43 47 0 0
1.4907 2.4220 2.7054 -0.570 -0.752 -0.332 40 41 45 0 0
1.4631 2.4289 2.7125 0.275 -0.924 -0.266 40 40 45 0 0
1.3029 2.3854 2.7341 -0.290 -0.897 0.335 43 42 47 0 0
1.2881 2.4009 2.7407 -0.191 -0.970 0.151 42 41 46 0 0
1.2744 2.4021 2.7437 -0.117 -0.988 0.103 43 42 47 0 0
1.2459 2.4177 2.7531 -0.179 -0.914 -0.365 42 43 47 0 0
1.0181 2.5009 2.8181 0.354 -0.883 0.309 51 52 56 0 0
1.8293 2.6521 2.7073 0.953 -0.225 -0.204 53 52 57 0 0
1.4803 2.4089 2.7186 0.365 -0.719 -0.591 45 44 49 0 0
1.4147 2.3725 2.7230 0.162 -0.785 -0.598 44 43 48 0 0
1.3050 2.3912 2.7493 -0.158 -0.841 0.517 44 43 48 0 0
1.2905 2.4021 2.7548 0.155 -0.908 0.389 47 46 51 0 0
1.6576 2.4543 2.7086 0.036 -0.937 -0.346 54 53 58 0 0
1.4281 2.4143 2.7447 0.176 -0.874 0.453 45 44 49 0 0
1.3827 2.4825 2.7701 0.090 -0.954 -0.286 44 45 49 0 0
1.3566 2.4640 2.7709 0.104 -0.975 -0.198 43 43 48 0 0
1.2921 2.4131 2.7715 0.559 -0.812 -0.170 47 46 50 0 0
1.2368 2.4222 2.7847 -0.574 -0.789 0.218 42 43 47 0 0
1.9042 2.6398 2.7188 0.134 -0.898 0.419 39 39 41 0 0
1.8903 2.6400 2.7216 -0.204 -0.890 0.408 31 30 34 0 0
1.8628 2.6084 2.7194 0.640 -0.767 0.051 34 33 38 0 0
1.3865 2.4630 2.7791 -0.141 -0.990 0.019 41 42 46 0 0
1.3328 2.4488 2.7864 -0.487 -0.871 0.066 41 42 46 0 0
1.1294 2.4275 2.8217 0.458 -0.866 -0.202 29 30 32 0 0
1.3891 2.4616 2.7927 -0.155 -0.981 -0.112 32 33 35 0 0
1.3352 2.4504 2.8007 -0.411 -0.911 0.034 28 31 32 0 0
1.2605 2.5573 2.8563 -0.597 -0.532 0.601 23 24 26 0 0
1.3666 2.4639 2.8266 0.599 -0.792 -0.119 25 26 27 0 0
1.2619 2.5708 2.8740 -0.811 -0.578 0.090 27 28 29 0 0
2.3104 3.5335 2.9194 0.490 -0.354 -0.796 64 64 66 0 0
1.2474 2.6093 2.9011 -0.277 -0.834 0.477 43 43 44 0 0
0.5119 3.1743 3.1889 0.957 -0.193 -0.217 145 145 145 0 0
0.5664 3.2280 3.2073 -0.795 -0.420 -0.437 62 62 66 0 0
1.4869 2.4064 2.8314 0.139 -0.925 -0.355 58 58 61 0 0
1.3360 2.4235 2.8658 0.543 -0.836 0.074 62 62 64 0 0
1.1783 2.5036 2.9176 0.167 -0.923 0.348 55 54 58 0 0
1.4043 2.4592 2.8756 -0.049 -0.971 -0.235 71 68 74 0 0
1.3916 2.4450 2.8746 -0.226 -0.944 0.241 68 65 70 0 0
1.4070 2.4577 2.8892 -0.042 -0.987 -0.153 78 74 76 0 0
1.3796 2.4574 2.8946 -0.243 -0.936 0.256 80 77 79 0 0
0.6012 3.1496 3.2278 -0.607 -0.352 -0.713 54 54 56 0 0
1.5210 2.4192 2.8709 0.371 -0.730 -0.574 80 78 79 0 0
1.4942 2.4112 2.8742 0.048 -0.478 -0.877 78 76 77 0 0
1.4242 2.4416 2.8961 -0.029 -0.917 -0.398 79 77 76 0 0
1.3298 2.4235 2.9103 -0.111 -0.717 -0.688 72 70 71 0 0
0.6068 3.1293 3.2372 -0.577 -0.378 -0.724 54 54 56 0 0
1.4150 2.4099 2.9041 0.298 -0.863 -0.408 88 88 86 0 0
1.4014 2.4100 2.9068 0.164 -0.914 -0.372 95 95 94 0 0
1.3474 2.4031 2.9159 0.131 -0.511 -0.849 84 82 84 0 0
1.2774 2.4262 2.9359 -0.354 -0.081 -0.932 70 69 71 0 0
1.2620 2.4468 2.9443 -0.740 -0.197 -0.643 70 70 72 0 0
0.6149 3.0925 3.2417 -0.911 -0.412 -0.013 55 55 57 0 0
0.4597 3.2204 3.3061 -0.784 -0.556 -0.276 203 203 203 0 0
1.5007 2.3837 2.8944 -0.293 -0.274 -0.916 81 79 78 0 0
1.4581 2.4154 2.9113 0.470 -0.876 -0.111 81 81 80 0 0
1.4180 2.4034 2.9162 0.160 -0.780 -0.606 87 85 86 0 0
1.4043 2.4047 2.9192 -0.220 -0.677 -0.702 93 93 90 0 0
1.3910 2.3990 2.9204 -0.546 -0.589 -0.595 97 97 94 0 0
1.3497 2.4053 2.9303 -0.503 -0.851 -0.151 80 78 81 0 0
0.4641 3.2094 3.3182 -0.767 -0.573 -0.290 203 203 203 0 0
2.2213 3.3468 3.0180 0.027 -0.046 -0.999 36 37 42 0 0
2.1629 3.4206 3.0492 -0.842 -0.181 -0.508 40 39 44 0 0
1.4609 2.4094 2.9235 0.127 -0.992 -0.013 75 75 76 0 0
1.4474 2.4078 2.9258 0.300 -0.947 -0.112 77 77 79 0 0
1.4343 2.3990 2.9261 0.160 -0.780 -0.606 83 81 86 0 0
1.4210 2.3942 2.9275 -0.065 -0.860 -0.506 89 87 90 0 0
1.4074 2.3953 2.9305 -0.287 -0.743 -0.605 89 89 88 0 0
1.3940 2.3909 2.9320 -0.640 -0.573 -0.513 88 89 86 0 0
0.4687 3.1973 3.3300 -0.767 -0.573 -0.290 202 202 202 0 0
2.2087 3.3304 3.0321 -0.613 -0.096 -0.784 36 37 42 0 0
2.1793 3.3530 3.0441 -0.809 -0.123 -0.574 37 36 42 0 0
1.4743 2.4577 2.9480 0.746 -0.665 -0.031 68 68 71 0 0
1.4634 2.4095 2.9374 0.127 -0.992 -0.013 70 70 74 0 0
1.4504 2.4003 2.9376 -0.122 -0.992 -0.018 73 73 77 0 0
1.4242 2.3836 2.9384 -0.044 -0.806 -0.590 80 79 83 0 0
1.5497 2.4185 2.9513 -0.904 -0.260 -0.339 42 42 47 0 0
1.5016 2.3010 2.9294 0.388 -0.922 0.011 45 46 52 0 0
1.4874 2.3142 2.9358 -0.042 -0.993 0.110 45 47 54 0 0
1.4435 2.3721 2.9602 -0.191 -0.977 0.095 44 45 50 0 0
1.5040 2.3014 2.9432 -0.006 -0.998 0.067 38 41 45 0 0
1.4469 2.3567 2.9696 -0.110 -0.815 0.569 34 37 42 0 0
1.3734 2.4395 3.0068 -0.783 -0.616 -0.086 34 35 40 0 0
2.1983 2.8983 3.0108 0.267 -0.305 -0.914 49 49 50 0 0
2.1058 2.7272 3.0419 -0.054 -0.905 0.422 52 52 55 0 0
1.5039 2.3765 3.0641 -0.793 -0.603 0.085 16 16 18 0 0
2.1073 2.6630 3.0383 0.882 -0.288 -0.373 52 52 55 0 0
0.5660 3.1622 3.4911 -0.671 -0.487 -0.559 111 110 108 0 0
0.5520 3.1550 3.4919 0.408 -0.421 -0.810 171 170 168 0 0
0.6492 3.0232 3.4504 -0.905 -0.424 0.035 85 85 86 0 0
2.1980 2.7193 3.0658 0.355 -0.771 -0.529 66 66 68 0 0
2.1840 2.7194 3.0687 0.499 -0.664 -0.557 64 64 66 0 0
1.1888 2.3580 3.1799 -0.211 -0.961 -0.180 40 41 46 0 0
0.7279 2.8170 3.4060 -0.782 -0.520 0.344 81 81 85 0 0
0.7085 2.8515 3.4199 -0.798 -0.547 0.251 79 78 83 0 0
0.6229 3.0354 3.4905 -0.907 -0.419 0.045 69 69 68 0 0
0.5577 3.1689 3.5423 -0.692 -0.719 0.056 163 162 160 0 0
2.2366 2.8703 3.1319 0.367 -0.630 -0.684 72 72 74 0 0
2.1740 2.6702 3.0862 0.777 -0.453 -0.437 69 69 71 0 0
1.4004 2.2820 3.1294 -0.298 -0.950 0.092 35 34 39 0 0
1.2168 2.3761 3.1939 -0.059 -0.926 0.372 40 41 45 0 0
1.1300 2.4261 3.2260 -0.210 -0.946 -0.247 42 43 48 0 0
1.1052 2.3989 3.2231 -0.592 -0.609 0.528 42 45 50 0 0
1.0903 2.4103 3.2294 -0.408 -0.738 0.537 43 46 51 0 0
0.7501 2.7799 3.4059 -0.718 -0.548 0.429 76 77 79 0 0
0.7292 2.8256 3.4235 -0.719 -0.619 0.315 75 74 79 0 0
0.7109 2.8524 3.4350 -0.859 -0.501 0.108 68 67 72 0 0
2.2393 2.8671 3.1456 -0.291 -0.626 -0.723 72 72 74 0 0
2.2242 2.8428 3.1415 0.136 -0.841 -0.523 71 71 73 0 0
2.1912 2.6886 3.1030 0.821 -0.569 0.051 68 68 70 0 0
2.1766 2.6672 3.0997 0.821 -0.569 0.051 70 70 72 0 0
1.4360 2.3986 3.1707 -0.130 -0.771 0.624 37 36 41 0 0
1.4232 2.3849 3.1692 0.526 -0.646 0.553 37 36 41 0 0
1.2317 2.3907 3.2096 0.034 -0.974 0.226 41 42 46 0 0
1.2176 2.3958 3.2140 0.168 -0.952 0.257 43 44 48 0 0
1.1905 2.3921 3.2184 0.025 -0.948 0.317 44 43 48 0 0
1.0918 2.4205 3.2466 -0.540 -0.736 0.408 44 47 52 0 0
0.9446 2.5002 3.2998 -0.758 -0.495 0.425 62 61 67 0 0
0.7718 2.7449 3.4065 -0.779 -0.567 0.267 69 70 72 0 0
0.7530 2.7773 3.4198 -0.736 -0.617 0.277 68 69 71 0 0
0.7345 2.8060 3.4319 -0.844 -0.528 0.094 63 62 65 0 0
0.7131 2.8552 3.4507 -0.898 -0.386 -0.212 58 58 61 0 0
0.6277 3.0376 3.5214 -0.895 -0.406 0.186 82 82 81 0 0
2.2271 2.8468 3.1573 0.240 -0.961 -0.140 70 70 72 0 0
2.1797 2.6807 3.1179 0.815 -0.554 0.173 67 67 69 0 0
2.1221 2.6039 3.1069 0.749 -0.642 -0.164 61 60 64 0 0
1.7379 2.4100 3.1274 0.807 -0.509 0.298 46 45 50 0 0
1.3656 2.2720 3.1620 0.652 -0.420 0.631 41 40 45 0 0
1.0957 2.4062 3.2562 -0.609 -0.773 0.177 45 48 53 0 0
1.0778 2.4463 3.2716 -0.588 -0.619 -0.520 45 48 53 0 0
0.7556 2.7762 3.4341 -0.818 -0.545 0.182 58 59 61 0 0
0.7364 2.8110 3.4483 -0.877 -0.480 0.035 54 54 56 0 0
0.7148 2.8609 3.4673 -0.838 -0.362 -0.409 53 53 55 0 0
0.6961 2.8897 3.4796 -0.898 -0.420 -0.132 54 54 56 0 0
0.6044 3.1116 3.5637 -0.885 -0.421 0.198 98 98 97 0 0
2.2444 2.8560 3.1717 0.094 -0.978 -0.184 62 62 64 0 0
2.2154 2.8388 3.1725 0.305 -0.833 -0.462 64 63 64 0 0
2.1972 2.7093 3.1377 0.640 -0.608 0.469 65 64 65 0 0
2.1828 2.6933 3.1359 0.628 -0.626 0.462 66 65 67 0 0
2.1251 2.6164 3.1247 0.620 -0.770 0.148 61 61 64 0 0
1.6465 2.3713 3.1489 0.917 -0.365 -0.162 45 45 49 0 0
1.4349 2.2788 3.1642 -0.216 -0.466 -0.858 41 40 45 0 0
0.7579 2.7779 3.4494 -0.902 -0.423 -0.081 53 52 55 0 0
0.6325 3.0405 3.5527 -0.882 -0.434 0.183 87 87 87 0 0
2.2178 2.8287 3.1841 0.443 -0.896 0.010 52 52 52 0 0
2.2030 2.8097 3.1814 0.715 -0.591 -0.375 51 52 51 0 0
2.1853 2.6871 3.1484 0.690 -0.717 0.099 61 61 61 0 0
2.1138 2.6116 3.1404 0.668 -0.644 0.371 61 62 65 0 0
1.9748 2.5996 3.1649 0.974 -0.192 0.116 52 52 56 0 0
1.4370 2.2839 3.1796 -0.159 -0.913 -0.377 42 41 46 0 0
1.4228 2.2959 3.1860 0.632 -0.711 -0.309 43 42 47 0 0
1.3942 2.3193 3.1988 -0.413 -0.767 0.491 42 43 47 0 0
1.3801 2.3286 3.2045 -0.411 -0.743 0.529 42 43 47 0 0
1.3550 2.3002 3.2010 0.710 -0.610 0.352 42 43 47 0 0
