ply
format ascii 1.0
element vertex 739
property float x
property float y
property float z
property uchar diffuse_red
property uchar diffuse_green
property uchar diffuse_blue
end_header
0.7301344009935886 4.100006896610953 1.377852983081974 23 23 25
0.7311277524775353 4.114854821514874 1.3739045520691766 28 28 30
0.9298941412486257 4.1086098408055065 1.3726900259565735 46 45 50
0.9807779277217412 4.091335652838493 1.3765324715013154 50 49 53
1.0332551430047643 4.073231362138864 1.3805718591488911 57 57 60
0.8612110501774879 2.9398551770371593 1.6984045428057697 73 70 71
0.7320301669797586 4.102245017674489 1.390918995299549 17 17 18
0.9340069821707795 4.1095108698080605 1.386350505213931 42 41 46
0.473812421226141 3.685571133552242 1.5188752987911305 21 20 25
0.7332735712341831 4.104921388254661 1.4038821341594687 19 19 18
0.7388758637719903 4.116694500824479 1.4006733626064463 13 13 14
0.7558499399233611 4.120900919471356 1.399352236056266 41 41 43
0.9433256374972383 4.107040752258189 1.4008658634001585 40 39 44
1.0086399737945626 4.080518214603622 1.4071854352572735 45 44 49
0.4677310691499921 3.69376055873844 1.53050860109006 39 38 43
0.7049482053828566 4.0963876694757495 1.420157609762696 52 50 53
0.7387046990164494 4.089245372962667 1.421724870717597 53 53 52
0.7349732958021686 4.107293601108443 1.4169259329547597 32 32 32
0.7386973783663178 4.120320410375538 1.4133961954576342 20 20 22
0.769686676523454 4.11522425260418 1.4144434962332242 19 19 22
0.7465797417502753 4.161459841395756 1.4022889481600003 48 48 50
0.932867289048668 4.117391832061515 1.4121850195567502 39 38 43
0.9835648850976002 4.100309989367 1.4162421267278527 43 42 47
1.0185144839014804 4.093554014929021 1.4176935801074104 50 50 52
0.44827681190018986 3.7283513950692866 1.5351300477185092 49 49 52
0.7052276391211927 4.0997027061351385 1.432935621271252 26 24 27
0.7370079188005423 4.093899249515004 1.434214340535375 35 35 36
0.7378212466506415 4.108900074322886 1.4301712547940282 32 32 34
0.7450922515980638 4.119569096582856 1.4272361712083632 21 20 24
0.7522817805036701 4.161199518315302 1.415971895266348 22 21 26
0.7770989735248564 4.160307946574103 1.415991040982282 27 26 30
0.9212034308955062 4.128511935755224 1.4232638360238694 34 33 38
0.9665757394141614 4.114859809459543 1.4265332893838698 42 41 46
0.9984751811853498 4.110038722242957 1.4275466501839131 52 52 55
1.079253089618076 4.074024470187213 1.436517556701724 65 65 67
0.6794868845800575 4.042770229712265 1.4621794924882279 12 12 14
0.680165323281186 4.057928484300081 1.458080702862771 11 11 13
0.6945979915196545 4.079292707609352 1.4522026484691377 12 10 14
0.6787307644098153 4.105545935495283 1.4452317209705434 14 12 15
0.7041884220911421 4.1039042737266 1.445483956321291 13 11 14
0.7286308355620055 4.1030266615397135 1.4455374712477251 15 15 16
0.740386722400161 4.110697819108746 1.4433775141048235 16 16 18
0.76253589893776 4.111473524395817 1.443001743775721 18 17 21
0.7587654065717959 4.160430347356839 1.4298085825459503 27 26 30
0.7797304202329713 4.162089090196975 1.4292032255666456 33 31 35
0.9103573330179717 4.139090591616468 1.4344336336660743 33 31 36
0.811202019853468 3.0914510508721786 1.7329663694063184 31 30 35
0.6285277444613344 4.0655896750387575 1.4700088875648096 19 19 21
0.6461243507852494 4.084627621377901 1.4647402740073243 18 18 20
0.6499838174069139 4.097507949168302 1.4612249762737584 43 42 45
0.6604354742680894 4.105910772928634 1.4588831236007354 30 28 31
0.687821043734034 4.10291091554177 1.4595287441537823 13 11 14
0.7056579939455991 4.106418994445701 1.4584685909573318 13 11 14
0.7266901658650005 4.107835989352539 1.4579557468865865 13 13 15
0.7408256450264943 4.113916579979396 1.456220874432956 14 14 16
0.7605515728809085 4.1163111212644 1.455451025308673 22 21 25
0.8067463013072875 4.132371639126248 1.450814531342342 49 47 51
0.7911616743817473 4.15810473800371 1.443934023403918 59 57 60
0.8103526443055851 4.1610164643426595 1.4430272465293361 55 54 59
0.8659895424708182 4.15580854139965 1.4440985454447943 30 29 34
0.5095236971638248 3.7252085663021886 1.5768080773318536 29 28 31
0.498715022205503 3.749559857748192 1.5702330238236066 31 31 34
0.6738183074530788 4.1003521525685995 1.4739507493041313 24 22 25
0.7022328024417235 4.0967005513352435 1.4748099227924298 23 21 24
0.7071284602288155 4.108934339322739 1.471457834719202 23 21 24
0.7327840670646864 4.107268438794306 1.4717897368050343 26 25 27
0.7424882368349799 4.116319801283329 1.4692808605294652 30 30 32
0.7606004278927163 4.119795768338944 1.468249311121155 36 35 39
0.7663687332716251 4.131490916358498 1.4650396622987456 54 52 58
0.7883594076950302 4.1324772783132495 1.4646672031152077 54 51 58
0.8052845471886878 4.152369245639574 1.459174332635679 57 55 60
0.8172651087373941 4.16002461151313 1.457034547291666 42 41 46
0.9830697696659301 4.114994109660036 1.468503144287049 75 73 76
1.013976247656678 4.110882795689066 1.4694756174232992 85 83 85
1.096472457491928 4.07391791604748 1.4791437089722117 96 94 95
0.5169671182535582 3.7394388156521985 1.5867006542512205 38 37 42
0.48519869125518134 3.7793749154695013 1.5758990492605676 31 31 37
0.4895686733393112 3.792230513183618 1.5723731634422844 31 31 36
0.7203356326326018 4.088020748499352 1.4908118144089473 43 41 44
0.7696482380808454 4.117307456050166 1.4826477988066176 43 43 47
0.7646599990921676 4.136136062303068 1.4775217833545902 46 44 50
0.7798211281915899 4.141626249089974 1.4759715456668097 49 46 53
0.8272800844220476 4.157016547404684 1.4716092812359922 44 43 48
0.9899734870310422 4.114145952812284 1.4827746340231183 78 76 79
1.001950814400692 4.122188088066233 1.4805380229268372 81 79 81
1.0428815218308922 4.111766861132094 1.483247538392739 75 73 74
0.4996932553497764 3.7720996999537135 1.5915861327302565 42 43 45
0.680725030059804 4.102679867601059 1.500601929880852 46 44 49
0.747164044423541 4.120231655389842 1.4956601570413859 42 40 44
0.7499780335555817 4.133873549886646 1.4919146563481596 44 42 45
0.785901619085617 4.141139124167924 1.489852547361276 50 50 53
0.8093987334486106 4.141211307229266 1.4897868335445448 51 50 53
0.8393804064838775 4.137116546384406 1.490850836565437 52 52 54
0.8753310576415492 4.129235477258833 1.4929412107491309 54 54 56
0.9904792046551303 4.101667296249271 1.5002741263320993 65 64 67
0.995620824859047 4.114111746085959 1.4968523624281007 60 58 61
1.0022262281866487 4.125606740134806 1.4936880361581695 52 50 52
1.0890189842841154 4.0859509348757985 1.5043902605809332 66 64 66
0.5112505651039299 3.7508284374714496 1.6111873576275586 29 29 31
0.7798672587102793 4.070730505135121 1.523005141428713 41 39 44
0.7675874319550988 4.094577175820805 1.5164499607461779 35 33 37
0.7553806466498612 4.118281537348378 1.509933899381233 31 29 32
0.8718130572224676 4.1350783661214 1.5052459968678988 41 41 43
0.9615453822701423 4.1081911218687015 1.5125941375601755 40 40 42
1.0734835326403331 4.09948677314879 1.5149261758423447 61 59 63
1.1541208069047908 4.06410372218201 1.5246173255023925 72 71 72
0.49118128870793765 3.688067254520025 1.6423037620871435 32 32 34
0.5169499768000829 3.750123415564031 1.625184874033677 18 16 19
0.5185142774639082 3.797479995395107 1.6121060883440956 37 37 39
0.7779400394433671 4.075560577303642 1.5355132750914164 37 35 40
0.7659681493285262 4.099186029593886 1.5289779476857683 30 28 31
0.7548163038022986 4.122174343332146 1.5226192774510605 20 18 21
0.7915656741864061 4.144454609845613 1.5164957153906709 45 45 47
0.8260271870556546 4.137371826072358 1.5184804567900243 48 48 50
0.8584154902649563 4.1317663762058485 1.5200554412021277 46 46 48
1.04503109450959 4.1054412431445755 1.527480600515015 51 49 53
1.1016028813670986 4.085207705503206 1.5331158849482185 57 55 58
1.1478832371853867 4.071725250568637 1.536877997669418 69 69 70
0.534566522017266 3.7405261799105736 1.6416971879555469 19 18 20
0.528927233282616 3.760972205300941 1.6360164599885696 20 20 22
0.7775362599976381 4.0793696692870745 1.5482984947466412 30 29 32
0.7655343356265467 4.103002987318746 1.5417200550926997 25 23 26
0.7533178083322529 4.1266864236698435 1.535127245549365 14 13 17
0.7573648393830201 4.139516974500659 1.5315792158372927 35 33 38
0.783520206756469 4.137755395899507 1.5321255467147403 51 50 54
0.8282757761323325 4.139435395000509 1.5317589980113457 55 55 57
0.9131134863110415 4.115333540748251 1.5386287616330314 58 57 61
1.0326554667060834 4.116959885834592 1.5384428428974233 50 49 51
1.0782656052486588 4.1036971826844395 1.5422207371571557 58 57 58
1.0904181318082597 4.111817396375815 1.53999651393246 69 68 69
0.49648041590206593 3.7725088285329966 1.646513376190131 29 29 31
0.5048581686457838 3.7824273983579157 1.6437837179189003 22 22 24
0.5037141582928131 3.7994056877135765 1.639055309596738 20 20 22
0.5062718290538704 3.8136056477106384 1.6351133383340979 20 20 22
0.7695843080698239 4.088220798917545 1.559650504922523 42 42 44
0.7541226024111143 4.1296685825698205 1.5480616999563028 17 16 21
0.7641193926364267 4.1385651790809606 1.5456222513494366 20 19 24
0.7858473949364186 4.1397448043262495 1.5453724072575528 50 49 53
0.8059238831123523 4.142073763662561 1.5447967976546189 57 57 59
0.8314590378645577 4.140889632565058 1.545218414451506 53 53 55
1.016034769434359 4.131173678564638 1.5485878434911935 53 53 55
1.031437888110899 4.137095702382263 1.5469955876143713 59 59 61
1.120599312846974 4.096328632897079 1.5586608793730485 75 75 77
0.46055213069774825 3.8028400415733827 1.6516358476522113 44 44 46
0.45596495786944335 3.8223007022749615 1.6461779386530027 41 41 43
0.7713375521387402 4.074935585957219 1.577198908832768 33 33 35
0.7577424863590494 4.130785222166627 1.5615332476647283 19 19 21
0.7688467713103706 4.138959208151176 1.559305937496715 22 22 24
0.7925138126956917 4.138880225112558 1.559446329516145 28 28 30
0.8057439292803295 4.145720873602142 1.557602022868922 27 27 29
0.8350735316124591 4.142065046288905 1.5587696684080636 34 33 35
0.5584023761496133 3.501150847510061 1.7505244711885295 45 44 49
0.43209813258896235 3.8594747916020653 1.649276628836657 46 46 48
0.5093312367565097 3.818418606004857 1.6612786534338462 44 44 46
0.5057303411920966 3.8371194106074302 1.656013682529249 39 38 41
0.503136659813989 3.8550260452122473 1.6509777611324916 34 33 37
0.7619772490329146 4.0847405491331195 1.5882420221311793 18 18 20
0.7623548598030265 4.100110662749206 1.5839360976274892 24 24 26
0.7808428764702695 4.134560495333995 1.5743977818720276 19 19 21
0.799312353933868 4.13793545259037 1.5735698283830521 18 17 19
0.8181725092729997 4.14110437833205 1.572802124256871 19 16 19
0.8372841051081197 4.1441607428699365 1.5720675790950052 24 22 25
0.8620350426672339 4.143600056978044 1.572382965725976 35 33 36
0.895887802055108 4.13721601302635 1.574388860154154 49 48 51
0.9294646651991936 4.131130303142332 1.5763093659932643 59 59 61
0.4763182389138776 3.7981509304315018 1.6804791677219584 32 31 37
0.4819207444589235 3.889979939748783 1.6546882693720208 43 42 46
0.7706418152652139 4.0824794808642375 1.6027797648340365 14 12 15
0.7640620225781978 4.102502341417677 1.5970954466263567 14 12 15
0.7635382248014217 4.1339846592687035 1.5882343575813636 15 15 17
0.7785206979481638 4.139616712103502 1.5867665275342089 26 26 28
0.8004836151982941 4.140695489614761 1.586634032307724 32 32 34
0.8225582935303186 4.141767303760817 1.586504366261643 39 39 41
0.8397569321693359 4.146087305242149 1.585422914156085 46 46 48
0.8631945418223363 4.146394461615126 1.5855189830772443 58 57 60
0.9265127908688648 4.136610064537245 1.5887646430333526 56 57 61
0.9562874936439398 4.133094645130076 1.589985467930768 40 40 44
0.9885530340625794 4.128083125911424 1.5916465882113964 35 34 38
0.47249163339252487 3.7398718460033824 1.7106360019842912 40 40 43
0.7490316149971485 4.084842038494426 1.6157687937924332 18 16 19
0.7710209152797913 4.085764524099758 1.615710176602098 20 18 21
0.776729107611184 4.097596623162266 1.6124216652260606 19 17 20
0.766371022039658 4.120081125010763 1.6059778577410133 18 18 20
0.7741484986525708 4.13048841006686 1.6031106522607634 21 21 23
0.7823533160751901 4.140614440150232 1.6003267847963767 42 42 44
0.7874144141045589 4.152807035368094 1.5969305435897954 53 53 55
0.8122411964584932 4.152054635910183 1.5973708941964064 54 54 56
0.8400677577797351 4.14942572811056 1.598368632782521 57 57 59
0.8720250005593839 4.144206108585211 1.600135803165942 58 58 60
0.8958716180292141 4.144348687939475 1.6003144499421895 38 39 43
0.9274959615906821 4.139548005694424 1.6019602732868998 30 31 35
0.9583113589247152 4.135376658712967 1.6034209716441319 39 38 43
0.9963060344329782 4.12671235409149 1.6062162051718534 56 56 60
1.0411982028770408 4.129571912811939 1.6058208782064636 80 81 82
0.5195652570228351 3.5758108765059986 1.771423310657958 55 54 59
0.5006955080124778 3.60702808584539 1.7623772116916991 55 54 59
0.5023921201438593 3.7696565613318938 1.7163082760276116 41 40 43
0.47444718377854334 3.8066058434748813 1.705541816582896 44 43 46
0.5143018221823055 3.7931480883959963 1.7097770064939752 43 42 45
0.510175308704722 3.8923394780122607 1.6816237727335894 42 42 44
0.5008687770625324 3.9149596190937523 1.6751150986461512 40 39 43
0.4978776808565639 3.932943456661953 1.6699870755895494 42 41 46
0.7014760655009635 4.089130748860521 1.6278784380025169 38 36 41
0.73080471416701 4.084981238871423 1.629364483879299 40 38 42
0.7443523759176722 4.091509157338334 1.6276578089522493 40 38 41
0.7761330223656482 4.085889038928885 1.629586534747906 39 37 40
0.7869348364349713 4.09434186796428 1.6273053291310846 38 36 39
0.7837841673646639 4.11206078721683 1.6222506932583451 39 38 42
0.7910612279120277 4.122838697641455 1.6192733172493199 41 40 44
0.8109366716423796 4.1253194910409015 1.6187804581050813 44 43 47
0.8207836681773673 4.134436415820085 1.6163009596402305 48 47 51
0.8227571931007602 4.148710605060623 1.612276701360141 48 48 52
0.8452147676638659 4.149613560080841 1.612258285815339 49 48 52
0.8961537107432578 4.132095834003729 1.6177612282503921 47 46 50
0.9085851211609335 4.139685588500193 1.6157418388215319 41 42 46
0.9512535410540963 4.1278074543280665 1.6195591373783058 49 50 54
0.9837457425152212 4.122624959892596 1.621371370129554 62 61 66
1.008810946402328 4.138053751581881 1.6172640877098918 69 69 71
1.0374437211370227 4.135569868988291 1.6182707573130275 56 56 57
0.47821258174387093 3.8073394309869557 1.7191150004546707 39 39 41
0.7797249094332002 4.102677250680113 1.638725232002897 46 44 48
0.7797565799247947 4.118264287957664 1.6342924166151298 48 46 51
0.7822945952247817 4.13216062980382 1.6303704602104514 39 38 43
0.7867733748483519 4.144756012374693 1.626841746227237 46 45 50
0.8156785501698851 4.15687097877097 1.6237420355509076 51 50 55
0.8483111430229127 4.151141298517482 1.625762232728274 51 51 56
0.9134531979227298 4.140106161838189 1.629680497482872 54 55 59
0.9552372515965797 4.128826296966942 1.633388789078295 54 55 59
1.0333800624473304 4.141759859813794 1.6306455942394715 50 50 51
0.7806027767586283 4.105631369398158 1.6517579570285523 41 40 46
0.7806331540108302 4.121216489719931 1.6473096858284553 38 36 41
0.7793961371818316 4.137601752161473 1.6426160803627718 34 32 37
0.7882283465154234 4.147326142799835 1.63995835418275 47 46 51
0.8114278320744501 4.147644618607872 1.6401775060273884 42 41 46
0.8213196238119382 4.156721131140547 1.6377188738998676 39 39 44
0.8535789844983874 4.151259619928421 1.6397089719852531 40 40 44
0.8980343353499034 4.138007121545153 1.6440859578590272 37 37 42
0.9198078538916397 4.1395714772800005 1.6439304229982123 35 36 38
1.0482939659477517 4.135906635731612 1.6466937336771021 48 48 50
1.1821284937658862 4.099070447184317 1.6589970833372327 78 76 79
0.5045886044426933 3.746222924658835 1.7645127484976264 26 26 28
0.7994192804134264 4.080997022721654 1.6729611389733354 35 34 39
0.7927436926813376 4.101109243669027 1.6671009967017967 35 34 39
0.788286872093326 4.119686213089432 1.66171341369444 30 28 33
0.7870076161696029 4.1361116971242105 1.6569890771067581 20 18 23
0.7914223412367982 4.148755221233132 1.6534322186452537 32 31 36
0.7971079509180932 4.1605515873984285 1.6501368075586105 30 29 33
0.8628424990034751 4.148786433774169 1.6544775210740243 42 41 44
0.898193352139137 4.141469684396887 1.6570953896595713 41 41 43
0.9208101697268865 4.142496836259976 1.6571349889934377 43 44 46
0.9882079643036152 4.1305548611212535 1.661550908489398 42 43 45
1.0178823305433422 4.127330632648783 1.6629125899295638 41 42 44
1.0380905941310767 4.1459889602081486 1.6578657851477807 46 45 50
1.0983463381479854 4.123658879408709 1.6651521887470362 52 50 55
1.1816593729236957 4.103034531515126 1.6722902986070889 85 83 86
0.4847594477548769 3.6666656824187718 1.8009239128372967 52 51 55
0.48223461505745013 3.7665213450596386 1.7721744110607958 44 44 46
0.47737972245234506 3.7863272278493754 1.7664017342038068 35 35 37
0.48504830645408803 3.7967564132865004 1.763527231276128 27 27 29
0.49545852190619866 3.805153662594689 1.7612812134068492 22 22 24
0.7856366074291024 4.124974313175635 1.6740208273739892 18 17 21
0.7845790536704407 4.141242079644725 1.6693267235626643 13 11 16
0.7882909091452048 4.154338758381002 1.66562137805398 42 41 46
0.8075034399355321 4.157279643754024 1.6650863037557484 47 46 50
0.8369237636751001 4.153621755783424 1.6666133277675783 49 47 50
0.862672689267979 4.152448233840283 1.6673667690307215 49 47 50
1.093237189990053 4.13051886002227 1.6773969713335548 55 52 59
1.1898264210348781 4.1015870075854055 1.6872756270704075 99 97 100
0.462544159487295 3.8009298660567623 1.775713285930591 49 49 51
0.4647981723893555 3.8153441889038353 1.7715938661491841 43 43 45
0.7840553595381585 4.129553246209348 1.6865392788253062 32 30 34
0.7798920334890509 4.147855859162406 1.681185304503216 16 14 18
0.7932360360783777 4.154622213572069 1.6794672564177597 38 36 39
0.8205958236790425 4.152256025906086 1.6806302903614443 61 58 63
0.8386796977439435 4.156020774236847 1.679861511597145 53 49 54
0.8641705538664319 4.155027480813592 1.6805956119910663 60 58 62
1.0314931163125232 4.125872532907541 1.6919451650196824 46 45 50
1.030681167712616 4.157896000647961 1.6826911232182085 52 51 56
1.086865220434655 4.13816942453314 1.6893692038988992 59 58 62
1.1204023893802275 4.132889732573281 1.6914813231463233 83 82 85
0.778438315473585 4.152338196799095 1.693701563672045 19 17 20
0.7924990249070696 4.15863377922443 1.6921451024009722 23 21 24
0.8194315108796764 4.156554497688779 1.6932576483823543 43 41 45
0.8385829489678849 4.159626684642472 1.6927310469538355 39 36 41
0.8633753044949197 4.159094597435976 1.6933550213507391 33 31 36
0.9862889711187879 4.1425740194193414 1.7004683976099317 54 53 57
1.0215345888113527 4.135829398838196 1.7030894112713622 57 56 61
1.0012886238454821 4.164421759655726 1.6944264195603067 48 47 52
1.1241433755563286 4.13418308953008 1.7055109165956008 95 95 97
1.1750619716906379 4.118168086974856 1.7111133380582955 120 120 122
0.487632578672174 3.7731335464503237 1.8118181053258153 52 52 56
0.7774191302461364 4.156533149774124 1.7063028142761312 18 16 19
0.7897629585365455 4.1639530548776165 1.7043978686272503 23 21 24
0.8172475153225198 4.161516645994242 1.7056652411245017 25 23 27
0.8387511995170869 4.163059882111882 1.7056544346756848 22 21 26
0.8630600958941359 4.162849579234089 1.7062102857586003 25 25 30
0.8860029549539366 4.163597338805409 1.7064599292020204 32 33 37
0.926973841962675 4.15281972993739 1.7104256683967798 42 43 45
0.9526950932488363 4.151967546926972 1.711196789551918 60 61 63
1.1391214411190034 4.128431806965117 1.7218302800913854 109 109 111
0.5411886324480282 3.554631993091782 1.8905342727025674 41 41 43
0.5169473154230966 3.851721946115617 1.8033685394655434 47 46 51
0.5080977106585212 3.8741902153127237 1.7966237698289558 47 46 51
0.5095071183945177 3.8891241878522393 1.792299327174039 47 47 50
0.48971531688154935 3.9193741491037293 1.78304722398763 47 47 49
0.7993837174132075 4.161185337419223 1.719265093869219 29 27 30
0.8200966168066173 4.163195204314621 1.7191295040805676 33 32 36
0.8383909092953152 4.166836237449917 1.7184656195486772 37 37 41
0.8647902887886632 4.165280002298331 1.719493678374397 43 45 48
0.8892124490023903 4.165084904312649 1.7200817901212073 49 53 56
0.9278396413570056 4.155837508572832 1.7236187453528131 63 65 67
0.9548739197845346 4.154155137226653 1.7246973984241376 57 58 61
1.0528306372353107 4.154727888965434 1.7266610677858252 78 77 79
0.5284798175747598 3.5177148960867877 1.9151813529031791 65 64 69
0.5190196472179305 3.853743510077651 1.8166218383557702 37 36 41
0.5070962907899395 3.8784457006068513 1.8091165746004645 41 40 45
0.5079195216589683 3.8937983996632113 1.804642587215772 46 45 50
0.748508434412485 4.042101382433484 1.7668108964032647 24 23 28
0.7640342966450191 4.047375528876569 1.7656268337791432 21 19 24
0.7945091307545546 4.152370773969283 1.735604967181198 22 22 24
0.8066378749348899 4.159974410072874 1.733660519849554 40 40 42
0.8226945964232828 4.165039996761353 1.7325497833743166 49 49 52
0.8331308036428176 4.173792019901418 1.7302300702997249 53 53 57
0.8678395677780051 4.166858820083964 1.7330626587796933 54 57 61
0.9003671742107826 4.161455418649833 1.7353970473368814 55 60 63
0.9329326844880179 4.156141438797331 1.7377061437310832 52 53 55
0.9613047806050588 4.153624082027348 1.7390997111571223 39 39 43
0.9916940661887517 4.149914646966612 1.7408888469136623 52 52 54
1.0302032155158634 4.156900213910252 1.7397360205608778 77 75 74
0.4943541513932963 3.548031287150156 1.9196036746484728 61 60 64
0.49044713567363507 3.5678190065418764 1.9136963530460769 61 60 65
0.49518060589562585 3.580837644873827 1.9099891619560823 65 64 69
0.4784825417007994 3.6104214484925254 1.9008908146382482 61 60 65
0.4910451341580504 3.617315141315104 1.8991746593905634 50 48 53
0.7329240701473694 4.056198213035146 1.7762189142144884 39 38 43
0.7565076108048672 4.056005911279566 1.7768544073391872 39 38 43
0.761651564721425 4.0682778322325355 1.7733765955820808 41 39 44
0.7769151767669604 4.151913799425886 1.749188540151875 41 41 43
0.7650050958801948 4.175242331507996 1.7420448385436325 38 38 40
0.8939140440339568 4.184752426403795 1.7424167834180802 40 41 42
0.9253852271305489 4.180174388625861 1.7445339657922239 53 53 53
0.9486801251080197 4.180913141345486 1.7448889335665227 68 68 67
0.9946699803655839 4.167317132120532 1.7500110361218333 71 71 69
1.0497926832587443 4.148118636220116 1.7570027438136764 81 81 82
1.1180671534473519 4.136719411498862 1.7620268048479382 60 59 63
0.47629422308565883 3.582453464275762 1.9230807560302303 60 59 64
0.45963839235534865 3.6120248313933168 1.913933233028578 62 61 66
0.46224236074272307 3.626578330713661 1.9097116135241592 60 59 64
0.5069123448256079 3.8536353166950192 1.8439528074055067 39 38 43
0.73723170838805 4.1038620463940445 1.7761835440952307 45 44 49
0.7623685795543211 4.118337224048334 1.7725697989898712 44 45 49
0.7617299343995159 4.134351203823905 1.7678335926105961 44 44 49
0.808386185144176 4.119130569793123 1.7735302693602983 45 45 50
0.7826473682811068 4.151674213364358 1.7632710298485907 45 45 48
0.7662838904579998 4.1779216524752085 1.7551107205451344 43 43 45
0.7892815867941816 4.178369693512284 1.7555755282881766 48 48 50
0.843759368677685 4.158417409768736 1.7628697048521444 51 50 53
0.8573318249540716 4.165187268147121 1.7612267387018257 52 50 55
0.886616268703641 4.161839116418835 1.7629735169707565 51 50 55
0.9435704310871869 4.140788082673591 1.770655785521194 51 52 56
1.0200723520420847 4.139046928258412 1.7731543751995744 70 70 70
1.0504105163094575 4.135559510539029 1.7749695448459626 67 67 69
0.4554651301653001 3.6188552617287484 1.925780933448154 61 59 64
0.4496023411424839 3.639935149003931 1.919386134689909 61 59 63
0.48522280399186957 3.6620576623094645 1.9138177279473925 52 51 56
0.5219268052864365 3.846184329441494 1.860365857313108 30 29 35
0.5084989041872783 3.8720242389026285 1.852356331579711 35 34 41
0.7911327824961234 4.102779484622928 1.7918412246862994 49 49 53
0.7623787646732092 4.137451311149518 1.7808004017148962 48 48 52
0.7743346888880611 4.145121874480042 1.7788588624532706 49 48 53
0.8041375538380757 4.141091571383426 1.7808660745703233 47 46 50
0.8051629642764866 4.15599618442152 1.7764860502924238 41 40 44
0.8061854403025228 4.1708715098756866 1.7721146076160579 54 53 57
0.8316262632343265 4.169849524399042 1.7731127816220447 55 54 58
0.8639051357554894 4.1644821043223805 1.7755831789786607 54 53 56
0.8992698018654763 4.157237037455794 1.7786933048715976 55 55 58
0.939192930839031 4.1471885332476734 1.7827572480410319 55 55 58
1.2536801155143378 4.091222237995491 1.8079120298735702 76 76 77
0.44916630009957403 3.6438559501715835 1.9321550287023692 57 56 60
0.4521745526693397 3.6580299225352353 1.9280349052950116 57 57 58
0.4738941393517391 3.6743037012726143 1.9238296658202225 60 59 64
0.48785346173334543 3.6965320819012764 1.917634026688972 44 42 47
0.5226213124808654 3.849219005216921 1.8733185559293073 21 21 23
0.5129190450452272 3.8723336872870995 1.8661794460634855 22 21 26
0.8191342709181453 4.087757823029546 1.8110504050393392 50 49 54
0.779630134350821 4.1295795955308625 1.7975022968044603 48 47 52
0.786012489346736 4.140962381422799 1.7943075853855868 46 45 50
0.7981054886431957 4.14859152680761 1.7923911196819955 33 31 36
0.8116373025787806 4.155300165696531 1.7907892226071658 39 38 43
0.8074512646099123 4.173579865686345 1.7852436943299745 46 45 50
0.8369765112451666 4.169917641138653 1.7871796384741416 44 43 48
0.8698351923324548 4.164199660627865 1.7898215599488978 42 41 46
0.9088777043421417 4.154611203294081 1.7937900097600807 38 38 43
0.9424640928445815 4.148671141748325 1.7965187681506043 36 37 41
0.9960536216282183 4.177222131090153 1.7895863037758741 40 39 46
1.0787912244928453 4.1564814666891365 1.7981210946063884 52 53 59
1.249159554607287 4.097736946798051 1.8204548528173086 82 82 83
0.5874313219719901 3.3527487285598534 2.0369687967681 54 52 54
0.43325405905329784 3.6597146207641362 1.9408985046070917 37 34 41
0.4645359172535597 3.652106268117409 1.9441078662040918 50 49 54
0.49840649848088114 3.692107158032176 1.933216350321471 55 53 58
0.4944241070509974 3.7115275728014847 1.9273124684176142 47 45 50
0.535328630125562 3.795028808592917 1.9036778497302038 44 43 48
0.5320689654793731 3.81361515766086 1.898044165830482 41 40 46
0.5240949584143557 3.8356021211222937 1.8912555307559176 36 35 37
0.5141635679747307 3.858940313609453 1.8840054397439494 32 32 33
0.5134986918440851 3.875443742746194 1.8790703473301915 24 24 26
0.8011331027422728 4.1032508434441795 1.8198999198172991 36 35 40
0.7808181720256198 4.132333150337913 1.8106259575181731 38 37 42
0.790936601975379 4.141258890113861 1.808272867199354 36 35 40
0.8005374569859884 4.150535111637874 1.8057997868105107 20 19 24
0.8125464826893878 4.158246635043587 1.8038653331277408 25 24 29
0.8327307728596443 4.160655663245194 1.8037566273672474 40 39 44
0.8656292578760045 4.154874459261743 1.8064705855511924 36 35 40
0.8903770132823703 4.154478054599215 1.8073350240173456 41 40 45
0.9109761540683017 4.156831942299333 1.807255251876961 44 44 49
1.0326564476926612 4.173390630382679 1.805993579190197 48 48 54
1.072448285290077 4.164092664846342 1.8099627974122177 63 64 69
0.4481965717426246 3.668245790314733 1.9527342303994801 29 28 35
0.5252975134921989 3.789794351073128 1.9188425583025315 47 47 49
0.531735362224899 3.8012433748510857 1.9156241756161707 49 49 51
0.527800321208292 3.820310185894316 1.9098017907933091 48 48 50
0.5230377064037095 3.8399245539259903 1.903789645917449 45 45 49
0.5170871898147138 3.8603435045423375 1.8974995549489124 44 43 48
0.5166267089798262 3.876700146877613 1.8925967811486113 40 39 43
0.5185751217300605 3.891269671120388 1.8883041258068096 36 36 39
0.5082308130983726 3.914692352531006 1.880977678018854 30 31 33
0.5007273757402981 3.935980038880222 1.8743789474601809 26 26 28
0.5033454320573723 3.949929930239466 1.8702926075477306 20 20 22
0.8021963283766782 4.106100835794403 1.833053027459695 34 33 38
0.7775088910617283 4.138055009845743 1.8227242007238993 31 30 35
0.7980783369785904 4.140102245005877 1.8227616113994456 21 20 25
0.8007710872403546 4.153921160597297 1.818716771619424 14 15 19
0.810791455618525 4.162932971998635 1.8163398335315004 17 18 22
0.8345954814033416 4.162989113649168 1.8170743825918196 30 31 35
0.8644292752007534 4.159211216241356 1.8191450653523975 50 50 54
0.8901987696155613 4.158160305386932 1.8202724970623292 38 38 40
0.9127856266240764 4.159240523684718 1.820662579708609 35 36 38
1.0399008416006623 4.172435327179212 1.8207314080371104 68 69 73
0.5268536394949794 3.9206923129388596 1.8935534196217048 38 38 43
0.5534413956479312 3.9175169904432727 1.895382182300292 35 34 39
0.537334321389775 3.9449421155167297 1.8866267100278686 31 29 34
0.5258199697542105 3.968979613219072 1.8790385556511617 25 23 28
0.7920783252652948 4.116349365095487 1.8436218863999034 39 38 43
0.7895204733551053 4.133672259224209 1.8383426315806848 42 41 46
0.7975622220447278 4.143983620106909 1.8355154902673936 37 36 41
0.8017116692887076 4.156844335574726 1.831795509949504 17 18 20
0.8131672942371875 4.164922588739761 1.829750596676283 15 16 18
0.8368225089090631 4.165088695513823 1.8304806270793321 24 25 27
0.868740504467922 4.159976990126047 1.833065810490179 23 24 26
0.8722575813956959 4.17330532480929 1.8291847493168814 24 24 26
0.9223678038567276 4.156652463024457 1.835830733204587 21 22 24
1.0325300243064681 4.180685111440123 1.8322553568978146 63 65 67
0.525172169817762 3.90950778089537 1.9106482954048134 44 45 49
0.5364022936834199 3.9173511282102202 1.9086740498259451 43 43 47
0.5487297119721712 3.9244259574400115 1.9069687850966852 43 42 47
0.5478217045296248 3.940973701330346 1.9019579758546044 42 41 46
0.5677219104399538 3.9426736353563863 1.9021304317403331 41 40 45
0.7730907197411401 4.132450416032116 1.8520810934263217 26 25 30
0.7891800054377154 4.13743883578329 1.8511329796960532 36 35 40
0.7945108542840469 4.149528288625259 1.8476782140601262 35 34 39
0.8016397381768201 4.160430437636148 1.8446425373039865 21 21 24
0.815333345534047 4.167051108409487 1.8431208977172693 18 19 21
0.8313311647079855 4.172202937909999 1.8421204663417676 19 20 22
0.872188165280779 4.161305808736518 1.8468039925556514 19 19 21
0.8769792270252745 4.173817612701734 1.843203578243247 20 20 22
0.9050505720625575 4.171357542030196 1.844908732455005 25 25 28
0.9388677408694874 4.165312053097147 1.847890316230924 36 37 41
0.9668021661702044 4.163138554044836 1.8495045282304743 47 49 54
1.0345268222935515 4.183036376327935 1.845844629302747 50 50 58
1.200424950042434 4.1427431814246605 1.863671998102912 55 55 58
0.5929147317075174 3.944220443078402 1.9163922724664182 44 44 48
0.5785986672747452 3.9702182352925828 1.9080298271884208 41 41 46
0.7801407546716601 4.131331535351334 1.866590852186285 14 13 18
0.7866668660448042 4.142634807033137 1.8634112163855365 18 17 22
0.7937260969887474 4.153582745561846 1.860357949957618 24 23 28
0.8029087657819431 4.163139730392295 1.8578006644045304 19 19 22
0.8177866444365298 4.168994512011894 1.856565049027783 21 21 23
0.8436046778030684 4.16778313946366 1.857854526648526 31 31 33
0.8769454423057941 4.177398436976761 1.8561439385775678 41 41 43
0.9013582491547869 4.177296963498943 1.8570479976898708 48 48 51
0.9347163985766129 4.171549529074002 1.8599769416466472 51 52 56
0.9641917277310996 4.168394118274689 1.8619842857348985 60 62 67
0.9928057237855663 4.165884690211167 1.8637657537767147 60 62 67
1.010538861929963 4.186053530639662 1.858310037066685 38 39 44
1.045026176441436 4.180047280360098 1.8613575309144654 61 62 68
0.785539061496975 4.115667056899822 1.8854745643951853 22 21 26
0.7952552864257707 4.124897004493773 1.8830392177545212 15 14 19
0.8009049720812402 4.136810647138619 1.8796395200840783 18 17 23
0.8093433576086271 4.14688686133278 1.8769002453963928 25 24 30
0.8123161666220784 4.1605354356379 1.8728753386350956 19 18 22
0.8240453947442901 4.168463937917806 1.8709091722908777 30 30 33
0.8200247435949868 4.186622927242037 1.8652575966660574 44 44 47
0.8593693096728878 4.176710200079103 1.869724046189521 47 47 49
0.8563900887608646 4.194190066531145 1.8643169645746975 53 53 55
0.8718760327248269 4.199775589364744 1.8632003941209414 55 55 58
0.8965499007564401 4.19952388859639 1.8641941050034316 58 58 63
0.9309929347869228 4.193127798600332 1.8674127790357602 53 54 59
0.9556255906206959 4.193079158185239 1.8683434313338347 38 38 44
0.9830195224786604 4.191361168892088 1.8698825597098232 41 41 47
1.0093193966217557 4.190421435834243 1.8711452003562632 61 61 67
1.0490533222074587 4.181131859100626 1.8754373161849367 75 75 78
1.106068228791835 4.161177135752223 1.8836034716645431 68 69 70
1.2011747788638591 4.149627324063978 1.8906393433781206 51 52 57
0.7633116081387445 4.1339269877523215 1.8930317954771316 44 43 48
0.7872221837805973 4.133743995102085 1.8940101263269256 42 41 47
0.8105087601277985 4.1340467358509505 1.8948166993846007 42 41 47
0.8170250931085214 4.14540357568459 1.8916153294291158 42 41 47
0.7862730129343283 4.181072229285882 1.8795842474226025 39 38 43
0.7887682710500701 4.194945342477169 1.8754626813569073 44 43 48
0.8384277821073367 4.178238352139276 1.882458456608648 52 51 56
0.8710342960071016 4.17273381366548 1.885390273694837 56 55 59
0.8781761644492987 4.183723840689701 1.8823245652640117 56 55 60
0.9058276306974506 4.197157666084814 1.879307319964603 52 51 58
0.9344521342774958 4.194498716338716 1.8812203263336973 47 46 52
0.9635066113098067 4.191662269899111 1.8832038896312575 53 52 58
0.9904060418248697 4.1902841420456856 1.8846609168430388 62 61 67
1.024369108025109 4.184545949359558 1.887716120631648 72 71 77
1.0733072553321723 4.169533014207204 1.8941690135569218 59 58 64
1.1186892681400145 4.156928413262315 1.8997524690032963 46 46 52
1.1718985885844106 4.139618618545898 1.9070685005900034 44 45 50
1.1604347996327418 4.162640673547498 1.8996267008596142 46 47 52
1.2155964868419895 4.14438535699739 1.9073055411209043 51 52 57
0.5581038516334609 3.7380168725577843 2.0195260139231883 22 22 24
0.769420090709287 4.1334241211311475 1.9073518874437536 48 47 53
0.810735838168887 4.121793856326967 1.9125523935436233 48 47 53
0.8206292349233113 4.130953397976495 1.9101538132789766 47 46 52
0.7919566420740429 4.1653564453162115 1.8985117454748999 47 46 52
0.7942811256543174 4.179380703682389 1.8943263663229661 44 43 48
0.8054243465578608 4.187650755758381 1.8922491293521093 48 47 52
0.8157147011705681 4.1964887122089864 1.889964531327498 53 52 57
0.8618599016281416 4.182211267311181 1.8961657682980033 54 53 58
0.8608772195570218 4.198400859489896 1.8911875402847134 55 54 59
0.9078394791398046 4.199437372693061 1.8927496604382004 53 52 60
0.9442702988478171 4.191829666242574 1.8965276331755376 53 53 59
0.9741336119030817 4.188513568957191 1.8987336964938508 59 60 65
1.0042625489138115 4.185130169108728 1.9009709156948487 66 66 72
1.0356012614649936 4.18108706405504 1.903457776560404 49 49 55
1.0906934127338115 4.162263343590946 1.9114037829713217 43 42 49
1.135457799382484 4.150102508371005 1.9169040826200554 41 41 48
1.1763494135862866 4.156431673527447 1.9166087801014888 47 48 54
1.2052066777626216 4.154484273459325 1.9183570594411152 55 56 60
0.7788084855604465 4.130760117510665 1.922493553336479 51 50 55
0.7939587615764525 4.136397195394428 1.9213953001898847 50 49 55
0.7985417395934593 4.149002066891969 1.9177266388348118 51 50 56
0.8040269800524142 4.161002280648812 1.9142804237979978 46 45 51
0.8075104146137173 4.174296015495595 1.910355372088011 33 32 37
0.8145734497132857 4.185246361333859 1.9072958543794654 49 48 53
0.8216136486379015 4.196208327240499 1.9042318341941806 53 52 57
0.8224564786234427 4.211161233233011 1.899689569486389 52 52 56
0.9012188139144655 4.207222938271991 1.904156195011275 52 51 57
0.9343946216176962 4.201682278760953 1.9072258378765483 49 50 55
0.9813897230924329 4.187509512065467 1.913509990247412 48 49 54
1.0031708947980378 4.189418881534277 1.9138273548926925 39 40 45
1.0461143371444075 4.178091479768141 1.919072770632617 41 42 47
1.089613792028033 4.166574886761292 1.9243991200506312 43 42 46
1.1467175077168348 4.1467309195000315 1.9328377953845208 39 39 43
1.1280335403605162 4.1742251863841675 1.9236480637635374 41 42 46
1.214053473733177 4.15269943091491 1.933798796601615 61 62 66
1.2805585825411896 4.127723770344759 1.9441975670135887 72 73 75
0.7721389505988974 4.123079583750718 1.9385265060038919 46 45 50
0.8075948234065042 4.115298344838619 1.942434413678257 48 46 52
0.8160952094493243 4.12538099141755 1.939701523603379 47 44 51
0.8157589330980286 4.141260046734172 1.9348099880055478 47 44 51
0.8148206838962369 4.157494504842581 1.9297835209915566 36 33 40
0.8141765770178497 4.173497004909194 1.924840891214739 22 20 25
0.8191087113656059 4.185843798629662 1.921259818592996 47 45 50
0.8246817344873472 4.197763352562109 1.9178374076982891 45 43 48
0.8236436748736535 4.213930205626592 1.9128274319560066 39 37 42
0.9475865736956963 4.212482884706193 1.9185782751294798 36 35 39
0.9949501925554731 4.198199033796423 1.9249932144847766 38 37 43
1.0350534163760698 4.188654026759613 1.9296418158245197 40 39 45
1.2998859362500297 4.119557483738194 1.962202476683613 82 84 83
0.5681496815932738 3.7740557150387857 2.0510324147437227 44 43 48
0.5449689302594405 3.888009928613451 2.0148887980584664 24 24 26
0.7821469287692906 4.13564593156616 1.9490604249659438 24 22 26
0.8166064777121365 4.1286037739705534 1.952754535499696 27 25 31
0.8155699226610971 4.14493767659937 1.9476748980989762 33 30 36
0.811578956456479 4.163158868551901 1.9418829855515416 27 24 30
0.8156884166026344 4.176056995784943 1.9380897532685566 21 19 24
0.8223211111543587 4.1873029873840055 1.9349172589612704 33 31 36
0.8289512193131963 4.198545468999438 1.9317457319904403 34 32 37
0.8403281117293058 4.206728487673402 1.929726983198189 34 33 38
0.5874325489736294 3.7797748329627385 2.064188905700904 45 44 49
0.5699484053976738 3.8088758543414896 2.054392478571029 44 43 48
0.5531946912063044 3.91762445953382 2.020000780391989 28 28 30
0.7907875680748166 4.14912154590511 1.9592589145017199 34 32 36
0.8246818443132213 4.142527225719146 1.9628446365903067 27 25 28
0.8098565338370556 4.1678285999417595 1.9543444602922233 16 14 17
0.8151037215512784 4.179980690813978 1.950826228733836 51 49 54
0.8230035704218084 4.190403460707774 1.9479637807548615 32 30 35
0.831938758480429 4.200158891906142 1.9453549305643874 43 41 46
0.8421999100702857 4.209067301882897 1.943068501006041 42 41 45
1.044415837391201 4.190005610336708 1.958190058717449 32 32 38
0.6084036779621107 3.784327715083873 2.077835200169003 48 47 52
0.8199087224398955 4.149206611704874 1.9745777509805145 36 35 39
0.8038675526809602 4.175276470983979 1.965734754432664 23 22 25
0.8157488544155693 4.183104867081024 1.9638648352887738 23 21 25
0.8214468404950139 4.194953092636782 1.960456858897679 29 27 32
0.8339332559381476 4.2024153375895175 1.9587290065654817 36 34 38
0.5731240380878964 3.8461094847178368 2.07099655751347 47 46 51
0.7785046070246866 4.148678126869058 1.9867585190673058 18 16 22
0.8156881942008274 4.13988135741291 1.991298551097116 27 26 31
0.8052498592527508 4.1623404180744155 1.9838013274388209 31 30 34
0.8051778383259505 4.177964957013611 1.9789339455784627 29 29 31
0.8207150379638333 4.183425893405143 1.9779867710942916 28 27 30
0.8016723513554758 4.211278194576122 1.9683937443148805 38 36 39
0.9718846860249162 4.195824042728813 1.9814516938882458 41 41 47
1.10601577264951 4.1903142374065405 1.9896657829922095 68 68 73
0.7701300748467044 4.157727539689894 1.9974849776033543 19 17 23
0.8364601933155786 4.129827782997477 2.0095065692863083 16 15 21
0.8339426273384467 4.1471532659849135 2.0039696241221576 20 19 23
0.8122921277205652 4.176878453629988 1.9936057479526332 20 20 22
0.8221676244761555 4.186029589727426 1.9912399215359422 23 21 25
0.8342048398555137 4.193794173550212 1.9894149585991376 36 34 39
0.9313643898088919 4.193842355609357 1.9942445927081798 46 46 52
0.9535162940220763 4.195400044181086 1.9948626311359487 50 50 56
0.9782151156968482 4.195413037875578 1.9960901342654844 52 54 59
0.786303783934523 4.150638120184311 2.014491262378114 40 38 46
0.8418177465194354 4.1298880571665775 2.0238403752308827 38 37 42
0.8429261007495554 4.1448542999572995 2.0192071046722617 34 33 37
0.8335096820573138 4.166631136558621 2.011899880116126 30 30 32
0.8475556242473887 4.173130514421783 2.010583321016879 35 33 38
0.857369890450673 4.182390143621995 2.0081847782608757 44 42 47
0.8409489632051659 4.208531422206561 1.999150673552559 49 46 53
0.9135833906775963 4.193131667234412 2.0077009678312097 53 52 58
0.9441602319657465 4.189280446410111 2.0104756896816154 53 52 57
0.9419274253558862 4.206332368521251 2.0050174932352114 55 53 59
0.9640841458911371 4.207932679109565 2.0056520785818486 56 56 62
1.0332491010565346 4.195744511353519 2.013018032245081 59 62 67
0.5441776708105064 3.731561185530701 2.1474917321157525 42 41 46
0.5416028363778922 3.749882350230595 2.141595537486865 41 40 45
0.5680111280206448 3.74664940973192 2.1440034289859797 40 40 42
0.8060796413821851 4.141200643883202 2.0324920821322645 45 43 49
0.855317533192363 4.124627110242784 2.0402973558659854 44 42 47
0.8545179418126743 4.140864224439119 2.0351499609293233 45 43 48
0.8504157379072175 4.1592063948700515 2.029166688125154 45 43 48
0.86089605298261 4.168055278550011 2.026936609548673 44 42 48
0.838590463942652 4.1980601626596386 2.016327257197155 49 46 53
0.8656092007247247 4.196230699549105 2.018326030893587 54 51 58
0.8922472052827342 4.194733721810586 2.0202002047856 55 52 59
0.9012825897878771 4.204553636056598 2.0175886851572553 54 53 59
0.9645448910852976 4.195585726580251 2.023741515557725 55 55 60
0.9940409498085825 4.19261239774946 2.0262304673712794 58 58 63
1.0298259942783734 4.185782795383089 2.030263259120604 61 62 67
1.0625846428603498 4.1809762169465845 2.0335005187790354 67 68 73
1.377181475782686 4.098368034530374 2.076049526246697 51 51 53
0.4954894622629935 3.787776325791831 2.141215793589918 36 35 40
0.5407088336468662 3.7704910612945173 2.149115025110315 38 38 40
0.876905450763378 4.082460712744352 2.0688893291082815 48 47 52
0.8769985185033395 4.098234307172591 2.0639184121549436 48 47 52
0.8765244021575895 4.114342340987684 2.05881130751274 48 46 52
0.8673248983417736 4.136094649263304 2.051451604134675 48 46 51
0.8667894713513022 4.152144680644504 2.0463594800329483 48 46 51
0.8445798519851668 4.182172296416927 2.035685382457275 47 44 50
0.8768798019488195 4.176936560004137 2.0390845074578374 51 48 55
0.9489312479846683 4.2090582054569055 2.0328494298656867 58 59 64
1.106835473165706 4.172753309378361 2.0528449582999557 76 77 82
1.2893747291319353 4.139666467523245 2.0731580927939586 49 48 53
0.864176203907461 4.094432319874277 2.078596366612027 51 50 55
0.8798140940710188 4.099982176212528 2.077707954189588 52 50 56
0.8787384768178881 4.116484461040917 2.0724252247944497 51 48 55
0.8735535905555731 4.135619428640372 2.066081119739868 52 49 56
0.8768901693992628 4.149167856708712 2.0619782353108227 50 47 54
0.8771960868411133 4.164653711092809 2.057093904244869 46 43 50
0.8818549482998004 4.177302146110407 2.053349276043496 54 51 58
0.899466408717863 4.181626434209451 2.052958321256804 58 55 62
1.088124484271586 4.1722550063479 2.0663976878899133 69 70 74
0.8865774090915735 4.083299798687941 2.0975851125057856 46 46 50
0.919101445709702 4.077846158091002 2.101168449964762 47 45 51
0.8971132330816018 4.108082156347017 2.090315396205646 48 45 52
0.8916333557444989 4.127444072440873 2.0838551549728046 51 48 55
0.8863164966800487 4.146638331964741 2.0774574326958692 40 37 44
0.8871561643370545 4.161796703987153 2.0726917708870896 53 51 57
0.8951411124868924 4.17232602890303 2.0698028131295376 58 55 62
0.9132872797844815 4.176342630266536 2.0695604056783448 62 60 66
0.9152947038971533 4.19071464513246 2.065110926793224 61 60 66
0.943181845519224 4.188589728726922 2.0673732710259043 60 60 65
0.9851879315482388 4.177603596105706 2.073253226823529 60 61 65
1.0176133512719372 4.172826962318524 2.0766159700789033 58 59 63
1.0364194758330778 4.176736267337345 2.0764452047585578 55 56 60
0.8821523223046492 4.08980864535154 2.109481116535405 37 37 39
0.873633306877134 4.111215591561053 2.1021640965041217 35 34 38
0.8686378477152181 4.130248457887979 2.0958090072224524 31 28 35
0.8635859155022754 4.149258204450982 2.0894579887439497 29 26 33
0.9058958059696045 4.137545219021355 2.0956581295791867 33 30 37
0.9023954096371436 4.171240801137209 2.08471890974894 51 50 55
0.9540713588977137 4.169546736668247 2.08827360084824 52 51 55
0.9906641776177298 4.1619848189171815 2.0928177062257403 52 53 55
1.0390725755219203 4.147068141526146 2.100394314916477 51 52 54
1.0899898364902803 4.14666154766199 2.1034945689893765 42 43 46
0.5484452486908222 3.9404652728458642 2.1514945298877524 28 28 30
0.5911308052104478 3.9260161834405523 2.1586637756028324 29 29 31
0.8700317082577649 4.085526709792816 2.12434634021419 28 28 30
0.877739284381561 4.096304531783032 2.1213620198912824 33 33 35
0.8697195243563955 4.117365245771831 2.114151111982479 34 33 36
0.8665683698742241 4.135179777360688 2.1082687296369036 32 30 34
0.862455117224056 4.153567725705249 2.1021455710699266 19 17 22
0.8911821103210784 4.150656221295444 2.104792892081877 49 47 52
0.899890615415925 4.160744930716437 2.102088648424518 49 48 52
0.9103099900893445 4.169738808906416 2.099836587355304 48 47 52
0.9533627228669654 4.157860662557845 2.106206023170464 47 46 51
1.083984788278703 4.154086054771729 2.1152184319375924 33 34 37
0.5961879406037847 3.941975432443055 2.167841259377054 22 22 24
0.8518463011493627 4.101091218235991 2.132457050316883 17 17 19
0.8740566986405358 4.102316438105419 2.133422894290047 16 16 18
0.870446327681258 4.120478522994384 2.1273779141340357 17 16 18
0.8672935434657407 4.13828921977759 2.12147360835548 17 15 18
0.8637363544551195 4.156311065167863 2.1154768528446084 17 15 18
0.8783172704035416 4.162556291212815 2.11436617002994 39 37 40
0.8864963367280863 4.172955895427446 2.111531646472599 33 32 37
0.9181788538482458 4.168274159816685 2.1149711640077267 30 29 34
0.9534628174666109 4.161399516027391 2.119334212308318 28 27 32
0.9853905482562071 4.156789370205613 2.1227657740028523 24 24 28
1.0739736054602131 4.148157232712897 2.130953023711308 29 30 32
0.5456431877088594 3.949540282265949 2.176226150859088 17 17 19
0.5475667250730285 3.9640794199609406 2.1716690443363245 16 16 18
0.8703784170434141 4.108321261926788 2.1454694692406786 18 18 20
0.8570577638079955 4.132806849170833 2.1367582332101343 16 16 18
0.8563301502422338 4.14900222827314 2.1315023408852056 14 14 16
0.8541847312948361 4.16607674887629 2.1258748684174016 18 18 20
0.8786151488502776 4.165941522343944 2.127447539245035 30 30 32
0.8838880270467331 4.178211427891355 2.123830130429074 30 30 33
0.9584579040043668 4.161810709684731 2.133774071297462 27 27 29
0.977334527267194 4.1655323141073755 2.1337583021973727 25 25 27
1.004703000553987 4.163917836909487 2.1359907758238394 26 26 28
1.049305299586302 4.151500288297332 2.1427775064964734 27 28 30
0.49618991860771056 3.9883047976431962 2.174457769798122 16 16 18
0.6070129015611394 3.9733405314982404 2.1863814735736335 14 14 16
0.5906914826915406 4.000666254038002 2.176517012406184 15 15 17
0.6337384457407136 3.986458835671905 2.1838580802800087 17 17 19
0.6676821331580547 3.994686547881965 2.1833752222404317 18 19 21
0.8041559624982921 4.044827185648218 2.175927404707497 20 20 22
0.8594994059786671 4.119035517289844 2.1555182640767576 23 23 25
0.8555297744464314 4.1373842344726 2.149341885436672 19 19 21
0.8546789217285065 4.153650857374041 2.144037162734878 13 13 15
0.862382767884815 4.164336910461881 2.141081227551828 14 14 16
0.8842303951940764 4.165895416387648 2.1419766699838103 23 23 25
0.9060342110094108 4.167547022307062 2.142839258827831 30 30 32
