ply
format ascii 1.0
element vertex 882
property float x
property float y
property float z
property float nx
property float ny
property float nz
property uchar diffuse_red
property uchar diffuse_green
property uchar diffuse_blue
property uchar class
property uchar detection
end_header
0.6995 3.4065 0.5259 -0.407 -0.538 0.738 17 17 19 0 0
0.7609 3.8247 0.4734 -0.891 -0.080 -0.447 48 49 52 0 0
0.9694 2.1692 0.6602 -0.828 0.107 -0.550 34 33 38 0 0
0.6662 2.4283 0.6532 -0.736 -0.493 0.464 52 52 54 0 0
0.6534 2.4449 0.6522 -0.857 -0.368 0.361 53 53 55 0 0
0.6462 2.4600 0.6510 -0.783 -0.368 0.502 53 53 55 0 0
0.6455 2.4735 0.6495 -0.605 -0.029 0.796 53 53 55 0 0
0.6510 2.4854 0.6478 -0.265 0.963 -0.041 53 53 55 0 0
0.6458 2.5000 0.6465 -0.218 0.893 -0.395 51 51 53 0 0
0.6755 2.5060 0.6436 -0.218 0.893 -0.395 49 48 51 0 0
0.6763 2.5191 0.6420 -0.151 0.976 -0.159 48 47 52 0 0
0.6575 2.5369 0.6414 -0.086 0.689 -0.720 47 46 51 0 0
0.6967 3.4087 0.5385 -0.465 -0.586 0.664 17 17 19 0 0
0.6594 3.4385 0.5379 -0.680 0.051 0.732 12 12 14 0 0
0.7127 3.4444 0.5332 -0.235 0.968 0.091 11 11 13 0 0
0.8332 3.8834 0.4739 -0.909 0.255 -0.331 171 170 168 0 0
1.0056 2.1327 0.6753 -0.761 -0.648 0.037 35 36 40 0 0
0.9761 2.1551 0.6749 -0.712 -0.589 -0.381 34 33 38 0 0
0.9636 2.1726 0.6738 -0.884 0.060 -0.463 32 31 36 0 0
0.6662 2.4434 0.6645 -0.831 -0.481 0.280 52 52 54 0 0
0.6651 2.4570 0.6630 -0.731 -0.543 0.413 52 52 54 0 0
0.6501 2.5669 0.6514 -0.038 0.415 -0.909 47 46 51 0 0
0.4764 3.0920 0.6038 0.030 0.960 -0.278 36 37 41 0 0
0.7108 3.4086 0.5502 -0.487 -0.560 0.670 17 17 19 0 0
0.6834 3.4247 0.5503 -0.682 0.113 0.723 15 15 17 0 0
0.8279 3.8856 0.4867 -0.801 0.367 -0.472 170 169 167 0 0
0.6735 2.4566 0.6754 -0.537 -0.333 0.775 50 50 52 0 0
0.6843 2.4672 0.6734 -0.344 0.266 0.901 50 50 52 0 0
0.4393 3.0628 0.6223 -0.551 -0.702 0.451 40 39 44 0 0
0.7145 3.4100 0.5624 -0.636 -0.518 0.572 17 17 19 0 0
0.6850 3.4263 0.5627 -0.711 0.634 0.304 16 16 18 0 0
0.6836 3.4391 0.5613 -0.860 0.211 0.465 13 13 15 0 0
0.4599 3.5524 0.5643 -0.633 -0.036 -0.773 14 14 16 0 0
0.4488 3.5658 0.5635 -0.568 0.405 -0.716 17 17 19 0 0
0.5599 3.6268 0.5485 -0.818 0.571 -0.066 28 28 30 0 0
0.8868 3.8961 0.4940 -0.427 0.742 -0.517 172 171 169 0 0
0.9283 2.1720 0.7035 -0.586 -0.627 -0.513 30 29 34 0 0
0.6924 3.4272 0.5747 -0.721 0.683 0.118 17 17 19 0 0
0.6817 3.4411 0.5738 -0.942 0.177 0.284 14 14 16 0 0
0.4458 3.5557 0.5771 -0.680 -0.078 -0.729 17 17 19 0 0
0.4350 3.5691 0.5763 -0.568 0.405 -0.716 19 19 21 0 0
0.4459 3.5799 0.5743 -0.584 0.536 -0.609 20 20 22 0 0
0.4693 3.5895 0.5716 -0.625 0.596 -0.503 20 20 22 0 0
0.5632 3.6892 0.5534 -0.616 0.533 -0.580 24 24 26 0 0
0.4556 3.0633 0.6459 -0.445 -0.791 0.420 37 38 42 0 0
0.4591 3.2619 0.6226 -0.420 0.877 -0.233 18 18 20 0 0
0.7266 3.4120 0.5868 -0.542 -0.829 0.135 18 18 20 0 0
0.6936 3.4288 0.5871 -0.978 0.138 -0.156 17 17 19 0 0
0.6920 3.4416 0.5857 -0.986 0.159 0.060 14 14 16 0 0
0.4403 3.5581 0.5895 -0.816 -0.284 -0.503 16 16 18 0 0
0.4366 3.5706 0.5883 -0.841 -0.146 -0.521 17 17 19 0 0
0.4361 3.5828 0.5869 -0.719 0.472 -0.511 18 18 20 0 0
1.0550 2.0975 0.7309 -0.640 -0.714 0.283 34 33 38 0 0
0.6951 3.4430 0.5980 -0.877 0.473 0.086 14 14 16 0 0
0.4310 3.5609 0.6020 -0.902 -0.217 -0.374 13 13 15 0 0
0.4847 3.5791 0.5963 -0.784 -0.556 -0.276 19 19 21 0 0
0.5449 3.6214 0.5873 -0.267 0.533 -0.803 15 15 17 0 0
0.7956 3.8580 0.5429 -0.881 0.415 0.225 60 58 61 0 0
0.8860 3.9142 0.5303 -0.249 0.872 -0.423 171 170 168 0 0
1.0727 1.9797 0.7573 -0.533 -0.511 -0.674 60 58 61 0 0
1.0580 1.9984 0.7560 -0.594 -0.591 -0.546 61 60 63 0 0
0.6237 2.7784 0.6932 -0.521 -0.848 -0.090 39 38 43 0 0
0.4317 3.2695 0.6483 -0.420 0.739 -0.527 21 21 23 0 0
0.5135 3.3317 0.6356 -0.131 0.951 0.282 25 25 27 0 0
0.4782 3.5816 0.6087 -0.622 -0.416 -0.664 16 16 18 0 0
0.8042 3.8717 0.5534 -0.867 0.379 0.323 57 55 57 0 0
0.8088 3.8838 0.5517 -0.867 0.379 0.323 58 56 59 0 0
1.0484 1.9888 0.7716 -0.628 -0.450 -0.635 55 56 58 0 0
0.5377 2.6561 0.7259 -0.155 0.569 0.807 41 40 45 0 0
0.4980 3.0609 0.6809 -0.376 -0.758 0.533 34 35 39 0 0
0.5704 3.1746 0.6629 -0.542 -0.823 0.168 28 28 30 0 0
0.7768 3.4492 0.6174 -0.924 -0.382 0.014 12 12 14 0 0
0.4866 3.5824 0.6203 -0.558 -0.825 0.085 12 12 14 0 0
0.4348 3.2725 0.6724 -0.752 0.644 0.140 22 22 24 0 0
0.7934 3.4362 0.6308 -0.811 -0.579 0.087 14 14 16 0 0
0.4781 3.5730 0.6343 -0.550 0.597 0.584 11 11 13 0 0
0.4738 3.5856 0.6331 -0.417 0.824 0.384 12 12 14 0 0
0.7626 3.8182 0.6003 -0.667 0.687 0.288 58 57 61 0 0
0.7843 3.8290 0.5977 -0.838 0.538 -0.090 51 51 53 0 0
0.5549 3.6293 0.6477 -0.257 0.961 0.105 18 18 20 0 0
0.5831 3.6387 0.6449 -0.232 0.961 0.148 22 22 24 0 0
0.8600 3.9252 0.5945 -0.991 -0.134 0.026 169 168 166 0 0
0.6218 2.8135 0.7534 -0.417 0.856 -0.306 33 32 38 0 0
0.5728 2.8624 0.7504 -0.432 -0.316 0.845 33 34 38 0 0
0.6043 3.6752 0.6517 -0.503 0.840 -0.204 16 16 18 0 0
0.8660 3.9267 0.6067 -0.623 0.585 -0.518 171 170 168 0 0
0.5354 2.9357 0.7564 -0.517 0.502 0.693 26 27 29 0 0
0.5603 3.6200 0.6733 -0.313 0.922 0.227 14 14 16 0 0
0.5829 3.6668 0.6664 -0.838 0.144 -0.526 16 16 18 0 0
0.6092 3.6765 0.6638 -0.598 0.083 -0.797 17 17 19 0 0
0.7723 3.8850 0.6297 -0.571 0.659 -0.490 64 65 64 0 0
0.7843 3.8965 0.6277 -0.619 0.441 -0.650 53 53 53 0 0
0.6396 2.6824 0.7938 -0.505 0.109 0.856 30 30 34 0 0
0.5914 2.7454 0.7889 -0.549 0.253 -0.796 30 29 34 0 0
0.5615 2.9196 0.7696 -0.667 -0.079 0.741 27 28 30 0 0
0.5517 2.9343 0.7684 -0.513 0.441 0.737 25 26 28 0 0
0.5695 3.1348 0.7434 -0.565 -0.324 -0.759 34 34 36 0 0
1.0628 1.7803 0.8929 -0.587 -0.675 -0.448 155 155 155 0 0
0.6159 3.7285 0.6821 -0.972 -0.123 0.202 31 31 33 0 0
1.0458 1.7876 0.9069 -0.678 -0.593 -0.435 107 107 109 0 0
0.5857 2.8020 0.8080 -0.706 -0.688 0.167 28 28 30 0 0
0.5640 3.6740 0.7039 -0.335 0.853 -0.400 23 23 25 0 0
0.7746 3.9027 0.6654 -0.708 0.658 -0.257 57 57 57 0 0
0.8061 3.9255 0.6611 -0.605 0.785 -0.131 58 58 58 0 0
0.8224 3.9369 0.6589 -0.575 0.796 -0.189 56 55 51 0 0
0.8560 3.9473 0.6559 -0.418 0.850 -0.321 129 128 125 0 0
1.0810 1.7488 0.9238 -0.603 -0.718 -0.349 168 167 170 0 0
0.5199 3.0346 0.7959 -0.707 0.316 -0.632 23 24 26 0 0
0.7396 3.4701 0.7323 -0.782 -0.362 0.507 12 12 14 0 0
0.8029 3.9027 0.6767 -0.852 0.520 0.055 54 54 54 0 0
0.8170 3.9266 0.6731 -0.674 0.723 0.153 58 58 57 0 0
0.8290 3.9383 0.6711 -0.674 0.723 0.153 58 57 54 0 0
0.8428 3.9499 0.6690 -0.632 0.766 0.119 110 109 107 0 0
1.0406 1.7783 0.9362 -0.755 -0.635 -0.163 117 117 120 0 0
0.7513 3.4705 0.7444 -0.822 0.513 0.249 13 13 15 0 0
0.8540 3.9511 0.6811 -0.211 0.976 0.056 102 101 99 0 0
0.6869 2.5345 0.8744 -0.395 -0.696 0.600 24 25 27 0 0
0.5046 3.0535 0.8196 -0.539 0.842 0.030 24 25 27 0 0
0.5648 3.0809 0.8134 -0.974 0.035 -0.223 29 30 34 0 0
0.5719 3.1051 0.8102 -0.987 0.021 -0.157 35 36 40 0 0
0.4712 3.1724 0.8066 -0.715 0.679 0.167 38 37 41 0 0
0.8093 3.9060 0.7014 -0.939 0.252 0.235 48 48 50 0 0
0.7429 2.5361 0.8848 -0.535 0.634 0.559 21 22 24 0 0
0.7471 2.5485 0.8830 -0.554 0.711 0.434 20 21 23 0 0
0.5259 3.0260 0.8346 -0.542 0.388 0.745 23 24 28 0 0
0.5632 3.1083 0.8228 -0.844 -0.449 -0.292 36 37 41 0 0
0.5236 3.2533 0.8069 -0.639 0.459 0.618 27 28 30 0 0
0.9460 3.9621 0.7012 -0.142 0.975 0.172 172 171 169 0 0
1.0510 1.7657 0.9792 -0.783 -0.565 0.260 124 124 126 0 0
0.5759 3.0824 0.8381 -0.789 0.284 0.545 33 34 38 0 0
0.5318 3.2538 0.8190 -0.942 0.207 0.264 27 28 30 0 0
0.5238 3.2675 0.8177 -0.905 0.372 -0.206 27 28 30 0 0
0.4518 3.5745 0.7954 -0.509 0.840 -0.191 11 11 13 0 0
0.9440 3.9786 0.7251 -0.457 0.742 -0.491 172 171 169 0 0
0.5156 3.2222 0.8487 -0.919 0.178 0.351 27 27 29 0 0
0.5167 3.2346 0.8471 -0.991 0.087 0.101 26 27 29 0 0
0.5213 3.2464 0.8455 -0.976 -0.190 -0.106 25 26 28 0 0
0.9525 3.9800 0.7375 -0.346 0.704 -0.620 173 172 170 0 0
0.5682 3.2031 0.8616 -0.996 0.036 -0.077 26 26 28 0 0
0.5559 3.2177 0.8603 -0.983 -0.050 0.174 26 26 28 0 0
0.9556 3.9818 0.7501 -0.223 0.827 -0.515 172 171 169 0 0
0.5590 3.2189 0.8726 -0.985 0.164 -0.055 26 26 28 0 0
0.5443 3.2338 0.8713 -0.912 -0.062 0.405 27 27 29 0 0
0.4534 3.5813 0.8438 -0.980 -0.150 -0.134 12 12 14 0 0
0.6130 3.7486 0.8172 -0.659 0.714 -0.237 15 16 18 0 0
1.1447 1.9218 1.0405 -0.070 0.908 0.413 15 15 17 0 0
0.5747 3.1567 0.9052 -0.956 0.025 0.292 28 28 30 0 0
0.4783 3.2973 0.8908 -0.627 -0.240 0.741 33 33 35 0 0
0.4464 3.5838 0.8560 -0.843 -0.059 -0.535 12 12 14 0 0
0.4517 3.5954 0.8544 -0.956 -0.150 -0.253 13 13 15 0 0
0.4426 3.6085 0.8531 -0.997 -0.068 -0.033 13 13 15 0 0
0.5507 3.1624 0.9179 -0.963 -0.171 -0.206 26 26 28 0 0
0.5184 3.2054 0.9136 -0.707 -0.444 -0.551 23 23 25 0 0
0.4724 3.2502 0.9094 -0.576 -0.610 -0.544 28 28 30 0 0
0.4424 3.2672 0.9083 -0.563 -0.723 -0.401 30 30 32 0 0
0.4250 3.2946 0.9054 -0.720 0.205 0.663 32 32 34 0 0
0.4895 3.2974 0.9029 -0.324 0.807 0.494 34 34 36 0 0
0.4483 3.4267 0.8880 -0.949 0.259 -0.177 22 22 24 0 0
0.4384 3.5865 0.8683 -0.843 -0.059 -0.535 11 11 13 0 0
0.4448 3.5979 0.8666 -0.882 -0.018 -0.470 13 13 15 0 0
0.8000 3.9482 0.8112 -0.611 0.689 0.391 55 53 54 0 0
0.5720 3.0717 0.9414 -0.991 0.105 0.088 38 39 43 0 0
0.5957 3.1441 0.9315 -0.881 0.410 0.237 25 25 27 0 0
0.5195 3.2321 0.9228 -0.430 0.625 -0.651 25 25 27 0 0
0.4592 3.2788 0.9187 -0.913 0.371 0.169 31 31 33 0 0
0.4646 3.2904 0.9171 -0.809 0.581 0.091 33 32 36 0 0
0.5115 3.2959 0.9150 -0.179 0.984 -0.001 35 35 39 0 0
0.4469 3.4286 0.9002 -0.931 0.352 -0.102 23 23 25 0 0
0.4648 3.4386 0.8984 -0.620 0.736 -0.272 21 21 23 0 0
0.7875 3.9260 0.8271 -0.869 -0.067 -0.491 45 44 44 0 0
0.7874 3.9384 0.8255 -0.869 -0.067 -0.491 48 48 48 0 0
0.9378 3.9922 0.8141 -0.122 0.990 0.070 172 170 169 0 0
0.6255 2.9222 0.9715 -0.634 0.710 -0.306 32 33 37 0 0
0.6319 2.9339 0.9698 -0.744 0.544 -0.388 35 36 40 0 0
0.6365 2.9589 0.9665 -0.723 0.205 -0.659 41 42 46 0 0
0.5677 3.0742 0.9539 -0.923 0.193 0.332 36 37 41 0 0
0.4651 3.2921 0.9294 -0.874 0.473 -0.111 35 34 39 0 0
0.5085 3.2981 0.9273 -0.144 0.983 -0.117 36 35 40 0 0
0.4457 3.4305 0.9124 -0.947 0.278 -0.159 24 23 25 0 0
0.4820 3.5852 0.8918 -0.379 0.160 0.911 12 12 14 0 0
0.6249 2.9111 0.9858 -0.552 0.833 0.036 37 38 42 0 0
0.6291 2.9232 0.9841 -0.721 0.598 -0.349 40 41 45 0 0
0.6328 2.9355 0.9825 -0.910 0.152 -0.386 42 43 47 0 0
0.5241 3.1468 0.9586 -0.952 -0.302 0.046 22 22 24 0 0
0.4681 3.2685 0.9447 -0.782 0.086 -0.617 30 30 32 0 0
0.4427 3.2847 0.9434 -0.653 -0.712 -0.258 33 33 35 0 0
0.4440 3.4325 0.9246 -0.956 0.241 -0.169 45 41 44 0 0
0.6238 2.8350 1.0084 -0.365 -0.596 0.715 32 33 35 0 0
0.6097 2.8509 1.0067 -0.452 -0.135 0.882 34 35 37 0 0
0.6262 2.8606 1.0051 -0.392 0.699 0.598 36 36 39 0 0
0.6454 2.8958 1.0001 -0.351 0.660 0.664 42 43 46 0 0
0.6259 2.9256 0.9968 -0.819 0.135 -0.558 45 46 50 0 0
0.5201 3.2247 0.9615 -0.864 -0.001 0.504 24 24 26 0 0
0.5243 3.2366 0.9598 -0.920 0.143 0.366 29 29 31 0 0
0.4447 3.4341 0.9368 -0.953 0.019 -0.302 28 24 28 0 0
0.5366 3.6073 0.9124 -0.703 0.138 0.698 11 11 13 0 0
0.5377 3.6195 0.9108 -0.997 0.032 0.067 10 10 12 0 0
0.5401 3.6315 0.9092 -0.981 -0.012 -0.193 10 11 13 0 0
0.9985 4.0074 0.8495 -0.185 0.947 -0.261 173 171 169 0 0
0.8952 2.1767 1.0988 -0.301 0.366 0.881 21 21 23 0 0
0.6908 2.7968 1.0246 -0.464 -0.488 0.740 42 41 46 0 0
0.6512 2.8573 1.0178 -0.497 0.324 0.805 41 45 48 0 0
0.6480 2.9620 1.0045 -0.459 -0.759 -0.461 45 46 50 0 0
0.5135 3.1773 0.9803 -0.999 0.032 0.000 21 22 24 0 0
0.5272 3.2128 0.9754 -0.896 0.207 0.393 21 22 24 0 0
0.5281 3.2252 0.9738 -0.920 0.143 0.366 24 25 27 0 0
0.5294 3.2376 0.9722 -0.920 0.143 0.366 28 29 31 0 0
0.5511 3.2468 0.9705 -0.589 0.707 0.391 30 30 32 0 0
0.4909 3.2935 0.9660 -0.302 0.840 0.452 39 38 43 0 0
0.4409 3.4364 0.9490 -0.953 0.019 -0.302 26 26 28 0 0
0.4196 3.4636 0.9460 -0.536 0.730 0.425 19 19 21 0 0
0.4932 3.6015 0.9266 -0.829 -0.249 -0.500 11 12 14 0 0
0.5382 3.6089 0.9246 -0.995 0.084 -0.055 12 13 15 0 0
0.5392 3.6211 0.9230 -0.987 0.059 -0.150 14 15 17 0 0
0.5606 3.0697 1.0056 -0.676 0.172 -0.717 21 22 24 0 0
0.5627 3.1330 0.9975 -0.695 0.052 -0.717 18 19 21 0 0
0.5221 3.1902 0.9911 -0.743 0.598 0.301 19 20 22 0 0
0.5319 3.2138 0.9878 -0.920 0.143 0.366 22 23 25 0 0
0.5332 3.2262 0.9862 -0.920 0.143 0.366 24 25 27 0 0
0.5598 3.2473 0.9829 -0.589 0.707 0.391 29 29 31 0 0
0.4850 3.6041 0.9389 -0.829 -0.249 -0.500 13 14 16 0 0
0.4780 3.6171 0.9374 -0.952 -0.159 -0.263 15 16 18 0 0
0.9830 4.0120 0.8753 -0.172 0.919 -0.354 173 172 170 0 0
0.5933 2.8465 1.0464 -0.865 -0.233 0.445 52 53 57 0 0
0.5865 2.8609 1.0447 -0.800 -0.503 0.327 49 50 54 0 0
0.5748 2.8762 1.0429 -0.828 -0.421 0.370 48 49 53 0 0
0.5483 3.0736 1.0181 -0.676 0.172 -0.717 20 21 23 0 0
0.5163 3.1299 1.0116 -0.774 -0.390 0.499 18 19 21 0 0
0.5536 3.1362 1.0100 -0.795 0.517 -0.317 18 19 21 0 0
0.5174 3.1801 1.0051 -0.678 0.733 -0.052 19 20 22 0 0
0.5348 3.2025 1.0018 -0.805 0.491 0.333 36 37 39 0 0
0.5415 3.2267 0.9986 -0.939 0.232 0.254 25 26 28 0 0
0.5686 3.2477 0.9953 -0.589 0.707 0.391 31 31 33 0 0
0.5429 3.2893 0.9905 -0.270 0.912 0.310 41 40 45 0 0
0.4403 3.4522 0.9718 -0.759 0.459 -0.462 19 19 21 0 0
0.9642 4.0149 0.8884 -0.208 0.930 -0.303 173 172 170 0 0
0.6365 2.8525 1.0576 -0.927 -0.142 -0.347 57 56 61 0 0
0.6138 2.8701 1.0558 -0.829 -0.532 0.172 49 50 54 0 0
0.5488 3.1134 1.0257 -0.384 0.126 -0.915 39 39 41 0 0
0.5275 3.1550 1.0208 -0.948 -0.168 -0.270 20 21 23 0 0
0.5195 3.1815 1.0175 -0.713 0.699 -0.063 20 21 23 0 0
0.5394 3.2036 1.0143 -0.891 0.418 0.178 33 34 36 0 0
0.5636 3.2376 1.0094 -0.601 0.699 0.387 27 28 30 0 0
0.5486 3.6378 0.9581 -0.928 -0.156 0.339 14 15 17 0 0
0.8278 3.9615 0.9109 -0.797 0.604 -0.032 57 57 59 0 0
0.8369 3.9734 0.9092 -0.797 0.604 -0.032 51 51 54 0 0
1.0283 2.0037 1.1733 -0.387 -0.479 -0.788 15 14 19 0 0
0.5662 3.1122 1.0383 -0.302 0.247 0.921 19 19 21 0 0
0.5425 3.2048 1.0267 -0.891 0.418 0.178 24 25 27 0 0
0.5408 3.2177 1.0251 -0.944 0.286 0.167 25 26 28 0 0
0.5559 3.2280 1.0235 -0.784 0.488 0.384 26 27 29 0 0
0.4995 3.2617 1.0201 -0.427 -0.898 -0.106 35 35 38 0 0
0.5250 3.6175 0.9737 -0.683 0.561 0.467 13 14 16 0 0
0.5342 3.6288 0.9721 -0.444 0.760 0.474 14 15 17 0 0
0.5528 3.6391 0.9704 -0.329 0.782 0.529 14 15 17 0 0
0.8355 3.9505 0.9250 -0.763 0.486 0.425 52 52 54 0 0
0.8379 3.9628 0.9234 -0.884 0.465 0.051 54 54 56 0 0
0.8380 3.9752 0.9218 -0.811 0.586 0.000 56 56 58 0 0
0.9674 4.0185 0.9139 -0.130 0.986 -0.105 172 171 169 0 0
1.0377 1.9883 1.1891 -0.637 -0.722 -0.269 18 17 22 0 0
1.0975 2.0427 1.1811 -0.516 -0.776 -0.361 19 19 21 0 0
0.5381 3.2073 1.0392 -0.954 0.296 0.049 24 25 27 0 0
0.5543 3.2173 1.0376 -0.857 0.315 0.409 25 26 28 0 0
0.7175 3.3074 1.0232 -0.555 0.815 0.165 36 36 39 0 0
0.8409 3.9645 0.9360 -0.797 0.545 0.262 53 53 55 0 0
0.8393 3.9770 0.9344 -0.811 0.586 0.000 55 55 55 0 0
0.7302 2.9311 1.0849 -0.323 0.070 0.944 36 36 40 0 0
0.7610 2.9516 1.0818 -0.391 0.675 0.626 34 35 38 0 0
0.5378 3.1838 1.0549 -0.977 0.160 0.140 22 23 25 0 0
0.5402 3.1961 1.0533 -0.967 0.228 0.118 23 24 26 0 0
0.5441 3.2081 1.0516 -0.894 0.417 0.162 25 26 28 0 0
0.5293 3.2230 1.0499 -0.901 -0.349 0.257 26 27 29 0 0
0.5702 3.2924 1.0403 -0.356 0.922 -0.155 46 45 50 0 0
0.5285 3.2249 1.0623 -0.715 -0.694 0.079 27 28 30 0 0
0.5874 3.2916 1.0528 -0.167 0.986 -0.008 47 46 52 0 0
0.6166 3.6380 1.0072 -0.308 0.030 -0.951 12 12 14 0 0
0.6084 3.6636 1.0040 -0.336 -0.017 -0.942 12 12 14 0 0
0.8194 3.9570 0.9629 -0.423 0.131 -0.896 46 46 47 0 0
1.0311 2.0100 1.2283 -0.556 -0.724 0.409 27 28 30 0 0
0.9948 2.1205 1.2142 -0.285 0.019 0.958 25 25 27 0 0
0.6662 2.8553 1.1218 -0.669 -0.702 0.244 53 52 57 0 0
0.9117 2.9540 1.1060 -0.373 -0.155 -0.915 31 31 33 0 0
0.5902 3.1916 1.0786 -0.627 0.382 -0.678 26 27 29 0 0
1.0345 1.9964 1.2440 -0.602 -0.796 -0.065 31 32 34 0 0
0.9046 2.9437 1.1208 -0.346 -0.494 -0.798 35 35 38 0 0
0.5443 3.1881 1.0923 -0.689 0.515 -0.511 25 26 28 0 0
0.5737 3.1960 1.0910 -0.703 0.220 -0.676 27 28 30 0 0
0.5172 3.2302 1.0871 -0.718 -0.696 -0.031 31 32 34 0 0
0.5519 3.6482 1.0318 -0.252 0.036 -0.967 26 26 28 0 0
0.9582 4.0285 0.9778 -0.231 0.937 -0.263 173 172 170 0 0
1.0819 2.0707 1.2478 -0.561 -0.670 0.486 32 33 36 0 0
1.0505 2.1084 1.2431 -0.590 -0.428 0.685 35 35 39 0 0
0.8134 2.8160 1.1518 -0.767 -0.543 0.342 35 34 39 0 0
0.8014 2.8318 1.1498 -0.767 -0.543 0.342 36 36 39 0 0
0.5269 3.1926 1.1046 -0.733 0.673 0.105 26 27 29 0 0
0.5139 3.2325 1.0994 -0.694 -0.718 -0.053 34 35 36 0 0
0.5074 3.6300 1.0471 -0.335 -0.144 -0.931 24 24 26 0 0
0.5072 3.6422 1.0455 -0.303 -0.012 -0.953 19 19 21 0 0
0.5303 3.7010 1.0376 -0.530 -0.170 -0.831 13 13 16 0 0
0.9673 4.0300 0.9905 -0.329 0.767 -0.551 173 172 170 0 0
0.8193 2.8166 1.1650 -0.771 -0.539 0.338 31 30 34 0 0
0.8129 2.8312 1.1631 -0.821 -0.496 0.283 35 35 37 0 0
0.8569 2.9561 1.1463 -0.422 -0.683 -0.596 36 36 38 0 0
0.5366 3.1802 1.1188 -0.966 0.179 0.189 25 26 28 0 0
0.5346 3.1931 1.1171 -0.745 0.573 0.341 27 28 30 0 0
0.6728 3.2735 1.1056 -0.760 -0.634 -0.140 52 52 52 0 0
0.4948 3.6208 1.0609 -0.516 -0.353 -0.781 17 17 19 0 0
0.4768 3.6349 1.0591 -0.433 0.052 -0.900 18 18 20 0 0
0.5478 3.6767 1.0531 -0.531 0.839 -0.119 12 12 14 0 0
0.5703 3.6868 1.0516 -0.332 0.766 0.551 12 12 14 0 0
0.5709 3.6990 1.0500 -0.515 0.118 0.849 12 12 14 0 0
0.5632 3.7120 1.0484 -0.753 0.478 0.452 13 13 15 0 0
0.9490 4.0328 1.0033 -0.329 0.720 -0.611 173 172 170 0 0
0.8900 2.8580 1.1724 -0.967 0.239 -0.085 46 45 50 0 0
0.5770 3.1500 1.1353 -0.629 0.753 0.194 23 24 26 0 0
0.5284 3.1833 1.1312 -0.772 0.490 0.404 25 26 28 0 0
0.6767 3.2747 1.1183 -0.791 -0.595 0.142 53 53 53 0 0
0.5188 3.5710 1.0798 -0.543 -0.783 0.303 13 13 15 0 0
0.9365 4.0353 1.0161 -0.309 0.825 -0.474 172 171 169 0 0
1.0894 2.0451 1.2933 -0.546 -0.729 0.412 45 46 51 0 0
0.8402 2.8160 1.1916 -0.907 -0.294 0.301 29 28 32 0 0
0.8622 2.8250 1.1903 -0.689 0.721 -0.077 38 38 40 0 0
0.5647 3.1538 1.1477 -0.893 -0.429 0.135 24 25 27 0 0
0.5446 3.1951 1.1423 -0.676 0.560 0.479 27 28 30 0 0
0.6764 3.2766 1.1309 -0.743 -0.649 0.161 53 53 53 0 0
0.5418 3.5702 1.0924 -0.879 -0.475 0.045 13 13 15 0 0
0.5497 3.5817 1.0908 -0.262 0.863 0.433 14 14 16 0 0
0.5553 3.6795 1.0778 -0.217 -0.178 -0.960 12 12 14 0 0
0.5924 3.7129 1.0732 -0.074 0.295 -0.953 12 12 14 0 0
0.9624 4.0360 1.0289 -0.664 0.746 -0.057 172 171 169 0 0
0.8443 2.8170 1.2048 -0.907 -0.294 0.301 31 30 34 0 0
0.8711 2.8250 1.2037 -0.449 0.867 -0.215 40 40 42 0 0
0.9528 2.8359 1.2021 -0.616 -0.189 -0.765 44 43 49 0 0
0.9178 2.8967 1.1940 -0.871 -0.128 -0.475 51 52 56 0 0
0.5660 3.1426 1.1619 -0.875 -0.477 -0.089 23 24 26 0 0
0.5732 3.1541 1.1604 -0.817 -0.551 -0.171 24 25 27 0 0
0.6777 3.2782 1.1436 -0.790 -0.409 0.456 54 54 54 0 0
0.8468 3.3186 1.1379 -0.623 0.157 -0.766 20 20 22 0 0
0.8503 3.3441 1.1345 -0.402 0.465 -0.789 27 27 29 0 0
0.5707 3.5564 1.1067 -0.533 0.365 0.763 12 12 14 0 0
0.4997 3.6379 1.0960 -0.636 0.446 0.630 14 14 16 0 0
0.8478 3.9560 1.0528 -0.570 0.649 0.503 51 51 51 0 0
0.8659 3.9675 1.0513 -0.980 -0.082 0.184 53 53 53 0 0
0.9793 4.0371 1.0418 -0.274 0.956 0.104 173 172 170 0 0
1.0620 2.6504 1.2404 -0.504 -0.846 -0.176 169 170 167 0 0
0.8485 2.8179 1.2181 -0.970 -0.028 0.242 33 32 36 0 0
0.6843 3.2790 1.1564 -0.787 -0.286 0.546 51 51 51 0 0
0.8375 3.3217 1.1506 -0.744 -0.069 -0.664 20 20 22 0 0
0.8316 3.3355 1.1488 -0.523 0.159 -0.838 22 22 24 0 0
0.5559 3.5722 1.1172 -0.447 0.807 0.385 14 14 16 0 0
0.8481 3.9579 1.0655 -0.566 0.622 0.540 52 52 52 0 0
0.8409 3.9833 1.0621 -0.945 -0.173 0.278 52 52 52 0 0
0.9731 4.0393 1.0545 -0.129 0.991 -0.018 173 172 170 0 0
1.1312 2.6093 1.2598 -0.474 -0.857 -0.202 169 169 167 0 0
1.0477 2.6554 1.2535 -0.516 -0.831 -0.207 169 169 168 0 0
0.9167 2.9006 1.2204 -0.983 -0.179 -0.027 45 46 50 0 0
0.5874 3.1298 1.1892 -0.677 0.490 -0.549 22 23 25 0 0
0.5788 3.1440 1.1873 -0.885 -0.176 -0.432 24 25 27 0 0
0.6876 3.2803 1.1692 -0.859 -0.214 0.465 49 49 49 0 0
0.8203 3.9738 1.0762 -0.594 0.715 -0.369 48 48 48 0 0
0.8460 3.9849 1.0748 -0.873 0.238 0.426 48 48 48 0 0
1.0105 2.6791 1.2640 -0.633 -0.762 -0.139 84 84 87 0 0
0.9137 2.8895 1.2354 -0.952 0.303 0.041 51 52 56 0 0
0.9190 2.9020 1.2337 -0.977 0.208 0.036 41 42 45 0 0
0.5803 3.1328 1.2017 -0.596 0.543 -0.592 23 24 26 0 0
0.5721 3.1469 1.1997 -0.885 -0.176 -0.432 24 25 27 0 0
0.7105 3.2660 1.1841 -0.799 0.226 0.558 55 55 55 0 0
0.7010 3.2802 1.1821 -0.874 0.007 0.486 46 46 46 0 0
0.8328 3.3261 1.1763 -0.977 -0.176 0.117 25 25 27 0 0
0.8290 3.3396 1.1745 -0.892 0.192 0.409 29 29 31 0 0
0.5304 3.5539 1.1448 -0.797 0.274 0.538 11 11 13 0 0
0.8227 3.7372 1.1209 -0.248 0.651 0.718 18 16 20 0 0
0.8172 3.9634 1.0905 -0.329 0.780 -0.533 41 42 43 0 0
0.8487 3.9866 1.0874 -0.772 0.581 -0.259 49 50 49 0 0
1.1442 2.5961 1.2895 -0.465 -0.867 -0.178 169 169 169 0 0
0.9535 2.8702 1.2516 -0.861 -0.407 -0.304 57 57 60 0 0
0.9159 2.8909 1.2486 -0.894 0.443 0.065 48 49 53 0 0
0.9270 2.9023 1.2471 -0.975 0.200 0.093 38 39 41 0 0
0.7217 3.2661 1.1971 -0.792 0.376 0.480 53 53 53 0 0
0.7156 3.2799 1.1952 -0.914 0.040 0.404 44 44 44 0 0
0.8217 3.3424 1.1872 -0.878 0.212 0.429 28 28 30 0 0
0.8202 3.3556 1.1854 -0.930 -0.089 0.358 28 28 30 0 0
0.8878 3.3726 1.1834 -0.993 0.011 -0.119 23 23 25 0 0
0.8828 3.3863 1.1816 -0.936 -0.351 -0.039 21 21 23 0 0
0.8679 3.4012 1.1795 -0.562 -0.826 0.046 18 18 20 0 0
0.5195 3.5569 1.1569 -0.969 -0.124 -0.214 11 11 13 0 0
0.8413 3.9889 1.1000 -0.638 0.558 -0.531 59 60 58 0 0
0.9543 2.8719 1.2649 -0.859 -0.453 -0.240 52 52 55 0 0
0.9317 2.9032 1.2605 -0.846 0.498 0.192 32 33 35 0 0
0.6047 3.2089 1.2171 -0.338 0.736 0.587 53 53 53 0 0
0.6378 3.2165 1.2163 -0.201 0.748 0.633 54 54 54 0 0
0.7335 3.2662 1.2102 -0.868 0.360 0.341 51 51 52 0 0
0.7278 3.2799 1.2083 -0.927 0.094 0.364 41 41 42 0 0
0.5391 3.6428 1.1580 -0.407 0.778 0.479 14 14 16 0 0
0.8815 3.7995 1.1388 -0.860 -0.510 0.032 20 20 22 0 0
0.9574 4.0477 1.1056 -0.336 0.815 -0.473 173 172 170 0 0
1.0992 2.6098 1.3152 -0.523 -0.832 -0.186 169 169 169 0 0
0.6014 3.1345 1.2401 -0.998 -0.036 0.043 27 28 30 0 0
0.7349 3.2549 1.2247 -0.881 0.394 0.261 58 57 60 0 0
1.0874 2.6142 1.3283 -0.523 -0.832 -0.186 169 169 167 0 0
0.9268 2.9078 1.2868 -0.861 0.446 -0.243 25 26 28 0 0
0.5949 3.1374 1.2525 -0.985 -0.173 -0.020 27 27 29 0 0
0.5837 3.1648 1.2487 -0.966 -0.258 -0.007 32 32 34 0 0
0.5802 3.1781 1.2468 -0.966 -0.258 -0.007 43 43 44 0 0
0.6143 3.1854 1.2461 -0.475 0.844 0.251 52 52 52 0 0
0.7348 3.2696 1.2357 -0.883 0.361 0.299 47 45 47 0 0
0.8394 3.3585 1.2246 -0.971 -0.155 0.180 25 25 27 0 0
0.8409 3.7431 1.1722 -0.234 0.086 -0.968 13 13 15 0 0
0.8142 3.9836 1.1392 -0.485 0.843 0.232 60 60 61 0 0
0.9382 4.0524 1.1309 -0.358 0.809 -0.467 166 165 163 0 0
0.5832 3.1539 1.2630 -0.991 0.043 -0.124 27 27 29 0 0
0.5840 3.1665 1.2613 -0.991 0.043 -0.124 39 39 41 0 0
0.5849 3.1791 1.2595 -0.987 0.162 -0.012 48 48 49 0 0
0.7929 3.2500 1.2521 -0.966 0.214 0.141 52 52 52 0 0
0.7895 3.2635 1.2502 -0.991 -0.050 0.120 43 42 43 0 0
0.8488 3.3461 1.2396 -0.908 -0.332 0.256 27 27 29 0 0
0.8420 3.3600 1.2376 -0.960 -0.212 0.180 26 26 28 0 0
0.8374 3.3736 1.2357 -0.933 -0.227 0.280 25 25 27 0 0
0.8416 3.4119 1.2305 -0.992 0.015 0.124 15 15 17 0 0
0.8618 3.8067 1.1767 -0.330 0.442 -0.835 30 29 33 0 0
0.8546 3.9957 1.1508 -0.683 0.586 0.435 53 53 55 0 0
0.9565 4.0661 1.1423 -0.419 0.837 -0.352 174 173 171 0 0
0.7919 3.2519 1.2650 -0.991 -0.050 0.120 48 49 51 0 0
0.7910 3.2651 1.2631 -0.991 -0.050 0.120 38 38 40 0 0
0.8443 3.3616 1.2506 -0.898 -0.193 0.395 25 25 27 0 0
0.8446 3.3745 1.2488 -0.889 -0.102 0.447 25 25 27 0 0
0.8410 3.3880 1.2469 -0.979 0.012 0.205 23 23 25 0 0
0.4819 3.6068 1.2124 -0.404 0.853 0.329 13 14 16 0 0
0.5040 3.6167 1.2114 -0.613 0.753 0.240 15 15 17 0 0
0.8740 3.9966 1.1638 -0.885 -0.291 0.363 54 53 57 0 0
0.8044 3.2389 1.2801 -0.927 -0.368 -0.071 55 56 59 0 0
0.7923 3.2537 1.2779 -0.990 -0.135 0.049 45 46 48 0 0
0.8541 3.3491 1.2656 -0.827 -0.290 0.482 28 28 30 0 0
0.8498 3.3627 1.2637 -0.898 -0.193 0.395 25 25 27 0 0
0.4772 3.6091 1.2246 -0.324 0.896 -0.305 13 14 16 0 0
0.4955 3.6194 1.2234 -0.465 0.827 -0.314 15 15 17 0 0
0.8774 3.9983 1.1766 -0.875 -0.298 0.381 53 53 56 0 0
0.8558 4.0119 1.1744 -0.961 0.257 0.105 55 55 57 0 0
0.9487 2.8705 1.3463 -0.949 -0.273 -0.160 35 36 40 0 0
0.8015 3.2412 1.2929 -0.835 -0.531 -0.140 52 52 54 0 0
0.8682 3.3229 1.2826 -0.948 -0.264 0.175 33 33 35 0 0
0.8539 3.3640 1.2768 -0.865 -0.322 0.384 26 26 28 0 0
0.4947 3.5599 1.2441 -0.775 0.445 -0.449 12 12 14 0 0
0.5776 3.0980 1.3220 -0.977 -0.206 0.057 25 25 27 0 0
0.7993 3.2433 1.3057 -0.832 -0.552 -0.044 46 46 48 0 0
0.7898 3.2577 1.3036 -0.832 -0.552 -0.044 38 38 40 0 0
0.8029 3.2818 1.3004 -0.926 -0.371 0.065 22 21 24 0 0
0.8660 3.3381 1.2937 -0.948 -0.264 0.175 32 32 34 0 0
0.4891 3.5623 1.2562 -0.775 0.445 -0.449 12 12 14 0 0
1.0473 4.0699 1.1956 -0.161 0.960 0.227 175 174 172 0 0
0.5811 3.0863 1.3366 -0.988 -0.147 0.046 25 27 26 0 0
0.5748 3.1002 1.3345 -0.970 -0.122 0.211 26 26 28 0 0
0.8006 3.2710 1.3151 -0.925 -0.278 0.257 32 30 33 0 0
0.4658 3.5421 1.2711 -0.721 0.094 -0.687 11 11 13 0 0
0.4714 3.5538 1.2696 -0.784 0.238 -0.573 12 12 14 0 0
0.8404 4.0059 1.2138 -0.576 0.776 -0.259 51 51 53 0 0
0.5970 3.0725 1.3517 -0.963 -0.031 -0.268 25 26 27 0 0
0.5795 3.0884 1.3491 -0.970 -0.122 0.211 25 26 28 0 0
0.5843 3.1004 1.3476 -0.905 -0.403 0.137 26 27 29 0 0
0.7840 3.2102 1.3364 -0.765 -0.628 0.142 69 69 71 0 0
0.7603 3.2268 1.3336 -0.617 -0.787 -0.003 62 62 64 0 0
0.8079 3.2587 1.3301 -0.841 -0.480 0.250 36 35 38 0 0
0.4570 3.4958 1.2899 -0.943 0.332 -0.016 14 14 16 0 0
0.4594 3.5201 1.2866 -0.960 -0.130 -0.247 20 20 22 0 0
0.4546 3.5452 1.2830 -0.749 0.068 -0.659 12 12 14 0 0
0.4571 3.5572 1.2814 -0.749 0.068 -0.659 13 13 15 0 0
1.0520 2.6089 1.4394 -0.521 -0.820 -0.236 99 99 100 0 0
0.5890 3.0756 1.3640 -0.834 0.257 -0.489 25 26 28 0 0
0.8241 3.2582 1.3437 -0.876 -0.221 0.429 32 32 34 0 0
0.8265 3.2709 1.3420 -0.726 0.344 0.596 25 25 27 0 0
0.4595 3.4973 1.3023 -0.898 0.436 0.069 14 14 16 0 0
0.4574 3.5712 1.2919 -0.738 0.249 -0.627 14 14 16 0 0
0.7902 3.6992 1.2814 -0.070 0.975 -0.211 14 14 16 0 0
0.7759 3.2151 1.3618 -0.620 -0.780 -0.083 65 65 67 0 0
0.4612 3.4988 1.3146 -0.898 0.436 0.069 12 12 14 0 0
0.4572 3.5116 1.3128 -0.922 -0.285 -0.264 12 12 14 0 0
0.4677 3.5227 1.3115 -0.974 -0.192 0.122 12 12 14 0 0
0.4383 3.5628 1.3051 -0.790 -0.006 -0.614 13 13 15 0 0
0.4501 3.5737 1.3039 -0.816 0.148 -0.559 13 13 15 0 0
1.0125 4.0664 1.2482 -0.785 -0.607 -0.124 173 172 170 0 0
0.9341 2.8436 1.4312 -0.988 0.003 -0.152 32 33 37 0 0
0.6014 3.0641 1.3918 -0.650 0.309 -0.694 25 26 28 0 0
0.5952 3.0781 1.3897 -0.935 -0.281 -0.215 25 26 28 0 0
0.7723 3.2174 1.3746 -0.625 -0.779 0.041 62 61 64 0 0
0.8821 3.3583 1.3576 -0.857 0.272 -0.438 27 27 29 0 0
0.8162 4.0023 1.2654 -0.616 0.712 0.337 58 59 57 0 0
0.8363 4.0137 1.2644 -0.671 0.739 -0.053 53 53 51 0 0
1.0148 4.0682 1.2612 -0.789 -0.452 -0.417 164 163 161 0 0
0.9291 2.8465 1.4442 -1.000 -0.024 -0.015 29 29 31 0 0
0.9203 3.2893 1.3816 -0.676 -0.722 0.148 30 30 32 0 0
0.9282 3.3278 1.3764 -0.740 -0.563 -0.368 30 30 32 0 0
0.5119 3.5086 1.3397 -0.854 0.427 0.297 11 11 13 0 0
0.5202 3.5200 1.3383 -0.540 0.836 -0.099 11 11 13 0 0
0.4307 3.5794 1.3276 -0.508 0.099 0.856 13 13 15 0 0
0.8237 4.0037 1.2783 -0.599 0.590 0.541 53 53 53 0 0
0.9288 2.8483 1.4575 -1.000 -0.024 -0.015 24 24 26 0 0
0.6167 3.0521 1.4198 -0.956 0.073 -0.284 26 26 28 0 0
0.5614 3.6410 1.3351 -0.261 0.925 0.276 33 33 35 0 0
0.8458 4.0045 1.2918 -0.612 0.735 0.291 54 54 54 0 0
0.8490 4.0168 1.2901 -0.830 0.363 -0.423 55 55 55 0 0
0.9929 4.0730 1.2863 -0.208 0.922 -0.326 152 151 149 0 0
1.1237 2.5177 1.5238 -0.606 -0.715 -0.349 172 172 174 0 0
0.6071 3.0427 1.4339 -0.988 -0.090 -0.129 26 26 28 0 0
0.8017 3.1923 1.4185 -0.897 -0.394 0.202 69 69 69 0 0
0.7877 3.2075 1.4159 -0.820 -0.528 0.221 60 59 65 0 0
0.9488 3.2626 1.4130 -0.812 -0.580 -0.069 22 22 24 0 0
0.4508 3.5807 1.3529 -0.658 0.753 -0.008 14 14 16 0 0
0.4692 3.5910 1.3520 -0.549 0.827 -0.120 14 14 16 0 0
0.5957 3.6517 1.3472 -0.103 0.940 -0.326 30 30 32 0 0
0.8436 4.0190 1.3026 -0.830 0.363 -0.423 55 55 55 0 0
1.1095 2.5229 1.5366 -0.591 -0.755 -0.284 155 155 157 0 0
0.6007 3.0456 1.4462 -0.982 -0.151 0.111 26 26 28 0 0
0.8088 3.1799 1.4337 -0.964 0.264 -0.038 73 73 73 0 0
0.7952 3.1951 1.4311 -0.824 -0.567 0.024 66 66 67 0 0
0.5009 3.5276 1.3746 -0.499 -0.547 0.673 11 11 13 0 0
0.4839 3.5911 1.3650 -0.805 -0.013 -0.593 15 15 17 0 0
0.5874 3.6296 1.3628 -0.194 0.899 -0.393 17 17 19 0 0
0.6427 3.6614 1.3600 -0.103 0.940 -0.326 15 15 17 0 0
0.8389 4.0086 1.3169 -0.589 0.662 -0.463 54 54 54 0 0
0.8557 4.0203 1.3158 -0.925 0.315 0.211 53 53 53 0 0
0.8484 4.0331 1.3137 -0.817 0.570 -0.091 55 55 57 0 0
1.1216 2.5078 1.5532 -0.564 -0.783 -0.261 171 171 173 0 0
1.0920 2.5288 1.5492 -0.593 -0.764 -0.254 122 123 124 0 0
0.6036 3.0339 1.4610 -0.998 0.057 0.035 26 26 28 0 0
0.6018 3.0601 1.4572 -0.800 -0.583 -0.142 29 28 31 0 0
0.8140 3.1678 1.4489 -0.666 0.675 0.319 72 72 73 0 0
0.8072 3.1820 1.4466 -0.999 -0.039 -0.032 70 70 70 0 0
0.7947 3.1970 1.4441 -0.862 -0.506 0.037 62 62 63 0 0
0.6262 3.6274 1.3771 -0.129 0.938 0.321 17 17 19 0 0
0.8482 3.7070 1.3732 -0.309 0.600 0.737 17 17 19 0 0
0.9351 3.7379 1.3717 -0.126 0.445 0.887 28 27 30 0 0
0.9482 3.7496 1.3704 -0.130 0.426 0.895 29 28 30 0 0
0.8492 4.0100 1.3300 -0.598 0.178 -0.781 49 49 49 0 0
0.9504 4.0680 1.3251 -0.145 0.971 0.189 103 101 102 0 0
1.0708 2.5215 1.5635 -0.472 0.775 -0.421 167 167 169 0 0
1.0781 2.5338 1.5620 -0.612 -0.735 -0.294 99 99 101 0 0
0.8211 3.1685 1.4623 -0.600 0.672 0.434 70 70 71 0 0
0.8094 3.1835 1.4598 -0.932 0.265 0.249 67 67 67 0 0
0.8160 3.1956 1.4583 -0.864 0.362 0.350 57 57 58 0 0
0.9316 3.2839 1.4497 -0.768 -0.627 0.132 33 34 36 0 0
0.9673 3.7886 1.3788 -0.330 -0.771 0.545 37 37 39 0 0
0.9259 3.8046 1.3750 -0.333 -0.753 0.568 33 34 36 0 0
1.0727 2.5229 1.5774 -0.747 0.416 -0.519 144 144 146 0 0
1.0893 2.5331 1.5765 -0.873 -0.071 -0.482 89 89 91 0 0
0.9962 2.5824 1.5660 -0.543 -0.839 -0.035 31 32 37 0 0
0.8208 3.1704 1.4753 -0.892 0.190 0.409 71 71 72 0 0
0.8121 3.1849 1.4729 -0.851 0.347 0.394 63 63 63 0 0
0.8538 3.1916 1.4735 -0.980 -0.059 0.189 52 52 53 0 0
0.8428 3.2196 1.4691 -0.754 0.515 0.408 33 33 36 0 0
0.8235 3.2356 1.4661 -0.845 0.166 0.508 29 29 31 0 0
0.9279 3.2598 1.4664 -0.871 -0.478 -0.110 26 27 29 0 0
0.9286 3.2862 1.4627 -0.876 -0.378 0.299 34 35 37 0 0
0.4107 3.4454 1.4209 -0.970 0.012 0.242 16 16 18 0 0
0.4626 3.5251 1.4114 -0.929 0.341 -0.146 12 12 14 0 0
0.9785 3.7897 1.3923 -0.331 -0.722 0.608 21 22 25 0 0
0.9511 3.8046 1.3892 -0.334 -0.750 0.570 18 19 24 0 0
0.8550 4.0135 1.3557 -0.586 0.663 -0.466 54 54 54 0 0
1.0260 4.0813 1.3522 -0.102 0.989 -0.108 175 174 172 0 0
1.0614 2.5273 1.5902 -0.684 0.368 -0.630 121 122 124 0 0
0.8053 3.1878 1.4855 -0.846 0.359 0.395 58 58 58 0 0
0.8563 3.1930 1.4867 -0.980 -0.059 0.189 47 47 49 0 0
0.8533 3.2067 1.4846 -0.714 0.569 0.408 37 37 39 0 0
0.8587 3.2190 1.4831 -0.684 0.458 0.568 29 29 31 0 0
0.4176 3.4340 1.4353 -0.966 0.179 0.189 15 15 17 0 0
0.4511 3.4667 1.4319 -0.796 0.543 0.265 15 15 17 0 0
0.4489 3.5039 1.4265 -0.985 -0.115 0.128 13 13 15 0 0
0.5689 3.6263 1.4135 -0.439 0.897 0.049 18 18 20 0 0
0.5830 3.6373 1.4124 -0.314 0.941 0.126 15 15 17 0 0
1.0413 4.0826 1.3659 -0.195 0.945 -0.264 173 170 169 0 0
0.6761 3.0019 1.5205 -0.587 -0.404 -0.702 27 27 29 0 0
0.8138 3.1752 1.5009 -0.965 0.123 0.231 63 63 63 0 0
0.8573 3.1947 1.4999 -0.978 -0.139 0.157 42 42 44 0 0
0.8680 3.2063 1.4986 -0.821 0.543 0.177 35 35 37 0 0
0.8717 3.2189 1.4969 -0.886 0.309 0.344 28 28 30 0 0
0.9277 3.2503 1.4946 -0.970 -0.084 -0.229 22 23 25 0 0
0.9365 3.2755 1.4913 -0.944 -0.320 0.076 34 35 37 0 0
0.4290 3.4589 1.4447 -0.916 0.363 0.172 13 13 15 0 0
0.4546 3.4680 1.4444 -0.810 0.561 0.174 13 13 15 0 0
0.4769 3.5393 1.4350 -0.672 0.727 -0.141 13 13 15 0 0
0.4632 3.6023 1.4254 -0.433 0.662 0.611 15 15 17 0 0
0.8458 4.0177 1.3807 -0.786 0.603 -0.136 85 83 86 0 0
0.8650 2.6721 1.5891 -0.523 -0.805 0.281 33 34 38 0 0
0.6587 3.0069 1.5322 -0.587 -0.404 -0.702 27 27 29 0 0
0.8259 3.1751 1.5147 -0.968 0.233 0.091 60 60 60 0 0
0.8641 3.1955 1.5134 -0.821 0.543 0.177 38 38 40 0 0
0.8718 3.2076 1.5119 -0.821 0.543 0.177 34 34 36 0 0
0.8767 3.2200 1.5104 -0.893 0.376 0.246 27 27 29 0 0
0.9365 3.2376 1.5103 -0.955 -0.106 0.277 26 26 28 0 0
0.9278 3.2522 1.5078 -0.922 -0.382 0.057 32 33 35 0 0
0.4319 3.4603 1.4572 -0.916 0.363 0.172 13 13 15 0 0
0.4817 3.5405 1.4477 -0.516 0.854 -0.068 13 13 15 0 0
0.5482 3.6073 1.4408 -0.139 0.989 0.040 17 17 19 0 0
0.6001 3.6143 1.4419 -0.148 0.970 -0.194 18 18 20 0 0
0.6008 3.6266 1.4401 -0.186 0.967 0.175 20 20 22 0 0
0.8410 4.0074 1.3950 -0.846 0.482 0.230 78 76 79 0 0
0.8469 4.0196 1.3935 -0.983 0.173 0.059 74 72 75 0 0
0.8281 3.1766 1.5279 -0.971 0.236 0.047 57 56 58 0 0
0.8847 3.2075 1.5259 -0.779 0.599 -0.185 31 31 33 0 0
0.9253 3.2146 1.5266 -0.572 0.813 0.106 25 26 28 0 0
0.9435 3.2252 1.5259 -0.866 0.039 0.498 23 23 25 0 0
0.9387 3.2392 1.5236 -0.866 -0.171 0.470 25 26 28 0 0
0.9273 3.2541 1.5210 -0.852 -0.411 0.326 32 33 35 0 0
0.4482 3.4229 1.4759 -0.790 0.404 0.462 34 34 36 0 0
0.4469 3.4725 1.4686 -0.958 0.282 -0.047 13 13 15 0 0
0.4541 3.5332 1.4601 -0.979 0.168 0.116 12 12 14 0 0
0.5720 3.6066 1.4546 -0.134 0.878 0.459 19 19 21 0 0
0.5889 3.6172 1.4538 -0.125 0.983 0.135 18 18 20 0 0
0.6162 3.6269 1.4535 -0.145 0.953 0.265 17 17 19 0 0
0.6207 3.6513 1.4502 -0.157 0.576 0.802 22 22 24 0 0
0.8503 4.0213 1.4064 -0.886 0.351 0.302 55 53 57 0 0
0.6455 3.0649 1.5494 -0.924 0.309 -0.225 54 54 55 0 0
0.8229 3.1661 1.5426 -0.991 -0.119 -0.063 59 59 61 0 0
0.8267 3.1787 1.5409 -0.960 0.248 0.134 52 51 54 0 0
0.9278 3.2559 1.5342 -0.651 -0.546 0.527 29 30 32 0 0
0.4706 3.4217 1.4897 -0.531 0.838 0.124 16 16 18 0 0
0.4472 3.4742 1.4810 -0.962 0.273 -0.020 12 12 14 0 0
0.4557 3.5348 1.4726 -0.968 0.199 0.151 12 12 14 0 0
0.5945 3.6060 1.4684 -0.115 0.799 0.590 20 20 22 0 0
0.6044 3.6174 1.4672 -0.110 0.986 0.123 18 18 20 0 0
0.6435 3.6634 1.4622 -0.193 0.711 0.676 18 18 20 0 0
0.8782 4.0218 1.4206 -0.907 -0.373 0.196 55 54 59 0 0
0.8227 3.1680 1.5556 -0.983 -0.146 0.114 54 54 56 0 0
0.8224 3.1812 1.5537 -0.926 0.319 0.203 48 47 49 0 0
0.9467 3.2417 1.5506 -0.621 -0.522 0.584 25 26 28 0 0
0.4758 3.4228 1.5024 -0.513 0.826 0.235 13 13 15 0 0
0.4474 3.4759 1.4933 -0.962 0.273 -0.020 12 12 14 0 0
0.4465 3.5253 1.4861 -0.949 -0.272 0.158 12 12 14 0 0
0.4576 3.5363 1.4850 -0.979 0.168 0.116 13 13 15 0 0
0.7197 3.6199 1.4849 -0.137 0.716 0.685 16 16 18 0 0
0.8657 4.0369 1.4308 -0.743 -0.103 -0.661 60 59 64 0 0
0.7089 2.9523 1.5950 -0.568 -0.812 -0.135 26 27 29 0 0
0.8071 3.1591 1.5695 -0.850 -0.526 0.026 60 60 61 0 0
0.8043 3.1858 1.5654 -0.796 -0.553 0.245 42 41 43 0 0
0.4645 3.5373 1.4978 -0.959 0.277 0.062 13 13 15 0 0
1.0271 4.0949 1.4431 -0.157 0.987 0.026 147 146 144 0 0
0.7191 2.9258 1.6126 -0.404 0.204 -0.892 25 26 28 0 0
0.8113 3.1603 1.5828 -0.882 -0.441 0.168 56 56 57 0 0
0.8183 3.1723 1.5814 -0.818 -0.523 0.239 46 46 48 0 0
0.9466 3.2986 1.5692 -0.903 0.233 0.360 24 25 27 0 0
0.8660 4.0156 1.4601 -0.867 -0.411 -0.282 45 44 50 0 0
0.8350 3.1451 1.5996 -0.935 -0.241 0.259 59 59 59 0 0
0.8253 3.1599 1.5969 -0.945 0.078 0.317 50 50 51 0 0
0.9555 3.2594 1.5889 -0.890 -0.081 0.449 31 32 34 0 0
0.9490 3.3001 1.5826 -0.920 0.183 0.347 24 25 27 0 0
0.8583 4.0304 1.4705 -0.877 -0.100 -0.470 52 51 56 0 0
0.7053 2.9321 1.6375 -0.755 -0.589 -0.288 31 32 34 0 0
0.8394 3.1463 1.6130 -0.932 -0.247 0.265 53 53 53 0 0
0.9187 3.1869 1.6112 -0.418 0.840 0.347 24 25 27 0 0
0.9428 3.1965 1.6110 -0.668 0.710 0.224 22 23 25 0 0
0.9584 3.2609 1.6024 -0.887 0.177 0.427 30 31 33 0 0
0.9481 3.2889 1.5977 -0.996 -0.075 -0.048 24 25 27 0 0
0.9447 3.3026 1.5955 -0.999 -0.035 0.021 24 25 27 0 0
0.5804 3.6910 1.5190 -0.195 -0.232 -0.953 12 11 15 0 0
0.7964 3.8603 1.5054 -0.154 -0.499 -0.853 16 15 20 0 0
1.2099 2.4545 1.7489 -0.373 -0.879 -0.297 173 173 174 0 0
0.7099 2.8403 1.6646 -0.390 -0.243 -0.888 80 75 79 0 0
0.8290 3.1630 1.6233 -0.935 0.104 0.340 41 41 43 0 0
0.8289 3.1762 1.6214 -0.983 -0.006 0.182 33 34 37 0 0
0.9290 3.1739 1.6272 -0.883 0.461 0.088 26 27 29 0 0
0.9380 3.1858 1.6259 -0.751 0.625 0.212 22 23 25 0 0
0.9475 3.1977 1.6246 -0.751 0.625 0.212 22 23 25 0 0
0.9662 3.2616 1.6162 -0.970 0.159 0.185 29 30 31 0 0
0.9488 3.2907 1.6110 -0.957 -0.287 0.037 24 25 27 0 0
0.5912 3.0351 1.6424 -0.936 -0.265 0.233 55 55 55 0 0
0.8170 3.1667 1.6355 -0.929 -0.362 0.075 38 39 41 0 0
0.8323 3.2038 1.6308 -0.805 0.459 -0.375 21 22 24 0 0
0.9577 3.2913 1.6249 -0.824 -0.521 0.222 24 25 27 0 0
0.5705 3.6460 1.5506 -0.875 0.079 0.478 39 38 43 0 0
0.5729 3.6582 1.5489 -0.401 -0.418 -0.815 41 40 45 0 0
0.6122 3.6187 1.5698 -0.257 0.311 0.915 24 24 26 0 0
0.5635 3.6609 1.5607 -0.767 -0.139 -0.627 25 25 27 0 0
1.0030 4.0948 1.5215 -0.211 0.950 -0.229 87 86 83 0 0
1.0570 2.5102 1.7743 -0.371 -0.880 -0.296 92 92 94 0 0
0.5317 3.7274 1.5617 -0.386 0.911 0.147 29 29 32 0 0
0.5359 3.7393 1.5601 -0.778 0.409 0.477 38 37 42 0 0
0.8597 4.0147 1.5382 -0.594 -0.247 0.765 75 76 72 0 0
0.8345 4.0285 1.5346 -0.623 0.625 0.470 74 76 73 0 0
0.8384 4.0408 1.5330 -0.690 0.693 0.209 62 64 61 0 0
1.0002 4.0968 1.5343 -0.200 0.949 -0.242 85 85 83 0 0
0.6248 2.9301 1.6993 -0.823 0.162 -0.545 69 68 71 0 0
0.6194 2.9442 1.6968 -0.699 0.063 -0.713 70 69 73 0 0
0.6203 3.0482 1.6813 -0.808 0.169 -0.565 66 66 66 0 0
0.8308 3.1701 1.6759 -0.850 -0.206 -0.486 28 28 30 0 0
0.4638 3.5022 1.6039 -0.586 -0.256 0.769 12 12 14 0 0
0.6362 3.6073 1.5986 -0.076 0.952 0.296 21 22 24 0 0
0.8503 4.0296 1.5485 -0.682 0.447 0.579 59 59 61 0 0
0.8440 4.0425 1.5462 -0.690 0.693 0.209 58 58 58 0 0
0.5969 2.9503 1.7076 -0.855 0.258 -0.449 78 77 82 0 0
0.5987 2.9630 1.7058 -0.842 0.338 -0.421 99 99 98 0 0
0.5993 2.9889 1.7020 -0.962 -0.214 -0.173 73 70 75 0 0
0.6036 3.0011 1.7004 -0.835 0.126 -0.536 67 64 71 0 0
0.6108 3.0127 1.6991 -0.745 0.165 -0.646 65 64 69 0 0
0.6058 3.0266 1.6967 -0.861 -0.195 -0.470 70 70 70 0 0
0.6057 3.0526 1.6928 -0.919 0.020 -0.393 70 70 70 0 0
0.6314 3.0610 1.6932 -0.260 0.631 -0.731 67 67 67 0 0
0.7137 3.0728 1.6965 0.028 0.974 -0.224 63 63 63 0 0
0.8317 3.1717 1.6891 -0.974 -0.215 -0.068 27 27 29 0 0
0.6910 3.6286 1.6117 -0.525 -0.555 0.645 13 14 17 0 0
0.8927 4.0295 1.5642 -0.811 0.061 0.582 56 56 58 0 0
0.8850 4.0424 1.5618 -0.799 0.563 0.212 57 57 57 0 0
0.8865 4.0549 1.5600 -0.676 0.735 0.057 57 57 57 0 0
0.9921 4.1010 1.5596 -0.187 0.962 -0.199 81 80 80 0 0
1.0880 2.5227 1.8165 -0.471 -0.823 -0.318 74 75 79 0 0
0.6012 2.9903 1.7150 -0.872 0.089 0.481 84 82 85 0 0
0.5996 3.0554 1.7051 -0.938 0.010 -0.346 73 73 73 0 0
0.5999 3.0683 1.7032 -0.866 0.361 -0.347 69 69 69 0 0
0.5998 3.7143 1.6060 -0.221 0.501 0.837 14 15 19 0 0
0.9056 4.0434 1.5760 -0.780 0.425 0.459 57 57 57 0 0
0.8885 4.0568 1.5729 -0.757 0.628 -0.181 56 56 56 0 0
0.5861 3.0725 1.7147 -0.950 -0.079 -0.301 71 71 72 0 0
0.4724 3.4817 1.6455 -0.386 -0.762 -0.519 11 11 13 0 0
0.6441 3.7245 1.6201 -0.281 0.242 0.929 13 14 16 0 0
0.8965 4.0331 1.5901 -0.960 0.084 -0.268 52 52 55 0 0
0.8785 4.0466 1.5869 -0.774 0.498 -0.390 54 54 55 0 0
0.5551 3.0926 1.7226 -0.777 -0.321 0.542 72 72 74 0 0
0.5282 3.6010 1.6439 -0.645 0.749 -0.154 33 32 35 0 0
0.5704 3.6090 1.6455 -0.857 0.243 -0.455 32 31 36 0 0
0.6444 3.6514 1.6441 -0.485 -0.619 -0.618 11 10 15 0 0
0.6331 3.6650 1.6413 -0.542 -0.741 -0.397 12 11 16 0 0
0.6165 3.6915 1.6361 -0.702 -0.432 -0.566 12 12 14 0 0
0.6509 3.0126 1.7543 -0.549 -0.532 0.645 75 75 77 0 0
0.5550 3.0943 1.7353 -0.499 -0.503 0.706 82 82 84 0 0
0.5224 3.5787 1.6596 -0.824 0.309 -0.475 22 22 24 0 0
0.5430 3.5888 1.6595 -0.505 0.664 -0.552 23 23 25 0 0
0.5321 3.6024 1.6567 -0.584 0.811 0.022 30 30 32 0 0
0.5623 3.6116 1.6573 -0.788 -0.120 -0.603 37 36 41 0 0
0.5857 2.9873 1.7668 -0.154 0.729 -0.666 50 51 55 0 0
0.4806 3.5850 1.6684 -0.274 0.690 0.670 29 29 31 0 0
0.5477 3.5901 1.6724 -0.835 0.508 0.210 26 26 28 0 0
0.5519 3.6021 1.6708 -0.813 0.348 0.467 25 25 28 0 0
0.5568 3.6140 1.6694 -0.826 -0.027 0.562 24 23 28 0 0
0.8776 4.0272 1.6291 -0.362 0.384 -0.850 42 41 45 0 0
1.0307 4.1092 1.6275 -0.155 0.986 -0.060 136 135 134 0 0
1.0277 2.5459 1.8791 -0.834 -0.535 -0.135 60 62 67 0 0
0.4986 3.5105 1.6938 -0.494 -0.837 -0.234 15 15 17 0 0
0.5330 3.5935 1.6836 -0.612 0.539 0.579 34 34 36 0 0
0.5567 3.6034 1.6838 -0.849 0.500 0.172 29 29 31 0 0
0.5753 3.6139 1.6835 -0.527 -0.773 -0.353 29 29 31 0 0
0.5557 3.6283 1.6799 -0.525 -0.754 -0.396 27 27 29 0 0
0.4862 3.7214 1.6607 -0.577 -0.288 -0.764 43 41 48 0 0
1.1215 2.5545 1.8987 -0.771 0.622 0.139 46 46 54 0 0
1.1544 2.5613 1.9001 -0.441 0.778 0.448 45 45 53 0 0
1.1829 2.5692 1.9009 -0.234 0.948 0.213 44 45 51 0 0
0.5432 3.4694 1.7161 -0.528 -0.384 -0.758 13 13 15 0 0
0.4240 3.5334 1.6975 -0.910 -0.352 0.221 15 15 17 0 0
0.5543 3.6054 1.6961 -0.808 -0.264 0.526 24 24 26 0 0
0.4441 3.6905 1.6749 -0.867 0.470 -0.165 35 35 37 0 0
0.4810 3.7114 1.6744 -0.652 0.643 -0.403 22 20 26 0 0
1.2123 2.4064 1.9424 -0.382 0.824 0.419 113 111 114 0 0
1.0506 2.5443 1.9090 -0.610 0.792 -0.025 55 56 61 0 0
1.1627 2.5328 1.9192 0.017 1.000 0.009 47 48 54 0 0
1.1249 2.5556 1.9129 -0.771 0.622 0.139 45 45 53 0 0
0.4707 3.4678 1.7237 -0.548 0.822 0.155 12 12 14 0 0
0.4174 3.5360 1.7092 -0.885 -0.455 -0.095 16 16 18 0 0
0.4488 3.5693 1.7064 -0.649 0.730 0.212 34 34 36 0 0
0.5585 3.5819 1.7128 -0.284 0.957 0.058 36 36 38 0 0
0.5531 3.5949 1.7104 -0.647 0.615 0.451 33 33 35 0 0
0.4815 3.6764 1.6925 -0.697 0.019 -0.717 38 38 40 0 0
0.4490 3.6918 1.6877 -0.675 0.363 -0.642 33 33 35 0 0
0.4563 3.7033 1.6865 -0.675 0.363 -0.642 41 40 43 0 0
0.4759 3.7137 1.6863 -0.652 0.643 -0.403 44 42 46 0 0
0.5198 3.7465 1.6846 -0.296 0.533 0.793 34 32 37 0 0
0.8648 4.0335 1.6666 -0.735 0.332 0.591 80 79 80 0 0
1.1941 2.3982 1.9566 -0.677 0.458 0.577 162 162 163 0 0
1.0414 2.5201 1.9261 -0.493 -0.770 -0.406 68 70 75 0 0
1.1525 2.5513 1.9299 -0.944 0.275 -0.182 46 46 54 0 0
1.2079 2.5674 1.9316 -0.857 0.510 0.077 44 44 53 0 0
0.5079 2.9959 1.8118 -0.845 -0.349 0.406 26 27 30 0 0
0.4599 3.0559 1.7989 -0.965 0.260 0.039 33 34 36 0 0
0.4712 3.2946 1.7631 -0.432 0.607 0.668 26 26 28 0 0
0.4741 3.4691 1.7364 -0.598 0.791 0.133 11 12 14 0 0
0.5703 3.5949 1.7245 -0.901 0.160 -0.404 29 28 31 0 0
0.4468 3.7060 1.6979 -0.934 0.247 -0.259 34 34 36 0 0
1.0681 3.9611 1.7065 -0.375 0.121 0.919 61 60 63 0 0
0.9600 4.0054 1.6914 -0.375 -0.380 0.845 65 65 65 0 0
0.8405 4.0491 1.6755 -0.663 0.742 0.104 68 66 69 0 0
0.8561 4.0609 1.6748 -0.602 0.793 0.087 62 60 65 0 0
1.1490 2.5540 1.9434 -0.349 0.783 -0.515 46 46 54 0 0
1.2010 2.5565 1.9471 -0.805 0.480 -0.350 45 45 53 0 0
1.2096 2.5689 1.9458 -0.795 0.529 -0.296 44 44 52 0 0
0.5269 2.9941 1.8266 -0.906 -0.399 0.143 30 31 36 0 0
0.4790 3.4703 1.7494 -0.607 0.794 -0.009 11 12 14 0 0
0.4292 3.4889 1.7426 -0.970 -0.120 0.211 12 13 15 0 0
0.4408 3.4998 1.7418 -0.893 0.374 0.251 14 14 16 0 0
0.5534 3.5985 1.7354 -0.625 0.007 -0.780 26 24 27 0 0
0.5482 3.6115 1.7330 -0.712 -0.500 -0.494 20 19 21 0 0
1.0084 4.0049 1.7086 -0.362 -0.451 0.816 53 53 55 0 0
0.8953 4.0485 1.6929 -0.919 0.112 0.377 60 58 61 0 0
0.8697 4.0622 1.6888 -0.667 0.653 -0.360 60 58 61 0 0
0.9321 2.5214 1.9452 -0.596 -0.777 0.205 83 81 85 0 0
0.9703 2.5264 1.9475 -0.498 0.089 -0.863 73 73 78 0 0
1.1163 2.5632 1.9535 -0.405 0.715 -0.570 46 46 54 0 0
0.4447 3.4887 1.7565 -0.901 0.271 0.338 12 13 15 0 0
0.5470 3.6134 1.7454 -0.762 -0.267 -0.590 22 21 25 0 0
0.5341 3.6272 1.7423 -0.625 -0.771 -0.124 16 16 18 0 0
1.0324 4.0056 1.7237 -0.376 -0.555 0.742 57 57 59 0 0
0.9034 4.0500 1.7065 -0.983 0.070 -0.170 60 58 61 0 0
0.9034 4.0626 1.7046 -0.808 0.244 -0.536 62 60 63 0 0
0.9493 2.5331 1.9587 -0.453 0.044 -0.890 75 75 80 0 0
0.6134 2.9292 1.8697 -0.524 -0.601 0.603 41 42 45 0 0
0.4784 3.1344 1.8269 -0.997 -0.076 -0.006 41 42 47 0 0
0.4834 3.1462 1.8254 -0.704 0.680 0.204 43 42 46 0 0
0.4101 3.3462 1.7884 -0.877 -0.480 0.038 24 24 26 0 0
0.4256 3.3565 1.7881 -0.988 0.124 -0.088 22 22 24 0 0
0.4369 3.4543 1.7739 -0.854 0.520 -0.029 11 12 14 0 0
0.5228 3.6054 1.7575 -0.630 0.507 0.588 47 44 51 0 0
0.5182 3.7170 1.7398 -0.410 0.904 0.122 15 13 17 0 0
0.8991 4.0648 1.7171 -0.982 -0.103 -0.160 61 59 62 0 0
0.4424 3.3434 1.8043 -0.659 0.705 -0.264 27 27 29 0 0
0.4414 3.3560 1.8022 -0.805 0.489 -0.335 23 23 25 0 0
0.4410 3.3685 1.8002 -0.943 0.298 -0.145 19 19 20 0 0
0.4377 3.4560 1.7864 -0.908 0.418 -0.037 13 14 15 0 0
0.4366 3.4685 1.7843 -0.982 -0.118 0.147 13 13 15 0 0
0.4459 3.5662 1.7699 -0.414 0.869 0.270 25 24 28 0 0
0.8696 4.0554 1.7292 -0.914 0.380 -0.143 51 49 54 0 0
0.8683 4.0680 1.7272 -0.759 0.415 -0.502 56 55 59 0 0
1.0448 2.5849 1.9866 -0.211 0.846 -0.490 45 45 53 0 0
1.1010 2.6569 1.9801 -0.621 0.668 -0.410 62 62 67 0 0
1.0664 2.6924 1.9716 -0.675 0.734 0.073 72 73 78 0 0
0.6275 2.9432 1.8952 -0.569 -0.518 0.639 50 51 55 0 0
0.5103 3.0813 1.8636 -0.938 -0.347 -0.012 36 40 43 0 0
0.4500 3.2437 1.8332 -0.795 -0.413 0.443 36 35 41 0 0
0.4349 3.4333 1.8023 -0.950 0.313 0.020 27 28 33 0 0
0.4383 3.4701 1.7969 -0.982 -0.118 0.147 14 14 16 0 0
0.5001 3.5619 1.7879 -0.853 0.510 -0.107 38 37 42 0 0
0.5092 3.5733 1.7869 -0.965 0.123 -0.233 40 39 44 0 0
0.5118 3.5854 1.7852 -0.949 0.303 -0.087 33 31 35 0 0
0.5164 3.5973 1.7837 -0.886 0.454 -0.098 26 23 27 0 0
0.5178 3.6095 1.7819 -0.985 -0.139 -0.107 26 23 27 0 0
0.8661 4.0700 1.7398 -0.568 0.579 -0.586 52 52 56 0 0
1.1081 2.6573 1.9948 -0.742 -0.055 -0.668 62 63 68 0 0
1.1217 2.6685 1.9942 -0.645 -0.571 -0.507 68 69 74 0 0
0.6284 2.9710 1.9041 -0.467 -0.324 0.823 47 48 51 0 0
0.5104 3.0702 1.8784 -0.723 -0.397 0.565 54 56 60 0 0
0.5020 3.0845 1.8754 -0.781 -0.544 0.307 52 56 59 0 0
0.4116 3.3139 1.8317 -0.897 -0.408 0.171 83 83 84 0 0
0.4314 3.4107 1.8183 -0.981 0.165 0.103 41 41 41 0 0
0.4361 3.4349 1.8149 -0.969 0.184 0.163 12 12 19 0 0
0.4446 3.4462 1.8139 -0.932 0.140 -0.334 12 13 19 0 0
0.4642 3.4562 1.8140 -0.781 -0.068 -0.620 14 14 16 0 0
0.4950 3.5766 1.7979 -0.595 0.664 -0.454 54 53 58 0 0
0.5033 3.5881 1.7968 -0.537 0.773 -0.338 59 56 59 0 0
0.5149 3.5992 1.7961 -0.699 0.552 -0.454 52 48 52 0 0
0.5264 3.6104 1.7953 -0.807 0.321 -0.495 41 37 41 0 0
0.5280 3.6226 1.7935 -0.948 0.142 -0.285 34 31 35 0 0
0.5335 3.6345 1.7922 -0.969 0.248 0.018 25 23 28 0 0
0.6148 3.8006 1.7732 -0.157 -0.106 -0.982 29 26 33 0 0
0.6108 3.8132 1.7709 -0.166 -0.239 -0.957 28 25 31 0 0
0.8952 4.0455 1.7593 -0.181 -0.108 -0.977 44 43 47 0 0
1.0679 4.1274 1.7615 -0.120 0.979 0.163 127 125 125 0 0
1.1167 2.6573 2.0097 -0.731 -0.314 -0.607 63 64 69 0 0
0.5234 3.0826 1.8905 -0.835 -0.031 -0.549 55 59 62 0 0
0.5241 3.0953 1.8886 -0.835 -0.031 -0.549 54 56 58 0 0
0.4848 3.1148 1.8821 -0.810 -0.406 -0.423 54 55 58 0 0
0.4739 3.1676 1.8728 -0.868 0.210 -0.450 24 25 28 0 0
0.4322 3.3001 1.8484 -0.745 -0.359 0.562 43 42 47 0 0
0.4211 3.3143 1.8452 -0.764 -0.493 0.418 47 46 51 0 0
0.3966 3.3427 1.8385 -0.923 -0.345 -0.168 81 80 83 0 0
0.4315 3.4125 1.8307 -0.939 0.042 -0.341 23 23 23 0 0
0.4323 3.4248 1.8288 -0.978 0.050 -0.201 17 18 21 0 0
0.4354 3.4368 1.8272 -0.985 0.172 0.014 14 14 20 0 0
0.4389 3.4487 1.8257 -0.989 0.015 0.145 16 17 22 0 0
0.5069 3.5895 1.8096 -0.725 0.628 -0.283 41 40 45 0 0
0.5094 3.6016 1.8080 -0.718 0.323 -0.616 51 51 56 0 0
0.5161 3.6133 1.8067 -0.822 0.033 -0.568 58 57 63 0 0
0.5251 3.6247 1.8057 -0.696 0.393 -0.601 57 56 62 0 0
0.5391 3.6357 1.8052 -0.696 0.203 -0.689 52 50 55 0 0
0.5032 3.6640 1.7976 -0.995 -0.093 -0.042 37 35 40 0 0
0.4998 3.6767 1.7953 -0.996 -0.034 0.085 27 25 31 0 0
0.5295 3.7969 1.7791 -0.361 0.413 -0.836 50 47 55 0 0
1.0756 4.1291 1.7753 -0.175 0.984 -0.018 145 143 142 0 0
0.9400 2.5723 2.0213 -0.299 0.553 -0.777 56 57 63 0 0
0.5147 3.0986 1.9002 -0.727 0.177 -0.664 52 53 58 0 0
0.4717 3.1316 1.8912 -0.810 -0.406 -0.423 55 56 61 0 0
0.4711 3.1698 1.8851 -0.981 -0.068 -0.183 35 36 38 0 0
0.4473 3.4743 1.8351 -0.923 -0.309 -0.229 18 17 21 0 0
0.4321 3.5132 1.8276 -0.967 0.172 0.188 17 18 20 0 0
0.5112 3.5908 1.8226 -0.786 0.569 -0.241 26 24 30 0 0
0.5036 3.6040 1.8198 -0.554 0.424 -0.717 19 16 23 0 0
0.5208 3.6146 1.8197 -0.796 -0.166 -0.582 23 21 28 0 0
0.5304 3.6260 1.8188 -0.754 -0.219 -0.619 32 29 36 0 0
0.4921 3.7773 1.7915 -0.741 -0.617 0.264 47 45 50 0 0
