ply
format ascii 1.0
element vertex 732
property float x
property float y
property float z
property uchar diffuse_red
property uchar diffuse_green
property uchar diffuse_blue
end_header
1.6919866758595268 3.7385233962843865 0.9256653777182136 64 63 68
1.7122235345153618 3.608460641257565 0.9200333329639687 39 38 42
1.7123580773720735 3.5686158375383967 0.9198383003163386 52 50 53
1.7097068875306094 3.5358492000713984 0.9203747880629529 71 71 73
1.7070715980463809 3.503285508671661 0.9209080842508536 64 65 68
1.6853077281443207 3.517036716124215 0.9264552055380001 48 48 53
1.6672017260984442 3.5218361706199914 0.9310431720231347 38 37 42
1.544419689390496 3.2485970144614162 0.9609192710799479 33 33 35
1.5537782634350752 3.121602970423054 0.958044475417311 33 33 35
1.3536730488384 2.7185439647226177 1.006906166418934 42 41 45
1.3493671508794944 2.6961191889378573 1.0079019853384992 44 44 47
1.340286500102153 2.6832833490516252 1.01014135097987 44 44 47
1.3346253468776972 2.663758113274127 1.0114908544081929 43 43 46
1.354590080419145 2.5638061533430943 1.0060492048877285 39 39 42
1.3262980217303708 2.558939446301088 1.0131682708519805 40 40 43
1.3253659006653697 2.5309129573669136 1.0132901612170058 38 38 41
1.296094554097341 2.55765071384951 1.0207840945389954 37 36 41
1.2860347362572089 2.4301045292380814 1.0228067762839164 45 44 49
1.223027484544144 2.2641374563843364 1.0380339929832094 48 48 51
1.2455000012289903 2.195888031587697 1.0320877385968221 47 47 49
1.2555623374258809 2.150501265851821 1.029365288952098 44 45 47
1.2383087427775277 2.047643961474803 1.0333029391246025 30 31 32
1.2282657041670815 2.0390375387668787 1.035802236151609 26 28 27
1.133578675964531 1.919127492237267 1.0592091926179819 25 26 28
1.0732488772214208 1.9199360510083743 1.0744350656618393 28 28 31
1.035278700840602 1.8341344959967127 1.0836689416682763 19 19 21
1.051780604213995 1.782886452126278 1.0792979442727455 18 18 20
1.0377895257294059 1.7814320483661816 1.0828223372606645 17 17 19
1.0324856679727135 1.7659069859648389 1.0840978586557022 26 25 27
1.0246913049846826 1.7544656088814758 1.0860183016513432 30 28 31
1.0169653539198245 1.7429574833157702 1.0879212128853424 28 26 30
1.0016133799910756 1.7436902880596046 1.0917978337193794 18 17 21
0.9872411598315416 1.742818846471185 1.0954207543677321 23 21 25
0.9750989642349918 1.7383742389044454 1.098466542640437 17 15 20
0.9615449991644862 1.7361576877256932 1.1018775605937818 17 16 19
0.9482109332146171 1.7335724502582122 1.1052316023876294 16 15 17
0.9329283457564712 1.7340302743324219 1.1090896037191202 15 15 16
0.9181932497085562 1.7335901842675032 1.1128058302165367 16 16 18
0.9003100878936373 1.738029109209204 1.1173361114079905 14 14 16
0.8996314534575265 1.7156421157127726 1.1174168405548015 10 10 12
0.8704070679643242 1.737615983504729 1.1248796650857809 12 12 14
0.8381815799505467 1.7640361792140997 1.133117712817927 13 13 15
0.8249042581657409 1.7610717992176346 1.1364559039504087 14 14 16
0.8034473696527354 1.7706372983592917 1.1419086447693272 18 18 20
0.7938264431046766 1.7620070967813446 1.1443013370225597 27 26 29
0.7800978143011116 1.7596565762435692 1.1477558850666858 34 33 38
0.7600240461131825 1.7669180334829253 1.1528503178542908 39 39 41
0.7472561666943698 1.7630392225228015 1.156056268032849 37 37 39
0.6864177576142352 1.808298164275253 1.1715901790178742 38 38 40
0.52616761935805 1.9301869361848973 1.2125177682736676 168 167 166
1.699279706325648 3.729877783155078 0.9398214365437831 71 70 75
1.716198512304219 3.6079099761867006 0.9348587985781642 37 37 42
1.714237519804766 3.573150828304967 0.9351607647132825 51 49 52
1.709031235740999 3.546549090833498 0.9363294919191294 72 72 74
1.7098655879781717 3.505500652857515 0.9358889890916845 64 66 68
1.689215909027659 3.5165723981918733 0.9411759793892204 48 50 53
1.6740428897186508 3.5143415590321947 0.9450028396781265 39 38 42
1.6515008917061205 3.529682825434968 0.950792513961539 36 35 39
1.3473289233595014 2.7069513739576987 1.023161620753483 32 31 35
1.3577425095208024 2.594406430142339 1.0198976958384873 29 29 31
1.3472867898143437 2.5846725387516436 1.0224889800203791 30 30 32
1.3360781614721615 2.5764389522401663 1.0252791613027727 25 25 27
1.3209860716718644 2.5757712145041802 1.02909427819122 28 28 30
1.3180246997356644 2.5515839889297327 1.0297084533363483 31 31 33
1.3078542928657786 2.5414400963173085 1.03222525186843 26 26 29
1.2735603596494314 2.489082587228838 1.0406102885239645 29 28 32
1.2661049898272898 2.474022003378382 1.0424126090342667 31 30 34
1.2644924736507845 2.448030208770203 1.0426753905091892 33 33 36
1.2559421693305062 2.4352103530665876 1.0447672906501684 33 34 36
1.2474549318896004 2.4223275822772474 1.0468428810007098 37 38 40
1.2246255707116331 2.4361986952281836 1.0526970533156512 40 41 45
1.256662372568122 2.3481758120984884 1.0440986983527965 41 42 46
1.2436975285700362 2.3157852704952244 1.0471982755128686 48 49 53
1.2099609448929338 2.29379627909617 1.05561198368543 51 51 53
1.2334367429079192 2.223562859852808 1.0492792830932134 50 50 52
1.2411854198691143 2.1822142161832265 1.0470875267784616 48 48 51
1.0621355216883668 1.9436873859735768 1.0910607671712556 25 25 27
1.056857651881834 1.8038708298687196 1.0916149564343134 21 21 23
1.052454199869541 1.7867544025296662 1.092633542426169 18 18 20
1.0437105442253118 1.776767640262203 1.094790199002076 14 14 16
1.0342883932251137 1.767911349479564 1.0971248567562113 23 23 25
1.0274260831314734 1.7549535252105661 1.0987888619175985 36 34 37
1.0191055058552312 1.7443918563269645 1.1008352516459223 42 40 42
1.0066465407545617 1.740490918280962 1.1039660247756298 20 18 20
0.9911677880800734 1.7413963300263422 1.107887772311587 21 19 21
0.9800187512174835 1.7353763851865667 1.1106752447529027 38 36 39
0.9761814717430672 1.7177809050886843 1.1115478914994366 55 51 55
0.9586281359801854 1.7219185087955144 1.116012645794248 37 35 38
0.9410255714933706 1.7260673760796215 1.120489919690322 30 29 31
0.9225561512068106 1.7315086584911956 1.1251937617670176 25 25 28
0.9127230906866802 1.7233866161603573 1.1276364976195903 17 17 19
0.901570573319094 1.7173373524643778 1.1304246869197336 14 14 16
0.8762675664465982 1.7332399896777693 1.1369161339545846 15 15 17
0.8358291755628112 1.7723889284540817 1.147367286090798 16 16 18
0.8302944239358891 1.7574692542519026 1.1486844076767189 15 15 17
0.8073549041453 1.769330834608645 1.1545552247333868 16 16 18
0.797338923191315 1.761304750482969 1.1570447823368617 26 26 29
0.7867106468133568 1.7542300223302218 1.159694589216223 34 33 38
0.7824034237000431 1.737563762794489 1.160691341359619 38 38 40
0.5738267060099753 1.88769641906271 1.2143077966076246 82 82 83
0.5637096481678359 1.87932459562288 1.2168209983305078 166 165 163
1.6967094796915545 3.7456888277554112 0.9566261573594557 81 80 85
1.717125205933099 3.57522991596269 0.9502295851563451 53 51 55
1.7141828415087272 3.5430784974796428 0.950746837097757 72 72 74
1.7110850750221116 3.5115401305549154 0.9513078959274288 65 68 69
1.6933553146984877 3.5155507078935244 0.9558354358149187 49 52 53
1.6764322364132305 3.5175301020126937 0.9601437893072182 38 39 41
1.6570672903853665 3.5252761959037446 0.9651129074265488 34 34 37
1.3644044703540297 2.6183213696188226 1.0329057598248221 20 21 23
1.3543550303323562 2.607693206995159 1.0353799829025463 18 19 21
1.335968142104225 2.5832093700740035 1.0398709854564065 16 17 19
1.326798112693055 2.5709986461396044 1.0421107677975927 15 16 18
1.3190474457228976 2.5560892106904074 1.0439711338019733 14 15 17
1.2753598726619706 2.4919815605977367 1.0545995042919003 16 16 18
1.2731226031166054 2.467025385302242 1.0549891703465588 17 17 19
1.265464070332336 2.4524365725437676 1.0568284446675524 18 18 20
1.2345095168887998 2.4816556572675514 1.0648916180575556 20 20 22
1.2348037670664949 2.4521607724328973 1.0646065309626858 21 21 23
1.237936749092196 2.4175601538689593 1.0635646903833997 23 22 27
1.2291775416649853 2.4052526002658996 1.0656995358222223 27 26 31
1.2280930913445893 2.3788066098081124 1.0657860453525427 27 26 32
1.2097741763129424 2.384260858460202 1.0704733826600967 30 29 34
1.214564993396925 2.347230515064786 1.0689935322950812 35 34 39
1.2078952790919528 2.3313856460112024 1.070572932963439 39 40 42
1.2066467827553427 2.3057473564657176 1.0707068314446386 46 47 49
1.2054290574185043 2.2802048169846993 1.0708336048785414 50 51 53
1.2120922284685967 2.2405719452062876 1.0688600777339445 50 50 52
1.2236146405989312 2.1924481850440793 1.0655929425396995 51 50 53
1.2340773830230944 2.1465451555735022 1.0626105416385092 50 49 54
1.1776575478135234 2.1129093857482486 1.0766871155861673 34 34 38
1.0534952168467688 1.863473029431195 1.1064137971915566 21 21 23
1.0668463045399643 1.8169309365665725 1.1026939193177756 21 21 23
1.0612385734186218 1.8017043325631557 1.1040082524849946 21 21 23
1.0648489517866804 1.7715184977511458 1.1028767683071945 19 19 21
1.0426249395079505 1.783480653721997 1.1086014527111003 16 16 18
1.0337265246191834 1.7737476099822223 1.1107899890057051 20 20 22
1.0261350879591884 1.7619372624912661 1.1126320596840684 36 34 37
1.0196296360055492 1.748426951981728 1.1141864338739496 59 57 59
1.0089562175350357 1.7416503083923598 1.1168464688581372 44 42 43
0.9902730325863293 1.7476682445776 1.1216302611147129 16 14 15
0.9824059075669199 1.736403403449431 1.1235461794589374 22 20 21
0.949628226167443 1.7646612542396036 1.1320651140909395 35 31 31
0.9387339059930364 1.7581219008064939 1.1347828957613473 53 49 51
0.9142430436030867 1.7729895898527446 1.1411035220492267 45 42 47
0.8913312167233445 1.7852395882896013 1.1470047929646114 33 31 35
0.853478384131356 1.79695787019651 1.1566935516775887 17 17 19
0.8662717554150762 1.7534688243157475 1.1531369752898475 16 16 18
0.8346200014326242 1.778986088077822 1.161350653994547 16 16 18
0.8329642108843078 1.7580557330836932 1.161621490544746 16 16 18
0.8033103966465897 1.7568383557921212 1.1691374628272497 27 27 30
0.7911824552187293 1.7520630705678601 1.1721808611057112 34 33 38
0.7868819058547923 1.7353839249873906 1.1731531341617596 38 38 40
0.7545306404027234 1.7612798153471605 1.1815470151271965 36 36 38
0.5678011478776396 1.8778802482163297 1.2297614812991304 161 160 158
1.7018756048639643 3.7423190693212884 0.9713568539818037 73 72 77
1.710208566887279 3.6812119682950812 0.9687059394746909 71 70 76
1.7172462777350928 3.5840927531537243 0.9660719962872885 56 55 58
1.71545119547588 3.549071754393519 0.9662247606102907 72 73 74
1.712619689892288 3.516829177468991 0.9666653771233686 67 70 70
1.7088382836177045 3.4871185772340687 0.9673696895160279 49 52 53
1.6792534032212898 3.519688368515673 0.9751807198635138 38 39 40
1.6622376124667764 3.5218105022007116 0.9795290500283029 34 35 37
1.5909097597369364 2.9937770493997897 0.9930955333520157 33 33 35
1.3669629646234727 2.6505695649225003 1.0471025443095854 23 23 25
1.351006923054857 2.6514907866881496 1.0511707811603108 18 19 21
1.3418485888581388 2.638967751183678 1.053392535056807 21 21 23
1.3321033836863139 2.627649636464728 1.055774086543102 19 20 22
1.3251689938038567 2.6108822351195626 1.0573930808376613 20 21 23
1.3151309090478955 2.6002431364180443 1.0598550542459497 14 15 17
1.31223744747013 2.575789998982168 1.0603790569857598 12 13 15
1.3155788349671855 2.53944307043583 1.0592132636995322 14 14 16
1.3233183394074444 2.494876044983632 1.0568569483528922 16 16 18
1.3144002473434806 2.4825307938267382 1.0590191126106658 16 16 18
1.2881907107583315 2.4739144126507506 1.065613699205642 14 14 16
1.2685063474327156 2.482050046662536 1.0706932888750074 15 15 17
1.250047973957773 2.4877654645836387 1.0754398980882116 15 15 17
1.2476956734870617 2.4631273187941534 1.0758245886871576 15 15 17
1.1875888671505963 2.290724170804726 1.0896229693245199 43 44 45
1.1993403019797921 2.2419615084198616 1.0862093391382306 51 51 52
1.2145328726554587 2.1873475432113816 1.081869267880896 52 52 54
1.2223470747448255 2.1462954869567628 1.0795244583498813 51 51 54
1.1830579937061052 2.0561653285460753 1.0887396927638593 31 31 36
1.1688972776022784 1.9767435306016754 1.0916536205609975 23 23 25
1.1462165334936039 1.9134598448464197 1.0968756856085524 23 24 26
1.1316987343449996 1.8876253657108217 1.1003456733565158 23 23 25
1.091903580763003 1.929427206879697 1.1108349956693224 22 22 24
1.0557277330765045 1.8648748722856923 1.1194800667965132 22 22 24
1.0688126022032314 1.818732381105244 1.115749871343096 22 22 25
1.0756202912714081 1.7831597418829679 1.1137087504258552 22 22 25
1.0650797366181075 1.776108365634332 1.1163297296425156 20 20 23
1.0420696921986967 1.7893422288384149 1.1222998438107785 17 17 19
1.0367759762398507 1.773742897695965 1.1235114855981396 14 13 15
1.0266887358821213 1.7659543427994508 1.1260107131055812 18 17 19
1.0172558199369481 1.7571304905420195 1.128334451057789 42 40 42
1.0115903097676924 1.742292378958406 1.1296473093205255 62 60 62
0.9975329141777017 1.7409251444266305 1.1332125426985598 53 52 52
0.9877198542708173 1.7327745196425923 1.135638857972801 39 39 38
0.9731869432358987 1.7321295126871348 1.1393313626641492 49 45 43
0.9585232639456144 1.7316582681752974 1.143058651624649 78 75 75
0.9342046072008883 1.7463591444719622 1.149374495882563 70 67 70
0.9051945663695871 1.7682829891592609 1.1569468320187888 33 32 35
0.8847219790497338 1.7766641382132367 1.1622291277254317 21 21 23
0.8610283431956313 1.7899697098932874 1.1683738138749475 19 19 21
0.8795592674540614 1.7375645548064595 1.1632034263275663 17 17 19
0.8387261708400574 1.7773665429377785 1.1739395070142642 16 16 18
0.8329180529973044 1.7628331264836024 1.1752912988884587 16 16 18
0.7961707090298404 1.772450358295641 1.1847256663192227 28 27 30
0.7803090389681995 1.7733189828083116 1.1887694324096132 34 33 38
0.7916060784669661 1.7328283130172428 1.1855432392463525 38 38 40
0.7559547944684342 1.7637549740517007 1.1948836873658022 36 36 38
0.7324784045711893 1.7760382867134508 1.2009642179200741 33 33 35
0.6901938429298645 1.8165206893420784 1.2120755510642376 36 36 38
0.5884979252456883 1.8986042206545655 1.2386660833103564 48 48 51
0.574835166985244 1.8954625448655573 1.242115491613337 73 73 74
0.5673487435990202 1.883161466424798 1.2439137310643922 158 157 155
0.560824765039026 1.869486003242125 1.2454551317378135 172 170 170
1.6869203143445255 3.871466424617755 0.9925683253615805 96 95 97
1.7192171886693477 3.5884397809190896 0.9814318338125073 59 60 63
1.71812166519026 3.551656762719602 0.9813351416492099 73 75 74
1.7173054607456035 3.5144739471260085 0.9811630838241636 68 69 67
1.7161786651447364 3.4783243411877276 0.9810808506826596 53 53 51
1.6890063846154704 3.505161729868229 0.9882891469165774 40 42 41
1.6685440641373623 3.5156159912420586 0.9936176258176792 35 36 38
1.6435292304869735 3.5367826695043534 1.0002173834106598 33 32 37
1.5910765722356506 3.0011525625883273 1.008123320036604 33 33 35
1.3391230213321001 2.6817233261591356 1.069149071913877 31 31 33
1.3292685262343358 2.6704433046056506 1.0715483461270627 38 38 40
1.318386731736458 2.6612240601255532 1.0742308443449837 36 37 39
1.3089964548915933 2.64911444494717 1.0765031742899223 36 37 39
1.2982436349077542 2.6397091781989435 1.0791508581993396 23 24 26
1.294547889103279 2.616637912426612 1.0798579416788183 15 16 18
1.2903783075521804 2.5946185474389356 1.080696697540102 17 17 19
1.2801541777666412 2.5249567664965875 1.082593119129313 18 18 20
1.2686379617931238 2.517436289918228 1.0854548844307592 13 13 15
1.2614133369418166 2.5017955569083807 1.0871384674345617 15 15 17
1.2493943881017022 2.495283340131081 1.090138832646689 14 14 16
1.2353954710384827 2.492500800704487 1.0936825933191345 15 15 17
1.2323058632783543 2.4692579158057266 1.094233247941057 15 15 17
1.2107035623652562 2.480697971138846 1.0998627088355202 16 16 18
1.1768041725607143 2.2608805143464896 1.1062646352028054 42 42 44
1.1948850833204436 2.201148113468118 1.1010397845451476 50 50 52
1.2028934293121412 2.1597795695380357 1.0985730761533634 52 51 56
1.1865002834827099 2.029463506474745 1.1014232773936805 34 33 39
1.160037176290814 1.9205626074695838 1.1070621677826615 23 24 26
1.159813618029061 1.8956228437467353 1.1068641111432276 24 25 27
1.1357629385831602 1.8859801231278257 1.1129026940709918 24 24 26
1.12000014382936 1.8874334768355552 1.1169398865258524 22 22 24
1.0652959426806405 1.8541725500286195 1.1305590033189605 26 26 29
1.0787076298305305 1.8074983404512133 1.1266592078098068 26 25 29
1.0763402987604573 1.7869759544591162 1.127053380390678 25 25 29
1.0675974556977428 1.7769718418565454 1.129182035920226 23 23 26
1.0503141545511916 1.7808962362268583 1.1336325047074531 18 18 20
1.0045014157893695 1.8310072070278227 1.1458355060520127 14 14 16
1.0224283847007296 1.753699863771208 1.1404701674411646 15 14 16
1.0158670344104657 1.7403015145931358 1.142007433934562 27 25 27
1.022314633723838 1.7061664433160642 1.1400129843043667 44 45 42
1.0025279819252262 1.7140193612720531 1.1451424384560154 55 56 51
0.99947920227229 1.695213742948021 1.1457280625433348 71 71 68
0.9782678862640521 1.705228759734259 1.1512431760576207 82 82 80
0.9514018127993441 1.7240487964584703 1.158291326925987 85 85 85
0.9249016056851398 1.7421255010690944 1.1652385131693572 45 45 47
0.907455062377532 1.7458690090210842 1.169728787595732 20 20 22
0.8856043718534077 1.756418040083925 1.1754125180688637 17 17 19
0.8735657509883353 1.75160622312236 1.1784352962117415 15 15 17
0.8429561435666826 1.7755539865508507 1.1864911669763618 15 15 17
0.8314851197116238 1.7697586255000524 1.1893590460855836 15 15 17
0.8184264261132063 1.7664080056643208 1.1926570711586801 18 18 20
0.8208726892611296 1.7392764053593013 1.1917553136232002 28 28 30
0.8085426989526415 1.7348661379111125 1.1948565503552475 34 34 36
0.7942457883710449 1.7334434117651325 1.198490261828635 38 38 40
0.7527768658025823 1.7732163683645155 1.2094790691551447 37 37 39
0.6928362959429529 1.8171859774906984 1.225224370535313 37 37 39
0.5746353604644154 1.90040136700588 1.2562379021823977 78 77 78
0.5702682462684789 1.8834558363687637 1.2571789633749162 161 159 159
0.5141299619824209 1.896187346387336 1.271634474882621 174 174 174
1.6896924972607403 3.8742079837182324 1.0081846378333708 94 93 95
1.7158095440860586 3.686084676190385 0.9992858649638454 52 51 56
1.7185092370825863 3.5993744811185677 0.9975738145362436 55 56 59
1.7202060578087162 3.555681249747586 0.9966250186207184 71 73 72
1.7186780603778071 3.520174918536618 0.9965978521085914 70 71 70
1.7145323305631486 3.491274166053433 0.9973183420313274 56 56 56
1.6908821436568522 3.5095938568288214 1.0035860238415824 43 44 45
1.6761470471178543 3.5062992102370414 1.007317833999688 36 37 40
1.6575623600991618 3.512173356956074 1.0121427127170637 33 32 37
1.3167884756064228 2.7017777762667707 1.0898001449379566 27 27 29
1.3055505975242796 2.6931275746577534 1.0925739660507072 32 33 35
1.293093447861819 2.6868865679379708 1.0956881645376972 35 35 37
1.2811838609801205 2.679581020681066 1.0986497079048978 32 32 34
1.2783796794870765 2.654602647779027 1.0990730998806197 28 28 30
1.2497669878647366 2.589442549017014 1.1056274819223217 17 17 19
1.2400566368468786 2.5782266723449445 1.1079802022264083 15 15 17
1.2301378652949446 2.5674484013999024 1.1103914097872707 16 16 18
1.2190901593411252 2.5588421055541657 1.1131170842215747 15 15 17
1.207688538036051 2.5509238268759398 1.1159414262461353 15 15 17
1.173260918665208 2.556847721672841 1.1248209910138236 14 14 16
1.1895364322514559 2.162309826506813 1.116009581810306 52 51 56
1.20950004122031 2.0471554818731326 1.1095448140939137 46 46 48
1.1938894800242568 1.9960208206730965 1.1129372207620731 34 35 39
1.193298659772375 1.9711584009216643 1.1127955940604226 31 32 35
1.177475516126123 1.8960964042932829 1.1159605983336052 25 26 28
1.1235383560765033 1.911827861795064 1.1299480309204282 25 25 27
1.0798698294901075 1.8351876328032835 1.1402198945532822 36 36 37
1.0904431244900388 1.7932197966076067 1.137019988993312 37 37 38
1.0835841703898077 1.7801005099039338 1.138620638803879 32 32 33
1.0765924230625483 1.7672536893689188 1.1402584784426326 29 29 30
1.0625354714299462 1.7659638533075945 1.143840367239974 23 23 25
1.0186321555151803 1.7647132419581175 1.1550602024768122 14 13 16
1.0125469886246492 1.7505032568077297 1.1564499997821507 13 11 14
1.0441272713852066 1.6761079855007561 1.1474926373792824 14 12 13
1.0320786221209932 1.671740013123564 1.1505243627514927 22 21 19
1.0120145280116655 1.6566010888264155 1.1554803333424088 43 43 42
0.9780317107050707 1.6868305912866755 1.164532332110956 40 40 41
0.9515177528183262 1.7050730944964094 1.1715319246455569 33 33 35
0.920033319618868 1.730935951384357 1.1798931761223739 20 20 22
0.8832382210074007 1.7648701141011351 1.1897084499319248 17 17 19
0.8760946953468479 1.7524133975597385 1.1913897230231396 15 15 17
0.8568465885707807 1.7587668868843487 1.1963900117975994 14 14 16
0.8290619003436611 1.7782243168517506 1.2037290843335784 15 15 17
0.8024530633268832 1.7488288491674644 1.2101919063176694 34 34 36
0.778853506111179 1.7615298263214991 1.216380458722367 37 37 39
0.7599491506777449 1.7669785456537055 1.2212821280323929 37 37 39
0.6934247304546759 1.8209501644680133 1.2389409241966285 39 39 41
0.6091073138665057 1.9006845798091956 1.2614562465170491 46 45 48
0.5744356011752311 1.9053477490357889 1.2703834251109947 86 85 87
0.5646668904297233 1.8963822426998789 1.272777582697294 164 162 162
0.5646689510669148 1.8730052663066348 1.2725017363515252 171 170 169
0.5128407721293435 1.9026678720386698 1.2861135669477055 174 174 173
1.6900169914095413 3.8831144014379633 1.0245243997633198 99 99 100
1.727941959607026 3.625242312816895 1.0113559377693944 43 44 48
1.7203775541457487 3.6040028608690995 1.0130139755947627 49 50 53
1.7230665016691276 3.5578175993970147 1.0117084699522418 69 71 70
1.7246940362000505 3.5145825251829805 1.0107146482447051 72 72 72
1.6968799520256823 3.5040906495961512 1.0177121551767452 42 43 46
1.684606644116485 3.4949070346936257 1.0207392022273005 35 36 40
1.6701758120444479 3.4909091018897858 1.024388996474311 34 33 38
1.5955738742455743 3.5912422854525428 1.0448695993635781 32 31 36
1.5967354920067467 3.0387547886346233 1.0372086614703977 35 35 39
1.3119911707393004 2.7179945689216054 1.1060017765696384 14 14 16
1.2951684576200497 2.7202605347089674 1.1103488250836042 17 17 19
1.2820867867038754 2.715131874781909 1.1136373442525602 19 19 21
1.2784757271668798 2.691514724857552 1.1142492330900824 21 21 23
1.2214967242040737 2.6499883871485093 1.1283171168506712 29 29 31
1.2117230237032501 2.63864897815743 1.1306740137766917 26 26 28
1.2000373004493774 2.630982503708008 1.1335705001668148 23 23 25
1.188013164571354 2.6239702459363574 1.136562544675945 22 22 24
1.1753036259822696 2.6182582848596203 1.139747798037477 25 25 27
1.1476490301154687 2.6405900853956816 1.1471418115007483 23 23 25
1.1787616613266043 2.0017630259547046 1.1306445651840955 37 38 41
1.1779891868304544 1.9004983932657002 1.1294932612984958 29 30 32
1.1535545791890582 1.8915058588912343 1.135643547277156 26 26 28
1.1144324288041239 1.9324477061875398 1.1462282435392765 26 26 28
1.0851632213548754 1.9564696725690678 1.154059104401019 24 24 26
1.0804352041781558 1.939123198091083 1.1550411816812356 23 23 25
1.068444077495633 1.8839592881949137 1.1573830512273637 33 33 35
1.0890825888736044 1.7760804156646945 1.150649360887003 41 41 41
1.0816792415104124 1.7639129819543653 1.1523869702648946 36 36 37
1.068658250314233 1.7609475231420721 1.1556887469218193 34 34 36
1.026480823720347 1.756971099784109 1.166458838828307 14 14 16
1.0173899373751896 1.7476079204737784 1.1686668565606015 14 13 16
1.0051864851637748 1.7432553802040103 1.1717403605209333 17 13 15
1.0036268768722234 1.7219182728753912 1.1718562151385652 16 12 13
1.0059127654627504 1.6945814556272543 1.170905326135837 13 13 12
0.9890790725869375 1.6741546950126394 1.1749527720951194 14 14 16
0.9544886665450889 1.7051583522090508 1.184242140730445 14 13 16
0.932882028604414 1.7155589432746308 1.1899251928779306 14 14 16
0.9201190692797346 1.712037409784441 1.1931533457102081 14 14 16
0.9025632363363182 1.7159628378782383 1.1977106341982289 17 17 19
0.8676977002570436 1.7466713574849906 1.2070666703081578 16 16 18
0.8241289140600608 1.79058198536195 1.218831975122543 18 18 20
0.8345444249061649 1.7510001823170174 1.215631770501984 22 22 24
0.691447753839796 1.8285911772552303 1.253385622481611 49 49 51
0.6607398526305972 1.851397643237706 1.261569465682463 46 46 48
0.6660252468179114 1.820074212189922 1.2597957495914358 50 49 52
0.5742353673108314 1.9103024852933488 1.2845522582969402 99 99 100
0.5679979024469144 1.896077450209872 1.2859632712397042 170 169 168
0.5685282282003641 1.8719061676462765 1.2855050607766088 174 173 171
0.5114130598503654 1.9093613895826413 1.3006604523982634 173 173 171
1.7292146856062305 3.631395958132889 1.0270196736356114 39 40 43
1.7243239661936633 3.60353029116638 1.027863617219185 46 47 48
1.727133288567387 3.557006010653587 1.0264485719856045 69 71 70
1.7286358975945457 3.5140361039692056 1.0254226536972981 71 72 73
1.7235939889130445 3.487282550619215 1.0263220467626721 59 59 61
1.702871128521338 3.4985936084264067 1.0318228103701048 43 43 47
1.6891583428270516 3.4928894036740843 1.0352665783025254 34 35 39
1.6753217582195756 3.487476778476542 1.0387465404810505 33 34 38
1.6150892836620694 3.5538641238964814 1.0552334434790933 31 32 36
1.5973827279711665 3.5572218878707305 1.0598397187433262 31 32 35
1.6027208138739697 2.998736381991111 1.050157543381181 34 34 36
1.5770883961678095 3.0208354149763137 1.0570821460912203 33 33 35
1.5404491831304057 3.066821922484396 1.0671944341888784 33 33 35
1.3388704843283237 2.8279933064110607 1.1155124342688345 21 21 23
1.1924477941030567 2.7121295758210584 1.1514668105169528 18 18 20
1.1784033491764703 2.708686198697904 1.1550295565408668 22 22 24
1.163788927678387 2.7063067567830177 1.1587547993291012 26 26 28
1.158128131651745 2.6869530184354966 1.1599235336051263 26 26 28
1.1403707120391597 2.690510737849033 1.1645458721037896 26 26 28
1.1308113323975586 2.6785986388993335 1.1668285144208617 29 29 31
1.1062495386340458 2.694799988462486 1.1733898803729779 28 28 30
1.1542660340579798 2.2365003292277397 1.1542159845739666 22 21 25
1.1763927471481352 2.170090625305835 1.1475342764743734 39 38 44
1.2031341152513646 2.09598094749847 1.139550554739008 53 52 57
1.1724678700357964 1.9921695622216578 1.1458973198956657 38 38 42
1.170284506496174 1.9701308220431504 1.1461312826610028 38 37 41
1.1738451020407141 1.93836059802008 1.144742412073003 37 37 41
1.175533169142894 1.9099838081603353 1.14388587195191 34 34 38
1.1091590880775768 1.9466209064774582 1.1615105650294415 28 28 30
1.0971299636062541 1.9415727402252756 1.164530846344657 26 26 28
1.0949937456638823 1.9199191020816522 1.1647584065570893 24 24 26
1.1119475375253587 1.8415975464968035 1.1592306033642366 28 28 30
1.0941195342207135 1.846470594769416 1.163890672815859 33 33 35
1.1120712621295623 1.7920853211861176 1.1584621754428108 38 38 40
1.105460294030674 1.7785360833673147 1.1599617650411902 44 44 46
1.0936788772481134 1.7735370000561468 1.1629190354236283 44 44 46
1.0882204951405794 1.7581883441272064 1.1640952671247193 41 41 43
1.01201901017092 1.7611285910944483 1.1837474810543744 20 18 21
1.0142488751900074 1.7336064099449544 1.1827642372841702 17 14 18
1.0097352782573483 1.7170045283802733 1.1836787089032554 16 13 16
0.9219467169554785 1.737464355062558 1.2065731936420991 16 16 18
0.925621855135646 1.7081734475202142 1.2051917331360003 17 17 19
0.9014547339406904 1.7224134725394706 1.2116223618426223 22 22 24
0.8841997452796716 1.7257891279919324 1.2161127042363333 23 23 25
0.8336898317911646 1.7805399846378638 1.2299246433934423 25 25 27
0.7783639142056035 1.771607469641449 1.2440284420979548 37 37 38
0.6910021393981766 1.8339314983068777 1.2674359158164477 49 49 50
0.6583003324558497 1.8597366545948528 1.276234777935639 48 48 50
0.590883446456999 1.913716969430141 1.294385823828358 67 65 67
0.5740346739004947 1.915265572719704 1.2987444561102683 125 124 124
0.5718771910255952 1.8949594249443318 1.2989975348394314 172 171 170
0.5711353261908921 1.87265891388979 1.2988566710201117 174 173 171
0.5099964029616718 1.9160485504200635 1.3152346893992934 173 173 171
1.7333720568361637 3.630427108064402 1.0418477734425573 43 44 46
1.7296693990353897 3.559947004162601 1.0416453617801156 69 71 70
1.7334844624872057 3.511277640838099 1.0398613840013335 71 72 73
1.728911397544422 3.4833723049745218 1.040582989312869 60 60 62
1.7102631757460962 3.4896993195146107 1.04549891548369 46 46 49
1.6955555225465277 3.4864270695698254 1.0492403210837624 35 36 40
1.6841243403712354 3.4752771287956126 1.0520068517816932 33 34 38
1.6264586965913528 3.5357535070270654 1.0678803957218501 32 33 37
1.6148128265222221 3.524871888588134 1.0707067324645059 31 32 35
1.588628017390584 3.5100099117647714 1.0772193070337406 28 29 31
1.587768212604494 3.474063168837068 1.0768506388730776 25 26 28
1.569145000509539 3.4796272250378553 1.081747577681996 23 24 26
1.5971336389991952 2.98443935065954 1.066390457630877 33 33 35
1.5726078682587228 3.0040496730832107 1.0730412440428307 33 33 35
1.1616344424796379 2.7472445555107496 1.174870016913463 9 9 11
1.1372202825478415 2.7029128714305823 1.1804415656884055 11 11 13
1.1219913630700256 2.701601395289525 1.1843496903508388 11 11 13
1.0944052045282442 2.72339186282106 1.1918259944315046 11 11 13
1.1643732460347136 2.1971172916437824 1.1651258200661605 20 19 24
1.1946764145080846 2.116550752592076 1.1559828471429738 37 36 41
1.1809308578701052 2.0349696812468094 1.1581895381536274 48 47 52
1.1740595682116912 2.02081196516925 1.159730022780264 46 45 50
1.1706447330249947 2.0007405703105916 1.160281454323656 44 43 48
1.168180239183491 1.979139224306644 1.1605625258408636 44 43 48
1.1713938402908552 1.9479087174380338 1.1592202344450522 43 42 47
1.1695644804855996 1.9254930636231646 1.159324038582766 41 40 45
1.1322006573857017 1.912914392044716 1.1687587553893946 30 30 32
1.1125415186834164 1.9208477773716115 1.1739619279201523 29 29 31
1.099575993970701 1.9174423311367312 1.1772516066346466 28 28 30
1.1032160049079358 1.8862343332063183 1.1757996542456566 28 28 30
1.1132492001616408 1.8445529692991363 1.1725259487427055 29 29 31
1.119581141069142 1.8092823916714091 1.1703126309381837 32 32 34
1.099954775150458 1.8171975026856981 1.1755070465717115 33 33 35
1.0966035911636636 1.7981726750536824 1.1760592465416169 40 40 42
1.0941669160430458 1.7777427919758648 1.1763523844795294 46 46 48
1.091719476208905 1.7574384155499008 1.1766503619634903 46 46 48
1.0873592363180415 1.7403621415611197 1.1774949494519276 45 45 47
1.0318510185443124 1.7341259321290703 1.191715838678311 37 35 38
1.0281765425748455 1.7161454675864642 1.19236861766311 33 31 34
0.9939199892108614 1.6995873751190311 1.200936160934262 23 23 25
0.9710193134831805 1.7122184489850762 1.2070529530065475 21 21 23
0.9394921531608713 1.7383106766874619 1.215616862175543 19 19 21
0.9133689886952246 1.755701465481806 1.2226433775381778 20 20 22
0.8934210958535761 1.7632750609407506 1.2279151495530023 25 25 27
0.8696014243015885 1.7767929581553967 1.2342836479685413 29 29 31
0.8425836875175314 1.7951465596470808 1.2415568157852992 30 30 32
0.8376645961550911 1.7791311745926488 1.24256303753254 31 31 33
0.6909052475711631 1.8387532293223527 1.2814122814340727 49 49 49
0.6554394582575854 1.8687224404816196 1.2910562051963748 52 52 53
0.5877635907085476 1.9230678702876307 1.3094120676776833 89 87 88
0.5785805005197715 1.9131622871228402 1.3116189431149592 156 155 154
0.5758665249281462 1.893677436763435 1.3119991606238788 173 172 170
0.509003587668836 1.922122429155264 1.329719762917101 174 174 172
1.7323053657864194 3.562650997729392 1.0568259565559532 70 72 71
1.7354224568533543 3.5156253139475635 1.055173876013297 74 74 75
1.734208826338187 3.4407180571588802 1.0541410908851285 45 46 49
1.7132709148344876 3.452680520745954 1.0597739895586922 37 38 42
1.635046395567689 3.524219276820084 1.0813013280047006 32 33 37
1.6378043279114978 3.4792964367719237 1.0797799907986492 35 36 39
1.6277670170410918 3.4648625719263335 1.0821176893878786 34 35 37
1.59753708518834 3.4978581882248005 1.090533128951828 30 31 33
1.5837278897591807 3.492165499994169 1.094003991130281 26 27 29
1.5728845375902414 3.4795739414449427 1.096583382300706 23 24 26
1.599739701865441 3.020925298160511 1.0813880166068266 33 33 35
1.5917388784041804 3.0040869430771733 1.0831555290128057 33 33 35
1.5662695218096552 3.025706822637964 1.0901346061430137 33 33 35
1.5260831868185947 3.0792755244955634 1.1014962278733713 33 33 35
1.0877909782675987 2.7422317488493895 1.2088470904509794 9 9 11
1.1676854437433466 2.169955584018505 1.1778844703171298 22 21 24
1.1737558135642019 2.0268037449308958 1.1737398786432607 47 46 51
1.1679875762381822 2.010769471867138 1.1749441526718412 46 45 50
1.1722090666888978 1.9775866952974086 1.1732551949727448 45 44 49
1.1680428770847575 1.9590183611405254 1.173999367144153 45 44 49
1.172617943365017 1.9255834662935776 1.1722143864431271 44 43 48
1.147085198924564 1.8929681213991636 1.1782347255491583 35 35 37
1.1340540427448131 1.8898009243169533 1.1815496731001705 31 31 33
1.11304399019714 1.9000280975724333 1.1871700384980313 30 30 32
1.1022068185073959 1.8931057388045769 1.1898497616697132 31 31 33
1.1082033950699155 1.8581053239318779 1.1876688085059626 33 33 35
1.1142592710128794 1.8232199369312525 1.185474579437819 35 35 37
1.1102498427114136 1.805221201572698 1.1861884299297631 31 31 33
1.1035177661809858 1.7918073933064513 1.1876892188914647 24 24 26
1.0972585248637161 1.777673708449286 1.1890547155252096 43 43 45
1.0902499615914123 1.7648309189379536 1.1906373139808295 49 49 51
0.9602757825296583 1.8057484373094048 1.225004636152121 38 36 39
0.9582643548113308 1.784906383990561 1.2251503691207706 35 35 38
0.9528242123620917 1.7696152337663267 1.2262831077678504 32 31 35
0.9426638696628412 1.7618594970738763 1.2287727132105943 31 31 34
0.9367716154668706 1.7473932717140785 1.2300372706089309 30 30 33
0.9293372994694225 1.7354126186109151 1.231745536311185 31 30 33
0.9101177206062077 1.7419237774877752 1.2368357921376956 32 31 34
0.8603585070571658 1.795984620857977 1.2506833047222181 31 31 34
0.8461717231923462 1.7943428810131068 1.2543247056279716 33 33 35
0.8373201554691402 1.7844113009354023 1.2564365360647358 34 34 36
0.8590260757077043 1.727345252356698 1.24979395560888 36 36 38
0.7806587884980732 1.77746338992566 1.2709730971097617 47 47 49
0.5945840710278764 1.9175570727254148 1.321639955085536 127 125 126
0.586908497325168 1.905416534835131 1.3234077730277969 170 168 168
1.7335470738604772 3.529309681700692 1.0716773050398656 74 75 76
1.7389386614008424 3.477011118138734 1.0692568117310866 64 64 66
1.734333217454413 3.4493580695933663 1.0699116664383626 45 46 49
1.7165941573851438 3.453580477971967 1.0745969469419925 38 39 43
1.6425437054432743 3.476864148352031 1.0942658247739374 32 33 36
1.6209265980235474 3.489736297602676 1.1001263048132055 34 35 37
1.590985359543986 3.52197947864672 1.1085250365648522 32 33 35
1.58354732728184 3.5012856521044418 1.110050802390913 28 29 31
1.5675027919897162 3.5007453612413784 1.1142033720822515 22 23 25
1.600746251422662 3.026517512986252 1.0963147337135308 34 34 36
1.5975721148508923 2.9989847310543523 1.0966005519805468 33 33 35
1.5949337394951337 2.970458825768292 1.096727956512448 33 33 35
1.5661727736702855 2.999307496155521 1.1047541361240096 33 33 35
1.5398567424059726 3.0225307198564795 1.1120360422595128 31 31 33
1.5134017156321353 3.04580767245993 1.1193550634304015 30 30 32
1.4720772665952846 3.1009725945586006 1.1311551495419718 30 30 32
1.2688974974723428 3.1559165912353455 1.1849479980436486 39 39 41
1.1615720791340094 2.159549562241529 1.1933344929020595 20 18 22
1.1694173712710003 2.013735916119587 1.1884507454045588 46 45 50
1.1652633240632857 1.9949720958771673 1.1891621038017806 47 46 51
1.1483559812584967 1.896058952428218 1.1916170800521089 41 41 43
1.1317574065373677 1.8737657474748928 1.195488518993695 36 36 39
1.1007226788781252 1.9007845347448322 1.2040689360905132 37 36 39
1.1041432430949698 1.8700331439985733 1.202580740373247 37 37 39
1.1069961093970528 1.8404093196526754 1.2012618711106242 36 36 38
1.09549167118391 1.8347620798385278 1.2041366568851875 33 33 35
1.0963260213473032 1.808734759699623 1.2034117867143954 19 19 21
1.096772335918883 1.7834943764269586 1.2028029721355138 19 19 21
1.021886647709766 1.808346519070921 1.2227192073859174 49 48 53
0.9921319963706516 1.832192129254485 1.2309054991910273 46 44 48
0.9794198216476467 1.8283743694766041 1.234129394258161 44 43 45
0.9368011347974831 1.8239983526233043 1.2451023161343697 40 39 44
0.9150773213046709 1.8344249062565379 1.25094271489435 40 39 44
0.900978982111349 1.8326703712187733 1.2545665821041712 41 40 44
0.881314153985666 1.839669850018862 1.2598057904829842 40 39 44
0.8788545284975633 1.8195400999983733 1.2600508122395186 40 39 44
0.9097276898775642 1.747305374738723 1.250629136495093 40 39 44
0.8384988678539382 1.8348963709295862 1.2708219611202425 41 40 45
0.8657667668638412 1.7686424372019038 1.26245257330981 42 42 44
0.8348436265928387 1.7930044584424472 1.2709521431906128 43 43 45
0.8512029222485149 1.7441284325322273 1.2657526770343497 45 45 47
0.8188819265231929 1.7704836007302558 1.274653883757028 46 46 47
0.7613887474888918 1.8116096922657998 1.290375104375161 56 56 58
1.7362929503306317 3.53171162254759 1.086794020124689 73 73 74
1.7381480353399525 3.487967340568246 1.085388952838076 65 65 67
1.7345836584613468 3.4577123472596503 1.0856784108528559 46 45 49
1.7219435101562757 3.4495916585058044 1.0887960183959737 38 37 42
1.7272402082914944 3.3983735985419545 1.086337885489858 35 34 39
1.6605045705293 3.4813544472331586 1.1054515684296478 31 30 35
1.6220016086449605 3.4959777923132163 1.1157780032067683 31 32 36
1.558323266229244 2.9899524127423662 1.1216764131104746 32 32 34
1.53778200979736 3.000544945879431 1.127244397499944 30 30 32
1.4325243393583897 3.1250823586807606 1.1572573915582705 25 25 27
1.4131774497893161 3.1321773804077293 1.1624408650172964 19 19 21
1.3292085020829965 2.6560873974342973 1.1742499063290268 17 17 19
1.3180775118704753 2.647352298388987 1.1769618905221604 15 15 17
1.3174322630672526 2.6181693851110563 1.1765144264230785 10 10 12
1.229261823660075 2.698088762974269 1.2011406767468247 9 9 11
1.0928615469442744 2.6857855990745105 1.2363712436479717 10 10 12
1.0674374459723328 2.70329721499502 1.2433555913845091 12 12 14
1.1873928741513595 2.092981280901096 1.1992752532435005 21 20 25
1.1911930759566123 2.059849064788434 1.197587852166195 43 42 46
1.177589878637058 1.9791008811364832 1.1994246108737325 48 47 52
1.1065263136775074 1.972237723721921 1.2177699250756049 45 46 47
1.1194108524853235 1.9249966452464675 1.213421370402114 42 43 47
1.0942194643215144 1.9421525987590975 1.2203376690833796 39 40 44
1.0990930946716062 1.8586908503862969 1.2173097232370647 39 38 43
1.0815127523005157 1.8630551822144579 1.2219759793603755 38 38 41
1.0806114749360165 1.8397772465106303 1.2217196437963296 32 32 34
1.085488139964759 1.8071106200310085 1.2197619751551687 20 20 22
1.0573041851592424 1.8289000637429922 1.227554611683068 18 18 20
1.0371516400426883 1.837360796702848 1.232976506090526 40 40 42
1.0214301741142098 1.83850201235947 1.2370911384208032 50 50 52
1.014825634889481 1.824793254721782 1.2385205105620571 47 47 49
1.0022194498961932 1.820853868298546 1.2417174482017537 42 42 44
0.9896072520213409 1.816913792363885 1.2449159357942148 41 41 43
0.9804693529113327 1.807381943369 1.2470925372775314 45 45 48
0.9632365443704177 1.810837646358085 1.2516492092012852 46 45 50
0.9166829531458686 1.8367762408112716 1.264308930979767 46 45 50
0.8473931570830109 1.8980858392169533 1.2836302200860805 45 45 48
0.8579573627636309 1.8572539175028306 1.2800205365383415 44 44 48
0.8528420794248247 1.7698531144266922 1.2795085474361423 50 48 51
0.5979919440538635 1.9694857845013503 1.3500274687833071 133 133 131
1.7370244134106994 3.5390572735161268 1.102560169562904 73 73 73
1.7381686875070055 3.4969695416562536 1.1013087388263503 69 69 71
1.7387713011206793 3.4565253184348212 1.1002358409772528 50 50 53
1.725782022696094 3.449248198764767 1.1034600843738789 38 37 42
1.7199762331760942 3.424695762348043 1.1044189825062247 35 34 39
1.6095785926586987 2.919564773681109 1.1217862097266322 39 39 41
1.4527854216078455 3.0892766664631512 1.166537058405945 25 25 27
1.4182992722272276 3.128899529006412 1.1764318284113735 20 20 22
1.2654398522782024 3.1443203778844446 1.2166631284548757 40 40 42
1.2408442775846789 3.161324523880476 1.2234652778046915 31 31 33
1.2414127256720433 3.1267390634961494 1.2225339384496419 19 19 21
1.3224372136990226 2.6761197464722937 1.1911918632440919 17 17 19
1.3200726221762429 2.6501016655827754 1.1912197443598629 16 16 18
1.3224627182182764 2.6149535847319747 1.189800385495655 12 12 14
1.3004323142016483 2.6275654509172783 1.195833819858529 10 10 12
1.2669324036748448 2.6622653348621554 1.205359814798366 9 9 11
1.0680200068861958 2.7384814934332455 1.2589831083472873 10 10 12
1.0728757896252223 2.6995781765094478 1.2568354135054107 12 12 14
1.0620789658417396 2.689882599546361 1.2594328743545402 15 15 17
1.171906195893855 1.9943352277385278 1.2150306908477082 48 47 52
1.1553864910760616 1.971142579282349 1.218815715737491 51 50 55
1.160017879714931 1.9375775009807927 1.2168474265967488 50 49 54
1.1000354721875227 1.9630157655294176 1.2330732168648177 45 46 48
1.085647526014083 1.86131739281267 1.2345246527447309 41 40 43
1.065090342988317 1.8705469425488288 1.2400971358913728 39 39 41
1.0694882200778146 1.8385361317865858 1.238224960825456 36 36 38
1.0648878024240056 1.7970092767043062 1.2384850616049057 24 24 26
1.0440555975246766 1.8066311417823364 1.2441381821739144 42 42 44
1.024881723640994 1.8134514135711077 1.2492952027126614 46 46 48
1.0124924156476343 1.809199770063152 1.2524314071789542 36 36 38
0.8857620139231549 1.866571210569674 1.2867952269880092 50 50 52
0.8681187038188178 1.8702712831008388 1.291482269573346 50 50 52
0.6160737536880944 1.970898994538801 1.3595209300582571 153 153 151
1.7397226645573614 3.463204553249027 1.115828939618825 51 51 54
1.6498617826805744 3.485943123678145 1.1398889932676755 30 31 35
1.6076925222730754 3.5474386853414708 1.1524094564205425 31 32 36
1.601836651741594 2.9442210061366394 1.139346338004514 39 39 41
1.6092066671745777 2.8941177902565887 1.136205882224261 34 34 36
1.474840396964541 3.0495494780087555 1.1751202507778884 25 25 27
1.4263909211162127 3.1192614655446693 1.1894825779783949 21 21 23
1.2719496158387344 3.172002426872622 1.231164429044857 38 38 41
1.2779657631519323 3.1259307563043786 1.2284757247636933 41 41 43
1.3227713710900981 2.8070215185175877 1.2090372698631593 16 16 18
1.3032812100081217 2.6590836896693895 1.2105569575832207 14 14 16
1.3023940231280107 2.6303486225605623 1.210093808388477 12 12 14
1.3070614252320827 2.591018014918267 1.2079210734974513 10 10 12
1.0745693277421062 2.732700874404266 1.2721749833045823 10 10 12
1.064404434050608 2.6919298752621366 1.273847901574362 14 14 16
1.1679822358143892 1.9548885039872212 1.2289162301664502 50 49 54
1.170551124162919 1.924887277247333 1.2275182487900722 51 50 55
1.068275238958193 1.8953128545573312 1.253560641879671 42 42 45
1.0794185082424481 1.8519465691336239 1.2495960108448947 41 41 43
1.06235314560679 1.8553859242310864 1.2541439588207377 39 39 41
1.0629226036506223 1.829776025450911 1.25337532948492 36 36 38
1.0680618853696724 1.7724610925223514 1.2506439989242362 30 30 32
1.043633249059855 1.7879544413231305 1.2574100183377919 40 40 42
0.8576670709263882 1.8916978694637543 1.3085736053938617 57 57 57
0.8570599488127258 1.7728157695564046 1.3058560302756579 64 62 65
0.6064542308615483 2.0144248230207804 1.3772666876125945 151 151 150
1.7394082766703767 3.6313305345824896 1.1359393719089996 39 39 42
1.6529671302265507 3.4874013188638573 1.1549102544699466 30 31 35
1.6066092360087638 2.907415291479664 1.1521364345798843 34 34 36
1.590316947712405 2.909139827813468 1.156455020649073 33 33 35
1.4854282316985636 3.034415842121142 1.1871979443322718 26 26 28
1.4327436430292595 3.113331621448878 1.2030516062994943 23 23 25
1.2768040957238989 3.1357491820766787 1.2445386258363653 40 40 42
1.291352292297923 2.689095905438747 1.229220005453828 16 16 18
1.3024570764360806 2.6368395107201064 1.2249610561137516 13 13 15
1.3021133483006273 2.607182098774203 1.2242875079233415 11 11 13
1.270509479652191 2.578001186815036 1.231827126389821 8 8 10
1.0733115624901766 2.7115458701292265 1.2869997037803689 11 11 13
1.0688535335939857 2.690047032491032 1.2876156114171586 14 14 16
1.0597175058283228 2.677302169969065 1.2896841899090479 15 16 18
1.1725269401847522 1.9524449438525053 1.2414231971988035 50 49 54
1.0860330250206116 1.8959350688204357 1.2626591030461483 43 43 46
1.0924437139712038 1.8602871069150257 1.2600593114477485 42 42 46
1.0924000795005295 1.8355505838892103 1.2594337559265232 42 41 45
1.0906191739457358 1.8138211770613624 1.259341400032754 40 40 43
1.094545346395111 1.7828217290718398 1.2575131115377827 42 42 45
1.083505414961149 1.7765352252241675 1.2602474793342724 43 42 45
0.832063359949089 1.8164319917125678 1.3272390811429589 78 76 79
0.8113273921628337 1.8247999499995804 1.3328945159663594 80 78 81
0.7826944771447975 1.8452611646577664 1.340933083492053 98 97 98
0.6429870479372553 1.9877700396301905 1.3812542439399227 103 103 101
1.6570726448885933 3.486482736154032 1.1696120019782699 30 31 35
1.5972368739204694 3.58998573453159 1.1881790223207984 30 31 35
1.62983679851369 2.9321323671343906 1.1616383404963042 35 34 39
1.4948143251109047 3.0218425641515987 1.199607478019012 26 26 28
1.4456967879600642 3.0932402199224525 1.214478193509371 24 24 26
1.280032388990667 3.1365214170568954 1.2592401634614627 39 38 41
1.2371188426235067 3.1576520401240855 1.2711061351814874 29 29 31
1.2922587570921875 2.6633655977780903 1.24310277443616 15 15 17
1.2951174949200845 2.627355298718149 1.2413673676576407 12 12 14
1.3090318788976416 2.5701817792054977 1.2361457066755992 12 12 14
1.2914046451496852 2.5742319588783413 1.240893368303173 17 17 19
1.2656538549202634 2.5938068429170937 1.248201983877523 10 10 12
1.2107278240742572 2.6689964648701703 1.2647042464589497 10 10 12
1.0864803160249734 2.7233341858330373 1.2988729352575035 9 9 11
1.0835996523080988 2.6988002074200077 1.2989607469134703 10 10 12
1.0733388725436006 2.6880951737073033 1.301367633116637 13 13 15
1.0736333429825193 2.6579285950474407 1.3004663702623263 17 18 20
1.059262634092359 2.6549345157313016 1.3041649965265358 17 18 20
1.0414420655151932 2.658242208743729 1.3089432411604396 13 14 16
1.0276585062729318 2.654107428148638 1.312456259931644 23 24 28
1.1773131773880672 1.975356223125333 1.2545522199197596 49 48 53
1.1685711759678439 1.9646166807349186 1.256558630653402 49 48 53
1.170157764965648 1.9362196584937013 1.2553657839413939 50 49 54
1.1636106595817004 1.921875722068478 1.2566963706317942 41 39 42
1.0808384928192294 1.9097940140111183 1.2781406634572012 44 43 48
1.0979328410021036 1.856292892759147 1.2721827613139205 44 43 48
1.1026464060383883 1.823666305876991 1.2700518232261377 43 42 46
1.1070005273495662 1.7918297119987163 1.2680370145653064 42 41 46
1.0946601879713604 1.7876640949258347 1.271169534724815 43 42 46
0.8257253688812695 1.9276493849888978 1.345738870429587 72 71 69
0.8439619808184308 1.8505439508491166 1.3388358876072795 83 81 80
0.8147385810931799 1.848177780664594 1.346458841790873 70 68 71
0.7846381049289523 1.8709573432132378 1.354999209507299 85 83 85
0.5956252439468899 2.065009998618602 1.4100205925054294 150 150 148
0.5136946257764354 2.165418801793921 1.4343154335389434 173 173 171
1.665844896688189 3.4744402117126105 1.1827613112329167 30 31 35
1.5082346019826822 3.000552381376229 1.2106566976039401 26 26 28
