ply
format ascii 1.0
element vertex 896
property float x
property float y
property float z
property float nx
property float ny
property float nz
property uchar diffuse_red
property uchar diffuse_green
property uchar diffuse_blue
property uchar class
property uchar detection
end_header
0.7417 3.6216 0.1188 0.230 0.812 -0.536 45 45 45 0 0
0.8505 3.5963 0.1065 0.171 0.565 -0.807 36 37 39 0 0
0.6607 3.6450 0.1406 -0.364 0.925 -0.112 65 63 67 0 0
0.7062 3.6565 0.1317 -0.183 0.961 -0.205 45 44 45 0 0
0.9544 3.5633 0.1101 0.338 0.677 -0.654 41 39 43 0 0
0.6585 3.6507 0.1534 -0.489 0.827 -0.278 71 69 73 0 0
0.6709 3.6570 0.1505 -0.489 0.827 -0.278 56 54 57 0 0
0.7101 3.6570 0.1446 0.110 0.865 -0.489 50 48 52 0 0
0.7422 3.6461 0.1416 0.124 0.758 -0.640 38 37 41 0 0
0.5741 3.5921 0.1897 -0.899 0.145 -0.414 78 77 80 0 0
0.6576 3.6726 0.1632 -0.812 0.188 -0.552 35 32 37 0 0
0.6697 3.6790 0.1603 -0.470 0.536 -0.701 38 35 39 0 0
0.7008 3.6690 0.1574 0.070 0.805 -0.589 32 31 36 0 0
0.7265 3.6637 0.1545 0.036 0.755 -0.655 30 29 34 0 0
0.7649 3.6475 0.1515 0.189 0.783 -0.592 32 31 36 0 0
0.8478 3.6451 0.1396 0.338 0.677 -0.654 54 54 57 0 0
0.5666 3.5854 0.2054 -0.955 0.057 -0.289 87 87 89 0 0
0.5695 3.6000 0.2024 -0.899 0.145 -0.414 92 91 94 0 0
0.6538 3.6798 0.1759 -0.883 0.003 -0.469 24 22 27 0 0
0.6609 3.6906 0.1730 -0.696 0.340 -0.632 28 27 31 0 0
0.6699 3.6998 0.1700 -0.568 0.476 -0.671 28 28 31 0 0
0.7159 3.6768 0.1672 0.024 0.747 -0.664 26 26 29 0 0
0.7745 3.6603 0.1615 0.135 0.648 -0.750 32 32 34 0 0
0.4541 3.1591 0.3104 -0.460 0.139 -0.877 33 33 35 0 0
0.5660 3.6071 0.2150 -0.849 0.222 -0.479 47 47 51 0 0
0.5914 3.6360 0.2062 -0.593 0.643 -0.485 16 14 19 0 0
0.6541 3.7004 0.1856 -0.696 0.340 -0.632 51 50 53 0 0
0.6631 3.7096 0.1827 -0.568 0.476 -0.671 43 43 43 0 0
0.6834 3.7089 0.1798 -0.305 0.579 -0.756 36 36 36 0 0
0.7523 3.6662 0.1773 0.230 0.754 -0.615 39 39 39 0 0
0.7724 3.6661 0.1744 0.197 0.686 -0.700 35 35 36 0 0
0.9061 3.6377 0.1597 0.364 0.696 -0.619 48 48 50 0 0
0.5600 3.6163 0.2276 -0.808 0.372 -0.457 14 13 17 0 0
0.5672 3.6271 0.2247 -0.743 0.437 -0.507 14 13 18 0 0
0.6212 3.7160 0.2011 -0.846 0.490 -0.211 81 81 81 0 0
0.6299 3.7254 0.1981 -0.950 0.313 0.020 63 63 62 0 0
0.6557 3.7199 0.1954 -0.644 0.319 -0.695 60 60 60 0 0
0.6639 3.7297 0.1924 -0.627 0.407 -0.664 53 53 53 0 0
0.9522 3.6199 0.1700 0.332 0.684 -0.649 46 46 48 0 0
0.5612 3.6191 0.2404 -0.766 0.594 -0.245 16 16 18 0 0
0.5679 3.6303 0.2374 -0.787 0.478 -0.391 27 27 29 0 0
0.5765 3.6398 0.2345 -0.805 0.496 -0.325 45 45 47 0 0
0.5841 3.6502 0.2315 -0.805 0.496 -0.325 57 57 58 0 0
0.5933 3.6591 0.2286 -0.573 0.735 -0.363 70 70 70 0 0
0.6187 3.7221 0.2137 -0.573 0.807 -0.144 76 74 75 0 0
0.6311 3.7282 0.2108 -0.950 0.313 0.020 71 69 70 0 0
0.6479 3.7305 0.2080 -0.627 0.407 -0.664 64 62 64 0 0
0.6739 3.7419 0.2022 -0.362 0.545 -0.756 45 43 45 0 0
0.8695 3.6767 0.1856 0.355 0.698 -0.622 37 35 39 0 0
0.9270 3.6452 0.1830 0.348 0.701 -0.623 37 35 39 0 0
0.5653 3.6364 0.2500 -0.787 0.478 -0.391 74 74 76 0 0
0.5814 3.6564 0.2442 -0.912 0.214 -0.350 79 79 80 0 0
0.5892 3.6666 0.2412 -0.857 0.385 -0.343 83 83 81 0 0
0.6322 3.7310 0.2235 -0.812 0.164 -0.560 68 66 65 0 0
0.6349 3.7456 0.2205 -0.680 0.242 -0.692 52 50 51 0 0
0.6418 3.7565 0.2175 -0.680 0.242 -0.692 49 47 48 0 0
0.6631 3.7550 0.2148 -0.342 0.432 -0.834 42 40 42 0 0
0.8623 3.6866 0.1986 0.344 0.712 -0.613 44 43 44 0 0
0.9108 3.6628 0.1959 0.345 0.711 -0.613 37 36 37 0 0
0.9659 3.6336 0.1933 0.361 0.710 -0.604 38 37 38 0 0
0.5790 3.6623 0.2568 -0.947 0.314 0.069 93 92 95 0 0
0.5912 3.6686 0.2539 -0.807 0.584 -0.092 92 92 93 0 0
0.6272 3.7562 0.2330 -0.730 0.193 -0.656 42 39 44 0 0
0.6330 3.7680 0.2301 -0.730 0.193 -0.656 36 34 39 0 0
0.6557 3.7653 0.2273 -0.298 0.537 -0.789 33 30 36 0 0
0.7433 3.7237 0.2225 0.057 0.538 -0.841 30 29 34 0 0
0.7956 3.7130 0.2170 0.261 0.686 -0.679 39 39 41 0 0
0.8917 3.6829 0.2088 0.358 0.724 -0.590 59 60 59 0 0
0.9458 3.6545 0.2063 0.366 0.746 -0.557 40 40 40 0 0
0.5629 3.6463 0.2753 -0.908 0.411 -0.084 70 70 75 0 0
0.5721 3.6552 0.2724 -0.977 0.213 0.001 64 64 69 0 0
0.5788 3.6663 0.2695 -0.958 0.282 0.055 66 65 70 0 0
0.5905 3.6730 0.2666 -0.653 0.595 -0.469 53 51 56 0 0
0.6085 3.7762 0.2453 -0.259 0.358 -0.897 28 25 34 0 0
0.6268 3.7772 0.2426 -0.001 0.493 -0.870 28 25 33 0 0
0.6594 3.7658 0.2401 0.004 0.452 -0.892 29 26 33 0 0
0.6877 3.7584 0.2375 0.043 0.522 -0.852 27 26 32 0 0
0.7224 3.7454 0.2349 0.057 0.538 -0.841 27 26 31 0 0
0.5580 3.6545 0.2879 -0.954 0.217 -0.209 46 46 51 0 0
0.5669 3.6637 0.2850 -0.826 0.225 -0.516 38 38 43 0 0
0.5846 3.6822 0.2791 -0.510 0.438 -0.740 15 12 18 0 0
0.5985 3.6869 0.2763 -0.281 0.615 -0.737 16 13 19 0 0
0.6060 3.7822 0.2579 -0.913 -0.133 -0.386 36 33 40 0 0
0.6175 3.7890 0.2550 -0.981 -0.176 0.085 58 56 62 0 0
0.6187 3.8049 0.2520 -0.992 0.063 -0.105 47 45 49 0 0
0.6368 3.8060 0.2492 -0.666 0.377 -0.643 38 36 40 0 0
0.8043 3.7305 0.2398 0.229 0.743 -0.629 33 31 32 0 0
0.5769 3.6928 0.2916 -0.520 0.366 -0.771 11 9 14 0 0
0.5891 3.6991 0.2888 -0.360 0.531 -0.767 14 12 16 0 0
0.5945 3.8127 0.2671 -0.959 0.072 -0.274 64 61 64 0 0
0.6181 3.8091 0.2646 -0.999 0.039 0.029 55 53 54 0 0
0.7649 3.7508 0.2550 0.092 0.636 -0.766 29 27 29 0 0
0.7902 3.7463 0.2524 0.201 0.761 -0.617 29 27 28 0 0
0.3694 3.5245 0.3644 0.125 0.874 0.469 36 35 39 0 0
0.4053 3.5255 0.3593 -0.032 0.768 -0.640 22 21 26 0 0
0.5848 3.7067 0.3013 -0.571 0.612 -0.547 39 37 40 0 0
0.5900 3.7191 0.2983 -0.680 0.645 -0.349 57 55 58 0 0
0.5899 3.8205 0.2796 -0.998 -0.055 -0.004 55 51 52 0 0
0.6015 3.8272 0.2768 -0.667 0.643 -0.378 57 53 52 0 0
0.6225 3.8259 0.2741 -0.891 0.187 -0.413 49 47 48 0 0
0.6624 3.8084 0.2719 0.222 0.767 -0.602 46 44 47 0 0
0.7490 3.7681 0.2675 0.092 0.636 -0.766 41 39 42 0 0
0.3962 3.5204 0.3748 -0.086 0.919 -0.385 20 19 24 0 0
0.5690 3.7075 0.3167 -0.623 0.696 -0.357 71 69 70 0 0
0.5794 3.7152 0.3138 -0.496 0.815 -0.299 83 81 82 0 0
0.5877 3.7249 0.3109 -0.622 0.783 -0.011 91 89 90 0 0
0.6033 3.7282 0.3082 -0.190 0.969 0.160 93 90 91 0 0
0.5823 3.7974 0.2981 -0.884 0.368 -0.288 89 85 87 0 0
0.6018 3.8307 0.2893 -0.921 0.260 -0.288 78 73 69 0 0
0.6190 3.8327 0.2866 -0.845 0.245 -0.476 58 56 54 0 0
0.7344 3.7845 0.2800 0.128 0.676 -0.726 52 52 54 0 0
0.5683 3.7119 0.3293 -0.545 0.835 -0.078 90 88 90 0 0
0.5799 3.7186 0.3264 -0.393 0.916 0.077 91 89 90 0 0
0.5922 3.7248 0.3236 -0.418 0.806 0.419 88 86 88 0 0
0.6086 3.7274 0.3210 -0.143 0.989 0.026 81 79 80 0 0
0.6142 3.8405 0.2991 -0.845 0.245 -0.476 44 43 42 0 0
0.7251 3.7961 0.2925 0.091 0.928 -0.360 39 39 41 0 0
0.9436 3.7144 0.2785 0.361 0.879 -0.312 35 35 36 0 0
0.5631 3.7032 0.3449 -0.409 0.825 0.389 81 80 82 0 0
0.5721 3.7123 0.3420 -0.290 0.931 0.221 74 72 76 0 0
0.5863 3.7168 0.3393 -0.276 0.925 0.259 62 60 63 0 0
0.5998 3.7219 0.3365 -0.508 0.840 0.193 45 43 46 0 0
0.6051 3.7343 0.3335 -0.320 0.752 -0.576 32 31 34 0 0
0.5954 3.8438 0.3142 -0.776 0.207 -0.597 33 33 32 0 0
0.7211 3.8034 0.3051 0.063 0.880 -0.470 31 31 32 0 0
0.8865 3.7489 0.2934 0.390 0.812 -0.435 33 33 35 0 0
0.9437 3.7182 0.2916 0.355 0.865 -0.353 33 33 35 0 0
0.5683 3.7195 0.3545 -0.668 0.705 -0.240 29 28 33 0 0
0.5789 3.7271 0.3517 -0.737 0.612 -0.287 18 16 21 0 0
0.5855 3.7383 0.3487 -0.587 0.454 -0.670 15 13 18 0 0
0.5896 3.8525 0.3265 -0.706 0.470 -0.530 28 29 29 0 0
0.7182 3.8097 0.3178 0.122 0.884 -0.451 31 31 33 0 0
0.8784 3.7595 0.3062 0.374 0.801 -0.467 58 58 59 0 0
0.9386 3.7264 0.3045 0.343 0.838 -0.423 45 44 46 0 0
0.9886 3.7021 0.3026 0.384 0.782 -0.491 39 38 41 0 0
0.5730 3.7361 0.3641 -0.535 0.372 -0.759 9 8 13 0 0
0.5829 3.7444 0.3612 -0.535 0.372 -0.759 9 8 13 0 0
0.5948 3.7509 0.3584 -0.434 0.424 -0.795 10 9 14 0 0
0.5779 3.8496 0.3418 -0.796 0.536 -0.282 25 25 27 0 0
0.7166 3.8149 0.3304 0.091 0.859 -0.504 31 31 33 0 0
0.9821 3.7114 0.3155 0.400 0.782 -0.478 59 57 60 0 0
0.5543 3.7395 0.3792 -0.552 0.311 -0.774 9 8 13 0 0
0.5639 3.7480 0.3763 -0.535 0.372 -0.759 8 7 12 0 0
0.5773 3.7531 0.3736 -0.483 0.430 -0.763 9 8 13 0 0
0.5769 3.8543 0.3543 -0.774 0.630 -0.061 50 50 52 0 0
0.5850 3.8640 0.3514 -0.774 0.630 -0.061 39 39 39 0 0
0.6031 3.8651 0.3488 -0.144 0.968 -0.207 43 43 44 0 0
0.6403 3.8500 0.3469 -0.329 0.931 0.159 43 43 45 0 0
0.7048 3.8287 0.3427 0.295 0.916 -0.270 38 38 40 0 0
0.5884 3.7641 0.3834 -0.635 0.449 -0.629 31 30 33 0 0
0.5521 3.8294 0.3755 -0.446 0.888 0.109 50 50 52 0 0
0.5779 3.8571 0.3668 -0.604 0.786 -0.134 70 70 71 0 0
0.5874 3.8656 0.3640 -0.437 0.898 0.051 37 37 37 0 0
0.6024 3.8695 0.3613 -0.230 0.918 0.323 34 34 36 0 0
0.5579 3.7609 0.4012 -0.655 0.699 -0.286 54 54 55 0 0
0.5653 3.7712 0.3983 -0.563 0.820 0.108 69 69 70 0 0
0.5756 3.7791 0.3954 -0.425 0.840 0.338 81 81 83 0 0
0.5530 3.8157 0.3912 -0.448 0.544 -0.709 87 87 89 0 0
0.5628 3.8239 0.3884 -0.718 0.656 -0.233 89 89 91 0 0
0.5765 3.8621 0.3793 -0.647 0.624 -0.439 78 78 80 0 0
0.5897 3.8674 0.3766 -0.411 0.873 -0.263 47 47 49 0 0
0.6066 3.8696 0.3740 -0.228 0.955 -0.191 28 28 30 0 0
0.7340 3.8284 0.3659 0.169 0.834 -0.525 35 36 38 0 0
0.9186 3.7757 0.3528 0.428 0.826 -0.366 41 41 41 0 0
0.9976 3.7276 0.3521 0.456 0.793 -0.404 51 50 50 0 0
0.5535 3.7685 0.4136 -0.411 0.751 0.517 83 83 83 0 0
0.5659 3.7745 0.4109 -0.290 0.827 0.482 84 84 84 0 0
0.5794 3.7796 0.4082 -0.563 0.820 0.108 81 81 83 0 0
0.5832 3.8768 0.3888 -0.304 0.743 -0.596 22 22 24 0 0
0.7128 3.8500 0.3778 0.198 0.784 -0.588 32 32 35 0 0
0.9866 3.7406 0.3649 0.456 0.790 -0.410 46 46 46 0 0
0.4566 3.6546 0.4611 -0.929 -0.141 -0.341 18 17 19 0 0
0.5478 3.7603 0.4292 -0.391 0.849 0.356 64 64 66 0 0
0.5587 3.7677 0.4264 -0.643 0.749 0.160 50 50 52 0 0
0.5668 3.8780 0.4038 -0.370 0.783 -0.501 12 12 14 0 0
0.5792 3.8839 0.4011 0.002 0.877 -0.481 16 16 18 0 0
0.5973 3.8851 0.3987 0.077 0.758 -0.647 17 16 21 0 0
0.6998 3.8648 0.3899 0.148 0.629 -0.763 30 28 35 0 0
0.9835 3.7470 0.3779 0.412 0.787 -0.458 48 48 48 0 0
0.4573 3.6578 0.4737 -0.997 0.066 -0.039 16 15 17 0 0
0.4627 3.6700 0.4707 -0.637 0.705 0.313 21 19 21 0 0
0.4713 3.7980 0.4444 -0.924 0.380 -0.054 43 42 44 0 0
0.5798 3.8872 0.4136 -0.179 0.803 -0.568 18 17 20 0 0
0.5968 3.8893 0.4111 -0.179 0.803 -0.568 26 25 28 0 0
0.6197 3.8864 0.4089 -0.038 0.774 -0.632 29 28 32 0 0
0.6353 3.8897 0.4063 -0.461 0.697 -0.549 32 31 35 0 0
0.9715 3.7608 0.3905 0.429 0.781 -0.453 71 72 71 0 0
0.4588 3.6431 0.4898 -0.836 0.076 0.544 23 22 26 0 0
0.4589 3.7624 0.4662 -0.718 0.363 0.594 43 43 45 0 0
0.4582 3.7966 0.4595 -0.957 0.195 -0.214 21 19 24 0 0
0.5902 3.8986 0.4233 -0.602 0.684 -0.412 41 40 44 0 0
0.6088 3.8994 0.4209 -0.389 0.793 -0.469 46 44 49 0 0
0.9594 3.7747 0.4031 0.432 0.784 -0.446 71 72 71 0 0
0.4612 3.6446 0.5025 -0.447 0.630 0.635 41 41 42 0 0
0.4577 3.6822 0.4954 -0.350 0.786 0.510 42 42 43 0 0
0.5735 3.9000 0.4383 -0.513 0.843 -0.162 55 53 56 0 0
0.5847 3.9070 0.4355 -0.652 0.755 0.073 48 45 49 0 0
0.5989 3.9115 0.4329 -0.327 0.945 -0.028 55 53 56 0 0
0.4476 3.6780 0.5108 -0.852 0.523 -0.005 40 39 43 0 0
0.4532 3.6901 0.5077 -0.711 0.312 -0.630 33 32 36 0 0
0.5741 3.9033 0.4507 -0.707 0.701 0.090 68 66 69 0 0
0.5976 3.9164 0.4453 -0.417 0.891 0.178 45 40 44 0 0
0.6492 3.0398 0.6286 -0.857 -0.452 0.247 30 30 32 0 0
0.4401 3.6716 0.5262 -0.994 0.089 -0.059 32 31 36 0 0
0.5757 3.9057 0.4633 -0.762 0.586 -0.276 70 70 71 0 0
0.6007 3.9175 0.4580 -0.579 0.815 -0.036 31 30 32 0 0
0.9739 3.7916 0.4395 0.459 0.789 -0.408 47 45 48 0 0
0.4597 3.7088 0.5297 -0.778 0.430 -0.457 18 17 23 0 0
0.5374 3.8259 0.4971 0.050 0.619 0.783 81 82 84 0 0
0.5613 3.8218 0.4951 0.177 0.809 0.561 77 77 78 0 0
0.6162 3.9247 0.4680 -0.384 0.779 -0.496 28 28 30 0 0
0.4669 3.7231 0.5393 -0.681 0.633 -0.368 20 20 24 0 0
0.5429 3.8080 0.5133 0.144 0.690 0.710 40 41 43 0 0
0.5726 3.7989 0.5118 0.194 0.721 0.666 34 35 37 0 0
0.5616 3.8253 0.5077 0.351 0.936 0.041 27 27 29 0 0
0.5725 3.8327 0.5049 0.399 0.895 -0.200 23 23 24 0 0
0.5913 3.9329 0.4824 -0.122 0.790 -0.601 22 22 24 0 0
0.6439 3.9382 0.4753 0.300 0.866 -0.400 30 30 32 0 0
0.4478 3.7271 0.5539 -0.542 0.796 0.271 31 31 33 0 0
0.5343 3.7857 0.5321 -0.038 0.465 0.884 28 29 31 0 0
0.5633 3.9109 0.5033 -0.936 -0.127 -0.329 16 14 18 0 0
0.6244 3.9418 0.4900 -0.195 0.776 -0.600 29 29 31 0 0
0.6422 3.9434 0.4877 0.234 0.940 -0.247 31 31 33 0 0
0.4337 3.6925 0.5758 -0.809 0.307 -0.501 22 21 25 0 0
0.4416 3.7024 0.5729 -0.867 0.495 -0.052 29 29 30 0 0
0.4463 3.7153 0.5698 -0.572 0.680 0.458 41 41 41 0 0
0.5611 3.7658 0.5465 0.044 0.507 0.861 14 14 17 0 0
0.5622 3.7818 0.5431 0.206 0.799 0.565 12 11 16 0 0
0.5441 3.9676 0.5201 -0.147 0.824 0.548 29 28 31 0 0
0.6419 3.9511 0.5127 -0.156 0.933 -0.326 34 34 36 0 0
0.4750 3.6969 0.5970 -0.826 0.325 0.460 36 36 38 0 0
0.5504 3.9496 0.5363 -0.378 0.618 0.689 39 39 40 0 0
0.5594 3.9584 0.5335 -0.287 0.643 0.710 59 59 60 0 0
0.5702 3.9657 0.5308 -0.356 0.480 0.802 53 53 55 0 0
0.6061 3.9683 0.5263 -0.109 0.847 0.521 42 42 44 0 0
0.6390 3.9573 0.5250 -0.074 0.997 -0.018 42 42 44 0 0
0.4695 3.7057 0.6091 -0.998 0.062 0.002 24 23 27 0 0
0.5544 3.9334 0.5524 -0.171 0.535 0.828 72 72 71 0 0
0.5606 3.9446 0.5494 -0.388 0.357 0.850 76 76 75 0 0
0.5653 3.9571 0.5463 -0.388 0.357 0.850 86 85 86 0 0
0.5842 3.9577 0.5441 -0.244 0.449 0.860 61 60 62 0 0
0.6010 3.9600 0.5419 -0.027 0.839 0.543 30 29 31 0 0
0.6429 3.9578 0.5378 -0.093 0.989 0.114 45 45 47 0 0
0.5798 3.9322 0.5632 -0.395 0.317 0.862 71 71 71 0 0
0.5822 3.9466 0.5599 -0.511 0.222 0.830 66 65 68 0 0
0.5918 3.9550 0.5571 -0.472 0.198 0.859 52 50 54 0 0
0.6473 3.9578 0.5506 -0.125 0.967 0.224 45 45 47 0 0
0.5165 3.8573 0.5989 -0.047 0.368 0.929 74 74 75 0 0
0.5386 3.8549 0.5970 0.012 0.460 0.888 77 77 77 0 0
0.5715 3.8599 0.5925 0.182 0.621 0.762 79 79 82 0 0
0.6015 3.8842 0.5842 0.142 0.607 0.782 50 50 52 0 0
0.5870 3.9463 0.5727 -0.680 0.253 0.688 39 37 41 0 0
0.6049 3.9476 0.5705 -0.522 0.702 0.484 43 41 46 0 0
0.6124 3.9578 0.5676 -0.135 0.989 0.064 36 34 39 0 0
0.6190 3.9687 0.5646 -0.215 0.931 -0.296 29 27 32 0 0
0.6407 3.9671 0.5626 -0.188 0.962 -0.199 31 31 33 0 0
0.6370 3.9866 0.5589 0.274 0.957 0.089 34 34 36 0 0
0.8958 3.8901 0.5519 0.424 0.852 -0.308 50 49 54 0 0
0.5361 3.8273 0.6164 -0.059 0.340 0.939 56 55 60 0 0
0.5528 3.8295 0.6142 -0.068 0.346 0.936 49 48 53 0 0
0.5680 3.8332 0.6118 0.018 0.469 0.883 43 42 47 0 0
0.5872 3.9663 0.5817 -0.940 -0.079 -0.331 24 22 25 0 0
0.6104 3.9797 0.5764 -0.086 0.810 -0.580 24 22 25 0 0
0.6295 3.9802 0.5743 -0.086 0.810 -0.580 21 21 23 0 0
0.5900 3.8179 0.6262 0.025 0.602 0.798 13 13 15 0 0
0.6091 3.8686 0.6134 0.187 0.599 -0.778 13 13 15 0 0
0.6079 3.9855 0.5886 -0.053 0.629 -0.775 23 23 25 0 0
0.4166 3.7212 0.6779 -0.818 -0.298 -0.492 28 28 30 0 0
0.5602 3.8139 0.6434 -0.318 0.582 0.748 15 15 17 0 0
0.5686 3.8234 0.6406 -0.720 0.585 0.374 11 11 13 0 0
0.5748 3.9842 0.6055 -0.670 0.041 -0.741 14 14 16 0 0
0.5951 3.9999 0.6001 0.204 0.882 -0.424 22 22 24 0 0
0.6233 3.9928 0.5988 0.202 0.847 -0.492 27 27 29 0 0
0.6488 3.9880 0.5972 0.137 0.922 -0.361 25 25 27 0 0
0.5887 3.3186 0.7604 -0.916 -0.341 0.212 28 29 32 0 0
0.4992 3.7359 0.6797 -0.252 0.600 0.759 26 26 28 0 0
0.5640 3.9969 0.6171 0.031 0.885 -0.464 14 14 16 0 0
0.6214 3.9981 0.6111 0.305 0.932 -0.196 32 32 34 0 0
0.5130 3.7445 0.6899 -0.605 0.154 -0.781 22 22 24 0 0
0.5389 3.8567 0.6630 -0.201 0.103 -0.974 14 14 16 0 0
0.5493 3.8644 0.6603 0.033 0.251 -0.967 16 16 18 0 0
0.5761 3.8580 0.6591 0.094 0.306 -0.947 18 18 20 0 0
0.5638 3.8853 0.6544 -0.194 -0.014 -0.981 22 22 24 0 0
0.5652 3.9007 0.6509 -0.329 -0.116 -0.937 22 22 24 0 0
0.5561 3.9251 0.6466 -0.465 -0.154 -0.872 24 24 26 0 0
0.5445 4.0007 0.6314 -0.371 0.904 -0.214 24 24 26 0 0
0.5579 4.0058 0.6289 -0.710 0.684 -0.167 24 23 25 0 0
0.5633 4.0176 0.6259 -0.242 0.970 -0.032 26 25 28 0 0
0.5086 3.8533 0.6800 -0.146 0.064 -0.987 19 19 21 0 0
0.5165 3.8964 0.6699 -0.208 0.362 -0.909 31 31 33 0 0
0.5482 4.0013 0.6440 -0.655 0.750 0.093 30 29 32 0 0
0.5554 4.0116 0.6411 -0.735 0.636 0.233 43 41 44 0 0
0.5686 4.0169 0.6387 -0.657 0.749 0.085 42 40 43 0 0
0.8929 3.9323 0.6253 0.445 0.862 -0.242 49 49 51 0 0
0.5500 4.0035 0.6565 -0.709 0.675 0.205 32 30 31 0 0
0.5573 4.0137 0.6536 -0.761 0.621 0.187 48 46 47 0 0
0.5659 4.0228 0.6508 -0.704 0.706 0.075 49 47 48 0 0
0.5512 3.9570 0.6798 0.021 0.496 0.868 64 64 63 0 0
0.5584 3.9673 0.6768 0.056 0.551 0.833 71 71 70 0 0
0.5520 3.9892 0.6727 -0.716 0.369 0.592 74 74 73 0 0
0.5543 4.0036 0.6693 -0.779 0.488 0.393 66 65 64 0 0
0.5596 4.0155 0.6662 -0.809 0.476 0.346 60 59 57 0 0
0.5681 4.0247 0.6633 -0.783 0.572 0.244 52 51 50 0 0
0.9971 3.8730 0.6557 0.549 0.829 -0.108 67 67 66 0 0
0.5412 3.9196 0.7022 0.044 0.456 0.889 77 76 79 0 0
0.5639 3.9169 0.7007 0.090 0.488 0.868 79 78 80 0 0
0.5912 3.9268 0.6959 0.027 0.503 0.864 74 74 75 0 0
0.5964 3.9390 0.6927 0.088 0.598 0.797 68 68 69 0 0
0.5560 4.0059 0.6818 -0.907 0.386 0.169 54 54 54 0 0
0.9834 3.8879 0.6676 0.553 0.818 -0.159 73 72 72 0 0
0.5332 3.8804 0.7249 0.143 0.544 0.827 65 65 67 0 0
0.5488 3.8837 0.7227 0.137 0.562 0.816 66 65 68 0 0
0.5725 3.8800 0.7213 0.133 0.553 0.823 58 58 60 0 0
0.5902 3.8815 0.7193 0.044 0.456 0.889 57 57 59 0 0
0.6157 3.8765 0.7181 0.078 0.483 0.872 50 50 52 0 0
0.6068 3.9174 0.7099 -0.248 0.415 0.875 32 32 34 0 0
0.5671 4.0330 0.6880 -0.869 0.311 -0.384 35 35 35 0 0
0.5805 3.8434 0.7421 0.127 0.533 0.837 23 23 27 0 0
0.5810 3.9302 0.7360 -0.946 0.101 0.307 11 11 15 0 0
0.5754 3.9515 0.7318 -0.941 0.337 -0.015 11 11 15 0 0
0.5692 3.9732 0.7275 -0.919 0.354 0.174 12 11 15 0 0
0.5688 3.9899 0.7238 -0.888 0.454 0.073 12 12 16 0 0
0.5745 4.0015 0.7207 -0.888 0.454 0.073 12 11 15 0 0
0.5865 3.8626 0.7641 0.131 0.490 -0.862 10 9 14 0 0
0.5732 3.8906 0.7589 0.021 0.191 -0.981 10 10 12 0 0
0.5869 3.9289 0.7491 -0.830 -0.107 0.547 11 11 13 0 0
0.5784 3.9526 0.7445 -0.894 0.030 0.447 11 11 13 0 0
0.5723 3.9743 0.7402 -0.923 0.323 0.208 11 11 13 0 0
0.5767 3.9870 0.7370 -0.857 0.396 0.330 12 12 14 0 0
0.5727 3.9777 0.7527 -0.949 0.311 0.060 18 18 20 0 0
0.5742 3.9928 0.7491 -0.804 0.575 0.151 22 22 24 0 0
0.5529 4.0307 0.7556 -0.911 0.298 0.286 32 32 34 0 0
0.5556 4.0448 0.7522 -0.782 0.460 0.420 39 39 41 0 0
0.5569 4.0311 0.7684 -0.878 0.252 0.408 32 32 35 0 0
0.5604 4.0445 0.7650 -0.911 0.298 0.286 38 38 40 0 0
0.5650 4.0569 0.7618 -0.738 0.537 0.410 37 37 39 0 0
0.5967 4.0469 0.7614 -0.915 0.150 0.375 39 39 41 0 0
0.5729 3.9887 0.7900 -0.424 0.079 0.902 17 15 19 0 0
0.5720 4.0059 0.7861 -0.567 0.092 0.819 19 17 22 0 0
0.5670 4.0264 0.7818 -0.559 0.201 0.805 32 32 35 0 0
0.5665 4.0431 0.7780 -0.725 0.196 0.660 42 42 44 0 0
0.5714 4.0553 0.7748 -0.440 0.534 0.722 41 41 43 0 0
0.6019 4.0464 0.7743 -0.915 0.150 0.375 41 41 43 0 0
0.5899 3.9946 0.8005 -0.653 0.007 0.758 33 31 34 0 0
0.5738 4.0244 0.7949 -0.785 0.209 0.583 39 38 41 0 0
0.5724 4.0419 0.7910 -0.875 0.189 0.445 43 43 45 0 0
0.5844 4.0482 0.7886 -0.398 0.611 0.685 39 39 41 0 0
0.6071 4.0458 0.7873 -0.915 0.150 0.375 39 39 41 0 0
0.6135 4.0568 0.7842 0.173 0.984 0.046 39 39 41 0 0
0.5882 3.8670 0.8434 -0.090 0.362 0.928 36 36 38 0 0
0.5764 4.0260 0.8076 -0.854 0.257 0.453 40 39 42 0 0
0.5788 4.0403 0.8041 -0.854 0.257 0.453 35 35 37 0 0
0.5907 4.0468 0.8016 -0.482 0.768 0.421 34 34 36 0 0
0.6086 4.0483 0.7998 -0.086 0.975 0.207 35 35 37 0 0
0.4932 3.4897 0.9521 -0.849 -0.520 0.093 24 24 27 0 0
0.5996 3.8611 0.8573 -0.019 0.384 0.923 26 26 28 0 0
0.6044 3.8737 0.8540 -0.236 0.090 0.968 22 22 24 0 0
0.5828 4.0243 0.8207 -0.854 0.257 0.453 22 22 24 0 0
0.5853 4.0387 0.8172 -0.854 0.257 0.453 24 24 26 0 0
0.5970 4.0452 0.8147 -0.476 0.820 0.318 28 28 30 0 0
0.6199 4.0589 0.8097 0.114 0.987 -0.110 20 20 22 0 0
0.4904 3.4962 0.9645 -0.879 -0.459 0.131 25 24 27 0 0
0.5880 3.8748 0.8685 0.239 0.783 0.575 13 13 15 0 0
0.5944 4.0185 0.8344 -0.985 -0.044 0.167 11 11 13 0 0
0.5929 4.0360 0.8305 -0.985 -0.044 0.167 16 16 18 0 0
0.4914 3.4992 0.9774 -0.906 -0.423 -0.015 25 25 27 0 0
0.5919 3.8752 0.8815 0.285 0.845 0.452 11 11 13 0 0
0.6153 3.9054 0.8726 0.261 0.535 -0.804 10 10 12 0 0
0.5997 4.0178 0.8475 -0.968 -0.143 0.207 10 10 12 0 0
0.5959 4.0373 0.8432 -0.968 -0.143 0.207 13 13 15 0 0
0.6294 4.0586 0.8356 -0.253 0.848 -0.466 30 30 32 0 0
0.6465 4.0609 0.8338 -0.140 0.880 -0.453 32 32 34 0 0
0.6330 3.8606 0.8953 -0.297 -0.314 -0.902 10 10 12 0 0
0.6020 3.9039 0.8875 0.319 0.584 -0.747 13 12 14 0 0
0.6290 4.0136 0.8596 -0.852 -0.479 -0.210 24 24 26 0 0
0.6094 4.0462 0.8534 -0.716 -0.059 -0.696 28 28 30 0 0
0.6138 4.0751 0.8462 -0.705 -0.031 -0.709 32 32 34 0 0
0.6371 4.0723 0.8451 -0.066 0.770 -0.635 36 36 38 0 0
0.6545 3.2259 1.0574 -0.880 -0.474 0.030 65 64 67 0 0
0.5805 3.3696 1.0289 -0.794 -0.599 0.098 29 28 33 0 0
0.6254 3.9212 0.8951 0.431 0.899 -0.076 32 31 33 0 0
0.6394 3.9923 0.8772 -0.853 -0.500 -0.150 34 34 36 0 0
0.6198 4.0249 0.8709 -0.847 -0.471 -0.245 35 35 37 0 0
0.5030 3.9460 0.9116 -0.045 0.965 0.258 32 32 34 0 0
0.5798 3.9468 0.9057 0.380 0.925 -0.023 35 35 38 0 0
0.6414 3.9448 0.9017 0.206 0.827 0.524 37 37 39 0 0
0.6161 4.0318 0.8829 -0.853 -0.503 -0.142 37 37 39 0 0
0.6057 4.0567 0.8777 -0.969 -0.017 0.246 28 28 30 0 0
0.6238 4.0744 0.8722 -0.166 0.909 0.383 33 33 35 0 0
0.6682 4.0707 0.8698 0.070 0.988 -0.139 30 30 32 0 0
0.6977 4.0630 0.8695 0.285 0.901 -0.328 33 33 34 0 0
0.6671 3.2034 1.0904 -0.850 -0.522 0.070 77 75 77 0 0
0.6386 3.2491 1.0815 -0.852 -0.517 0.079 60 59 61 0 0
0.6480 3.8929 0.9271 0.524 0.851 -0.046 26 27 31 0 0
0.6784 3.8840 0.9270 0.518 0.853 0.061 24 25 28 0 0
0.6577 3.9182 0.9204 -0.766 0.155 0.624 23 24 27 0 0
0.6127 4.0383 0.8949 -0.904 -0.064 0.422 25 25 27 0 0
0.6093 4.0574 0.8906 -0.904 -0.064 0.422 16 16 18 0 0
0.6433 4.0784 0.8831 -0.128 0.839 0.530 48 48 50 0 0
0.6722 4.0712 0.8828 0.015 0.997 -0.072 44 44 46 0 0
0.6921 4.0713 0.8813 0.174 0.880 -0.442 41 40 44 0 0
0.6225 4.0339 0.9086 -0.927 -0.145 0.345 31 31 33 0 0
0.6566 4.0713 0.8972 -0.198 0.941 0.275 29 29 31 0 0
0.6731 4.0742 0.8954 -0.061 0.995 0.078 41 41 43 0 0
0.6914 4.0756 0.8937 0.165 0.916 -0.365 47 46 48 0 0
0.6892 3.1716 1.1251 -0.827 -0.560 0.043 84 83 83 0 0
0.6896 3.1901 1.1207 -0.978 0.045 0.202 70 68 71 0 0
0.6221 4.0380 0.9210 -0.955 -0.291 0.066 34 35 37 0 0
0.6151 4.0601 0.9161 -0.450 0.841 0.301 31 30 33 0 0
0.6277 4.0823 0.9099 -0.209 0.865 -0.457 19 19 21 0 0
0.6446 4.0848 0.9081 -0.174 0.813 -0.556 20 20 22 0 0
0.6764 4.0752 0.9082 -0.179 0.935 0.306 26 26 28 0 0
0.6871 4.0828 0.9057 0.147 0.987 -0.061 32 31 34 0 0
0.6928 3.1724 1.1391 -0.975 0.038 0.217 84 82 84 0 0
0.6946 3.1893 1.1349 -0.977 -0.043 0.209 65 63 68 0 0
0.6234 4.0895 0.9218 -0.347 0.856 -0.384 20 20 22 0 0
0.6425 4.0902 0.9203 -0.174 0.880 -0.442 15 15 17 0 0
0.6916 4.0829 0.9187 0.161 0.986 -0.055 25 23 28 0 0
0.6959 3.1735 1.1530 -0.975 0.038 0.217 80 78 80 0 0
0.6020 4.0620 0.9432 -0.521 0.793 0.316 18 18 20 0 0
0.6871 4.0740 0.9346 0.220 0.957 -0.191 30 30 32 0 0
0.6713 3.2010 1.1623 -0.802 -0.597 0.017 73 71 73 0 0
0.6437 3.9488 0.9814 -0.606 0.025 -0.795 10 9 12 0 0
0.6131 4.0403 0.9611 -0.981 -0.187 -0.055 11 10 12 0 0
0.6153 4.0548 0.9574 -0.387 0.853 0.350 12 12 14 0 0
0.6883 4.0768 0.9472 0.148 0.881 -0.450 34 34 36 0 0
0.8520 4.0274 0.9486 0.351 0.815 -0.461 35 35 37 0 0
0.6198 3.9891 0.9865 -0.692 0.616 -0.377 14 14 16 0 0
0.6179 4.0072 0.9822 -0.915 0.404 0.008 19 19 21 0 0
0.5925 4.0773 0.9667 0.001 0.989 -0.149 20 20 22 0 0
0.6121 4.0775 0.9654 -0.757 0.641 -0.130 25 25 27 0 0
0.6076 3.9202 1.0177 -0.029 0.182 -0.983 15 15 17 0 0
0.6042 4.0713 0.9807 -0.757 0.641 -0.130 31 33 35 0 0
0.6127 4.0807 0.9778 -0.757 0.641 -0.130 35 35 37 0 0
0.6384 4.0922 0.9734 -0.101 0.980 -0.169 44 44 46 0 0
0.6572 4.0931 0.9720 0.162 0.985 -0.051 38 38 40 0 0
0.6918 4.0814 0.9727 0.294 0.948 -0.118 36 36 38 0 0
0.9471 3.9929 0.9785 -0.016 0.695 -0.718 51 51 53 0 0
0.6543 3.2852 1.1855 -0.821 -0.571 -0.013 32 31 34 0 0
0.4505 3.6363 1.1111 -0.025 0.963 -0.270 33 33 35 0 0
0.6171 4.0482 0.9989 -0.993 0.099 0.062 37 38 41 0 0
0.6210 4.0613 0.9954 -0.981 0.155 -0.113 37 38 40 0 0
0.6235 4.0755 0.9918 -0.990 -0.028 -0.140 34 33 36 0 0
0.6260 4.0898 0.9881 -0.837 0.488 -0.249 35 34 36 0 0
0.6377 4.0965 0.9857 -0.528 0.825 -0.200 43 43 45 0 0
0.6579 4.0964 0.9845 0.044 0.996 -0.072 40 40 42 0 0
0.6901 4.0866 0.9849 0.284 0.946 -0.159 37 37 39 0 0
0.7215 4.0775 0.9852 0.378 0.890 -0.254 43 42 46 0 0
0.4547 3.6363 1.1245 -0.142 0.986 0.088 37 37 39 0 0
0.6174 4.0517 1.0114 -0.954 0.221 -0.203 36 36 39 0 0
0.6203 4.0656 1.0078 -0.983 0.156 -0.101 32 33 35 0 0
0.6229 4.0797 1.0041 -0.983 0.156 -0.101 26 25 27 0 0
0.6266 4.0930 1.0006 -0.385 0.921 -0.055 33 31 34 0 0
0.6399 4.0984 0.9984 -0.385 0.921 -0.055 45 45 47 0 0
0.6667 4.0929 0.9982 0.059 0.998 -0.024 47 47 49 0 0
0.6943 4.0869 0.9980 0.271 0.954 -0.130 55 55 57 0 0
0.6194 4.0374 1.0282 -0.553 0.639 -0.534 28 27 32 0 0
0.6079 4.0632 1.0225 -0.851 0.512 -0.116 26 27 30 0 0
0.6195 4.0700 1.0201 -0.980 0.199 -0.009 27 28 30 0 0
0.6178 4.0876 1.0158 -0.662 0.670 0.335 21 20 22 0 0
0.6319 4.0924 1.0137 0.068 0.994 0.088 31 29 33 0 0
0.6537 4.0909 1.0128 0.115 0.983 0.141 55 54 59 0 0
0.6778 4.0877 1.0122 0.170 0.979 0.110 52 51 55 0 0
0.7074 4.0800 1.0124 0.288 0.948 -0.137 50 49 54 0 0
0.4660 3.6162 1.1561 -0.042 0.934 -0.354 30 30 32 0 0
0.6152 4.0446 1.0401 -0.465 0.201 -0.862 44 45 48 0 0
0.6283 4.0502 1.0379 -0.657 0.735 0.168 49 49 52 0 0
0.6162 4.0764 1.0320 -0.846 0.504 0.172 48 47 50 0 0
0.6236 4.0867 1.0290 -0.662 0.670 0.335 33 32 34 0 0
0.6383 4.0909 1.0271 0.086 0.991 0.100 25 23 26 0 0
0.6630 4.0872 1.0266 0.128 0.979 0.157 40 38 42 0 0
0.6866 4.0843 1.0260 0.177 0.983 0.048 42 41 45 0 0
0.7098 4.0819 1.0252 0.294 0.935 -0.198 44 43 47 0 0
0.9629 3.9958 1.0323 0.120 0.993 0.006 53 53 57 0 0
0.6322 4.0507 1.0509 -0.657 0.735 0.168 48 46 49 0 0
0.6179 4.0788 1.0447 -0.783 0.568 0.252 39 37 40 0 0
0.6255 4.0888 1.0417 -0.383 0.868 0.316 33 31 34 0 0
0.6429 4.0909 1.0402 0.021 0.983 0.180 20 18 21 0 0
0.6691 4.0859 1.0400 0.089 0.974 0.208 16 14 17 0 0
0.6894 4.0858 1.0389 0.131 0.986 0.106 25 23 26 0 0
0.7095 4.0859 1.0377 0.297 0.933 -0.205 29 27 30 0 0
0.5912 3.9233 1.0988 -0.082 0.384 0.920 41 39 44 0 0
0.6030 3.9301 1.0965 -0.223 0.206 0.953 40 38 43 0 0
0.6365 4.0509 1.0641 -0.658 0.660 0.364 16 14 17 0 0
0.6222 4.0789 1.0577 -0.766 0.589 0.259 18 16 19 0 0
0.6311 4.0879 1.0550 -0.390 0.873 0.293 24 22 25 0 0
0.6507 4.0883 1.0538 -0.030 0.973 0.231 19 17 20 0 0
0.6732 4.0863 1.0531 0.044 0.981 0.188 13 11 14 0 0
0.6908 4.0884 1.0516 0.047 0.988 0.147 17 15 18 0 0
0.7115 4.0881 1.0505 0.297 0.933 -0.205 25 23 26 0 0
0.6373 4.0540 1.0766 -0.559 0.797 0.229 12 11 14 0 0
0.6571 4.0868 1.0672 0.033 0.997 0.071 20 18 21 0 0
0.6983 4.0861 1.0652 -0.021 0.980 0.198 30 28 31 0 0
0.6973 4.1032 1.0609 0.231 0.973 -0.016 38 36 39 0 0
0.6306 3.9477 1.1175 0.202 0.367 -0.908 13 9 14 0 0
0.6518 4.0458 1.0914 -0.684 0.639 0.353 12 11 13 0 0
0.6599 4.0556 1.0885 -0.505 0.773 0.385 11 10 13 0 0
0.6590 4.0727 1.0841 0.027 0.915 0.403 15 15 17 0 0
0.7129 4.0780 1.0800 -0.087 0.944 0.318 39 39 41 0 0
0.7357 4.0924 1.0751 0.292 0.953 -0.075 27 26 29 0 0
0.5938 3.9823 1.1241 0.177 0.354 -0.918 18 17 19 0 0
0.6477 4.0529 1.1032 -0.523 0.673 0.523 29 29 31 0 0
0.6649 4.0553 1.1017 -0.769 0.638 0.043 32 32 34 0 0
0.6738 4.0644 1.0990 -0.792 0.574 -0.209 35 35 37 0 0
0.6581 4.0935 1.0923 0.218 0.966 -0.138 31 31 33 0 0
0.7650 4.0727 1.0922 0.330 0.922 0.204 33 32 34 0 0
0.6267 4.0739 1.1123 -0.652 0.594 -0.471 39 39 41 0 0
0.6332 4.0849 1.1092 -0.327 0.829 -0.454 40 40 42 0 0
0.6498 4.0877 1.1076 -0.515 0.689 -0.510 39 39 41 0 0
0.6619 4.0942 1.1054 -0.390 0.764 -0.514 32 32 34 0 0
0.6753 4.0996 1.1033 -0.390 0.764 -0.514 32 32 34 0 0
0.7137 4.0849 1.1052 0.245 0.969 -0.033 33 33 35 0 0
0.7127 4.1021 1.1008 0.211 0.978 -0.012 35 35 37 0 0
0.6237 4.0801 1.1243 -0.652 0.594 -0.471 36 36 38 0 0
0.6350 4.0872 1.1219 -0.515 0.689 -0.510 35 35 37 0 0
0.6465 4.0941 1.1196 -0.515 0.689 -0.510 29 29 31 0 0
0.6547 4.1037 1.1167 -0.235 0.905 -0.355 23 23 25 0 0
0.6914 4.0904 1.1183 0.206 0.943 -0.262 32 32 34 0 0
0.7243 4.0802 1.1194 0.291 0.922 -0.256 35 35 37 0 0
0.6287 4.0797 1.1375 -0.728 0.292 -0.620 25 25 27 0 0
0.6299 4.0951 1.1335 -0.325 0.642 -0.694 22 22 24 0 0
0.6438 4.1000 1.1316 -0.325 0.642 -0.694 14 14 16 0 0
0.6683 4.0965 1.1313 0.205 0.799 -0.565 19 19 21 0 0
0.7101 4.0790 1.1339 0.345 0.619 -0.706 34 34 36 0 0
0.6238 4.1037 1.1449 -0.256 0.755 -0.604 29 29 31 0 0
0.6391 4.1076 1.1432 -0.261 0.766 -0.587 18 18 20 0 0
0.9986 4.0193 1.1498 0.066 0.870 -0.489 54 53 53 0 0
0.6208 4.0937 1.1611 -0.812 0.159 -0.562 27 27 29 0 0
0.6256 4.1060 1.1576 -0.472 0.655 -0.590 28 28 30 0 0
0.6373 4.1127 1.1553 -0.280 0.888 -0.364 26 26 28 0 0
0.6130 4.1037 1.1721 -0.801 0.411 -0.436 17 16 19 0 0
0.6186 4.1154 1.1688 -0.101 0.990 0.095 26 24 27 0 0
0.6373 4.1164 1.1677 0.024 0.990 0.141 27 26 29 0 0
0.6461 4.1256 1.1650 0.124 0.884 -0.450 27 26 28 0 0
0.7300 4.1070 1.1662 0.261 0.762 -0.593 15 15 17 0 0
0.6299 4.1100 1.1832 -0.175 0.882 0.437 12 10 13 0 0
0.6449 4.1140 1.1815 0.064 0.968 0.242 17 15 18 0 0
0.6698 4.1102 1.1814 0.135 0.976 0.171 23 21 24 0 0
0.6683 4.1277 1.1769 0.231 0.830 -0.508 22 22 24 0 0
0.7204 4.1184 1.1772 0.221 0.784 -0.581 17 17 19 0 0
0.6485 4.0823 1.2032 -0.375 0.429 0.822 11 10 13 0 0
0.6560 4.0925 1.2001 -0.321 0.542 0.777 11 9 12 0 0
0.6440 4.1185 1.1937 -0.390 0.892 -0.228 12 10 13 0 0
0.6568 4.1244 1.1916 -0.004 0.929 -0.371 21 20 23 0 0
0.6560 4.1413 1.1872 0.177 0.663 -0.728 23 23 25 0 0
0.6846 4.1345 1.1878 0.231 0.689 -0.687 29 29 31 0 0
0.7109 4.1297 1.1880 0.119 0.720 -0.684 41 41 43 0 0
0.7708 4.1146 1.1896 0.303 0.901 -0.311 38 38 40 0 0
0.9513 4.0715 1.1938 0.247 0.860 -0.446 51 50 55 0 0
0.6890 4.0367 1.2272 -0.810 -0.137 0.570 24 22 25 0 0
0.6685 4.0698 1.2192 -0.870 -0.094 0.484 23 21 24 0 0
0.6748 4.0810 1.2159 -0.321 0.542 0.777 19 17 20 0 0
0.6481 4.1189 1.2069 -0.350 0.921 0.173 21 19 22 0 0
0.6638 4.1225 1.2053 -0.065 0.987 -0.147 28 26 29 0 0
0.6807 4.1252 1.2039 0.044 0.973 -0.225 35 35 37 0 0
0.6955 4.1295 1.2022 0.191 0.965 -0.181 45 45 47 0 0
0.7687 4.1201 1.2019 0.271 0.959 -0.082 27 27 29 0 0
0.9217 4.0819 1.2060 0.135 0.851 -0.507 49 49 53 0 0
0.7143 3.9699 1.2576 -0.064 0.424 0.903 37 35 39 0 0
0.6532 4.1185 1.2202 -0.725 0.689 -0.001 36 36 38 0 0
0.6659 4.1246 1.2181 -0.239 0.962 -0.133 35 35 37 0 0
0.6857 4.1249 1.2173 0.030 0.992 -0.123 38 38 40 0 0
0.7002 4.1295 1.2155 0.136 0.990 -0.043 41 41 43 0 0
0.7177 4.1318 1.2142 0.226 0.973 0.038 38 38 40 0 0
0.7578 4.1162 1.2169 -0.029 0.879 0.476 35 35 37 0 0
0.6706 4.1083 1.2358 -0.735 0.564 -0.377 34 34 36 0 0
0.6645 4.1294 1.2303 -0.380 0.877 0.293 36 36 38 0 0
0.6833 4.1305 1.2293 0.162 0.974 0.156 38 38 40 0 0
0.7126 4.1233 1.2302 0.271 0.927 0.258 39 39 41 0 0
0.7352 4.1216 1.2298 0.337 0.919 0.203 38 38 40 0 0
0.7703 4.1100 1.2317 -0.017 0.851 0.526 38 38 40 0 0
0.7892 4.1114 1.2306 0.181 0.968 0.174 41 41 43 0 0
0.8122 4.1096 1.2303 0.323 0.924 -0.203 45 45 47 0 0
0.8328 3.0278 1.5348 -0.934 0.093 0.344 58 59 61 0 0
0.6716 4.0948 1.2529 -0.959 -0.131 -0.250 30 30 32 0 0
0.6720 4.1109 1.2485 -0.947 -0.082 -0.310 24 24 26 0 0
0.6659 4.1320 1.2430 -0.953 -0.262 -0.152 27 27 29 0 0
0.7122 4.1111 1.2470 0.405 0.887 0.221 33 33 35 0 0
0.7255 4.1168 1.2450 0.325 0.861 0.391 32 32 34 0 0
0.8511 3.0145 1.5527 -0.702 0.582 0.410 53 53 56 0 0
0.6786 4.0766 1.2711 -0.952 -0.219 -0.216 24 24 26 0 0
0.6726 4.0978 1.2655 -0.687 0.453 0.568 21 21 23 0 0
0.9839 4.0655 1.2637 0.285 0.854 -0.435 48 48 52 0 0
0.6619 4.1102 1.2760 -0.922 0.377 0.084 26 26 28 0 0
1.0081 4.0672 1.2764 0.201 0.824 -0.529 46 47 51 0 0
0.8567 2.9982 1.5869 -0.942 -0.179 0.282 59 58 63 0 0
0.6586 4.1166 1.2879 -0.947 -0.001 -0.321 27 27 29 0 0
0.6511 4.1389 1.2820 -0.330 0.791 -0.515 22 22 24 0 0
0.6752 4.1357 1.2821 0.028 0.925 -0.379 19 19 21 0 0
0.6971 4.1345 1.2818 0.090 0.942 -0.323 20 20 22 0 0
0.8620 2.9973 1.6019 -0.936 -0.168 0.310 52 51 57 0 0
0.6631 4.1167 1.3012 -0.863 0.475 0.169 23 23 25 0 0
0.6756 4.1229 1.2991 -0.557 0.778 0.290 25 25 27 0 0
0.7839 4.1344 1.2927 0.181 0.956 -0.229 31 31 33 0 0
0.8248 4.1186 1.2958 0.292 0.886 -0.360 32 32 34 0 0
0.8765 4.0945 1.3009 0.380 0.829 -0.410 31 31 33 0 0
0.6732 4.1123 1.3156 -0.650 0.613 0.450 15 15 17 0 0
0.6635 4.1526 1.3048 0.202 0.979 -0.018 29 29 31 0 0
0.7032 4.1370 1.3079 0.182 0.746 -0.641 24 24 26 0 0
0.7108 4.1473 1.3049 0.179 0.574 -0.799 24 24 26 0 0
0.7367 4.1430 1.3053 0.218 0.726 -0.652 31 31 33 0 0
0.7849 4.1374 1.3055 0.179 0.971 -0.156 41 41 43 0 0
0.7031 3.9596 1.3705 0.536 0.809 -0.240 11 10 13 0 0
0.6893 4.1031 1.3312 -0.153 0.760 0.632 18 18 20 0 0
0.6744 4.1476 1.3193 0.194 0.958 0.213 35 35 37 0 0
0.6972 4.1456 1.3192 0.156 0.954 0.255 38 38 40 0 0
0.6940 4.1644 1.3141 0.128 0.533 -0.836 41 41 43 0 0
0.8213 4.1290 1.3205 0.280 0.904 -0.324 32 32 34 0 0
0.6788 4.0662 1.3553 -0.212 0.649 0.730 29 29 31 0 0
0.6923 4.1044 1.3443 -0.876 -0.240 0.419 35 35 37 0 0
0.6987 4.1319 1.3365 0.220 0.882 0.418 36 36 38 0 0
0.7086 4.1403 1.3339 0.117 0.963 0.244 39 39 41 0 0
0.7212 4.1465 1.3319 0.159 0.927 -0.340 40 40 42 0 0
0.7424 4.1459 1.3315 0.187 0.955 -0.230 41 41 43 0 0
0.7893 4.1415 1.3315 0.186 0.961 -0.203 34 34 36 0 0
0.8229 4.1315 1.3334 0.241 0.959 -0.149 33 33 35 0 0
0.8512 4.1257 1.3343 0.312 0.741 -0.594 36 36 38 0 0
0.6842 4.1147 1.3552 -0.966 0.134 -0.222 40 40 42 0 0
0.6909 4.1256 1.3520 -0.955 -0.102 -0.280 38 38 40 0 0
0.6964 4.1375 1.3486 -0.853 0.041 -0.520 37 37 39 0 0
0.7049 4.1470 1.3457 -0.748 0.207 -0.630 38 38 40 0 0
0.6797 4.1384 1.3622 -0.705 0.690 -0.165 30 30 32 0 0
1.0511 4.0779 1.3705 0.348 0.891 -0.292 55 55 57 0 0
0.6710 4.1328 1.3775 -0.612 0.765 -0.203 30 30 32 0 0
0.6727 4.1477 1.3733 -0.299 0.900 0.316 20 20 22 0 0
0.7106 4.1337 1.3764 -0.771 0.481 -0.417 31 31 33 0 0
1.0710 4.0500 1.3920 0.104 0.973 -0.207 44 45 48 0 0
0.6769 4.1318 1.3912 -0.889 0.458 -0.008 22 22 24 0 0
0.6843 4.1421 1.3881 -0.565 0.726 0.392 16 16 18 0 0
0.8666 4.1453 1.3835 0.404 0.911 0.082 34 34 36 0 0
0.9380 4.1063 1.3930 0.430 0.886 -0.173 36 35 39 0 0
1.0304 4.0683 1.4018 0.394 0.800 -0.452 39 39 44 0 0
0.6780 4.1347 1.4039 -0.834 0.550 -0.047 32 32 34 0 0
0.7479 4.1441 1.3999 -0.075 0.699 0.711 36 36 38 0 0
0.7664 4.1458 1.3990 0.056 0.855 0.515 42 42 44 0 0
0.8866 4.1335 1.4002 0.389 0.899 -0.200 32 31 36 0 0
0.6517 4.1270 1.4201 -0.256 0.939 -0.227 32 32 35 0 0
0.6672 4.1308 1.4187 -0.729 0.674 0.116 35 35 37 0 0
0.6741 4.1415 1.4156 -0.572 0.819 0.050 35 35 37 0 0
0.7038 4.1503 1.4125 -0.689 0.530 0.494 19 19 21 0 0
0.7114 4.1606 1.4095 -0.653 0.525 0.547 16 16 18 0 0
0.8819 4.1410 1.4120 0.321 0.919 -0.227 32 31 36 0 0
0.6465 4.0696 1.4501 -0.297 0.099 -0.950 13 11 14 0 0
0.6569 4.0775 1.4476 -0.297 0.099 -0.950 13 12 14 0 0
0.6558 4.0948 1.4427 -0.499 0.064 -0.864 14 14 16 0 0
0.6704 4.0993 1.4412 -0.450 -0.026 -0.893 15 15 17 0 0
0.6524 4.1302 1.4327 -0.237 0.961 0.143 14 14 16 0 0
0.6673 4.1345 1.4312 -0.741 0.669 0.062 15 15 17 0 0
0.7059 4.1524 1.4255 -0.265 0.952 0.153 19 19 21 0 0
0.7209 4.1568 1.4240 -0.265 0.952 0.153 17 17 19 0 0
0.8829 4.1440 1.4249 0.314 0.917 -0.248 31 30 35 0 0
0.6435 4.0757 1.4619 -0.868 -0.358 -0.343 13 12 14 0 0
0.6378 4.0968 1.4560 -0.333 0.080 -0.939 19 18 20 0 0
0.6469 4.1058 1.4533 -0.301 0.170 -0.938 24 25 25 0 0
0.6506 4.1191 1.4494 -0.393 -0.004 -0.920 11 12 12 0 0
0.7041 4.1576 1.4376 -0.313 0.400 -0.862 20 20 22 0 0
0.7411 4.1608 1.4361 -0.073 0.698 -0.712 25 25 28 0 0
0.8895 4.1427 1.4390 0.327 0.874 -0.359 27 26 31 0 0
0.9627 4.1192 1.4446 0.321 0.746 -0.584 37 36 41 0 0
0.9886 4.1158 1.4452 0.397 0.848 -0.350 50 49 54 0 0
0.5308 3.7200 1.5793 -0.883 0.022 0.468 35 34 40 0 0
0.6244 4.0622 1.4797 -0.575 0.497 0.650 18 18 20 0 0
0.6246 4.0785 1.4750 -0.963 0.254 -0.092 17 17 19 0 0
0.6282 4.0919 1.4711 -0.969 0.227 -0.096 20 20 22 0 0
0.6187 4.1161 1.4643 -0.391 -0.196 -0.899 30 31 32 0 0
0.7055 4.1602 1.4504 -0.436 0.536 -0.723 32 32 34 0 0
0.9142 4.1438 1.4522 0.313 0.750 -0.583 38 37 41 0 0
0.9513 4.1317 1.4551 0.378 0.856 -0.352 52 51 56 0 0
0.9938 4.1156 1.4591 0.430 0.895 -0.118 64 63 66 0 0
0.6536 4.1242 1.4750 0.066 0.971 -0.231 32 33 38 0 0
0.6657 4.1307 1.4730 -0.264 0.962 0.062 34 35 40 0 0
0.7380 4.1707 1.4605 -0.310 0.836 -0.453 46 45 50 0 0
0.9550 4.1327 1.4687 0.393 0.886 -0.245 64 64 66 0 0
1.0140 4.1206 1.4715 0.297 0.949 -0.102 78 81 78 0 0
0.6479 4.1162 1.4909 -0.147 0.975 0.169 41 42 43 0 0
0.6726 4.1126 1.4917 0.031 0.976 0.215 40 41 44 0 0
0.6766 4.1257 1.4878 -0.323 0.852 0.412 39 40 44 0 0
0.7415 4.1392 1.4832 -0.107 0.985 0.136 40 39 44 0 0
0.8323 4.1369 1.4966 -0.913 -0.286 0.291 47 46 49 0 0
0.8502 4.1393 1.4957 -0.076 0.851 0.519 47 47 49 0 0
0.8696 4.1406 1.4952 -0.031 0.893 0.449 47 46 51 0 0
1.0530 4.1152 1.5007 0.323 0.873 -0.365 49 47 52 0 0
0.7218 4.1134 1.5182 -0.967 -0.037 0.251 38 38 40 0 0
0.7331 4.1207 1.5160 -0.869 -0.250 0.427 31 31 33 0 0
0.7382 4.1656 1.5028 -0.305 0.650 0.696 37 36 40 0 0
0.7590 4.1655 1.5027 -0.019 0.923 0.383 37 36 39 0 0
0.8775 4.1219 1.5144 -0.665 0.597 0.449 34 34 36 0 0
0.8852 4.1323 1.5113 -0.576 0.719 0.389 33 32 37 0 0
0.4953 3.7881 1.6288 -0.931 -0.068 -0.357 19 20 22 0 0
0.7206 4.1181 1.5305 -0.990 0.050 -0.133 29 29 31 0 0
0.7386 4.1201 1.5298 -0.864 -0.218 0.455 22 22 24 0 0
0.4903 3.7963 1.6402 -0.931 -0.068 -0.357 24 24 27 0 0
0.7383 4.1241 1.5423 -0.898 -0.121 0.422 25 25 27 0 0
0.7719 4.1466 1.5355 -0.417 0.891 0.181 34 34 36 0 0
0.7860 4.1681 1.5291 -0.377 0.859 0.346 33 33 35 0 0
1.0904 4.1152 1.5428 0.331 0.754 -0.568 54 52 57 0 0
0.7202 4.1259 1.5556 -0.983 -0.057 -0.176 30 29 32 0 0
0.7222 4.1407 1.5512 -0.967 -0.052 -0.251 26 26 28 0 0
0.7450 4.1389 1.5516 -0.905 0.216 -0.365 20 20 22 0 0
0.7560 4.1465 1.5493 -0.692 0.511 -0.510 19 19 21 0 0
1.0056 4.1501 1.5471 0.207 0.690 -0.694 42 41 47 0 0
0.7228 4.1113 1.5736 -0.813 0.579 0.067 23 21 24 0 0
0.7290 4.1227 1.5702 -0.927 0.340 0.157 26 25 28 0 0
0.7338 4.1352 1.5664 -0.867 0.433 0.247 26 26 28 0 0
0.7416 4.1454 1.5634 -0.363 0.924 0.123 24 24 26 0 0
0.7292 4.1263 1.5828 -0.760 0.597 0.257 16 15 17 0 0
0.7424 4.1322 1.5810 -0.596 0.675 0.435 22 22 24 0 0
0.7762 4.1545 1.5743 -0.327 0.847 -0.420 16 16 18 0 0
0.7891 4.1770 1.5676 0.079 0.836 -0.544 24 24 26 0 0
0.8139 4.1740 1.5684 0.157 0.860 -0.485 34 34 36 0 0
0.9529 4.1486 1.5757 0.379 0.812 -0.444 38 36 42 0 0
0.7348 4.1256 1.5967 -0.607 0.709 0.358 13 11 15 0 0
0.7446 4.1506 1.5892 -0.977 0.148 -0.153 22 20 24 0 0
0.7726 4.1611 1.5861 -0.391 0.707 -0.589 40 40 42 0 0
0.8381 4.1753 1.5818 -0.066 0.896 -0.440 52 51 55 0 0
0.8814 4.1745 1.5820 -0.274 0.961 0.027 33 32 36 0 0
0.7363 4.1282 1.6096 -0.940 0.279 -0.194 29 28 32 0 0
0.7411 4.1408 1.6058 -0.914 0.338 -0.225 30 28 33 0 0
0.7618 4.1571 1.6010 -0.651 0.736 -0.185 43 42 47 0 0
0.7743 4.1636 1.5990 -0.274 0.735 -0.620 47 47 49 0 0
0.7858 4.1709 1.5969 -0.178 0.729 -0.661 48 48 50 0 0
0.7803 4.1627 1.6131 -0.303 0.952 -0.034 44 43 47 0 0
0.7850 4.1752 1.6093 -0.264 0.913 -0.313 44 44 48 0 0
0.7758 4.1700 1.6246 -0.540 0.722 0.433 45 44 48 0 0
1.0001 4.1445 1.6330 0.431 0.896 -0.106 38 36 43 0 0
1.0377 4.1324 1.6368 0.392 0.920 0.009 39 36 45 0 0
0.7582 4.1550 1.6428 -0.782 0.605 -0.152 32 33 35 0 0
1.0077 4.1425 1.6477 0.431 0.896 -0.106 38 37 40 0 0
0.7636 4.1381 1.6617 -0.143 0.989 -0.043 21 21 23 0 0
0.7972 4.1808 1.6626 -0.271 0.723 0.635 23 23 25 0 0
0.8091 4.1878 1.6606 -0.235 0.792 0.563 25 25 27 0 0
0.7957 4.1858 1.6749 0.135 0.897 -0.421 22 22 24 0 0
0.8211 4.1824 1.6762 -0.138 0.990 0.021 25 25 27 0 0
1.0143 4.1491 1.6880 0.352 0.813 -0.464 40 38 43 0 0
1.0435 4.1435 1.6900 0.311 0.818 -0.483 36 35 41 0 0
0.7905 4.1936 1.6862 0.124 0.902 -0.414 17 17 19 0 0
0.8099 4.1948 1.6860 0.025 0.935 -0.353 18 18 20 0 0
0.8259 4.1987 1.6850 0.304 0.848 -0.434 17 17 19 0 0
0.8565 4.1914 1.6875 0.191 0.873 -0.449 17 17 19 0 0
0.7855 4.2013 1.6975 0.139 0.951 -0.275 20 20 22 0 0
0.8088 4.1995 1.6983 0.025 0.935 -0.353 24 24 26 0 0
0.9058 4.2063 1.6973 -0.163 0.840 -0.517 48 47 52 0 0
0.9283 4.2056 1.6978 0.067 0.872 -0.485 42 41 47 0 0
0.9516 4.2042 1.6985 0.067 0.872 -0.485 44 43 49 0 0
0.8602 4.1961 1.7138 -0.070 0.899 -0.433 53 53 56 0 0
0.9242 4.2124 1.7096 0.067 0.872 -0.485 46 47 52 0 0
0.9497 4.1806 1.7338 0.261 0.895 -0.362 51 51 58 0 0
0.9821 4.1724 1.7368 0.259 0.963 -0.072 56 57 62 0 0
1.0210 4.1595 1.7413 0.297 0.955 -0.001 62 63 66 0 0
0.7849 4.1968 1.7402 -0.002 0.936 0.352 47 46 51 0 0
1.0059 4.1582 1.7556 0.195 0.928 0.318 60 61 66 0 0
1.0013 4.1656 1.7674 0.295 0.945 0.142 53 54 58 0 0
0.9267 4.1932 1.7714 0.391 0.859 -0.330 44 44 47 0 0
0.9577 4.1860 1.7743 0.374 0.901 -0.221 41 41 44 0 0
0.9955 4.1738 1.7788 0.304 0.950 -0.073 40 41 44 0 0
0.7919 4.1702 1.7901 -0.948 0.318 0.006 31 30 35 0 0
0.8542 4.1872 1.7859 -0.633 0.692 0.346 33 30 37 0 0
0.7971 4.1699 1.8041 -0.712 0.581 -0.395 19 18 23 0 0
0.8062 4.1791 1.8013 -0.894 0.389 -0.223 30 29 35 0 0
0.9622 4.1902 1.8011 0.333 0.878 -0.343 29 28 35 0 0
1.1479 2.6924 2.2949 -0.690 -0.269 0.671 41 41 43 0 0
1.1622 2.6992 2.2930 -0.780 -0.400 0.481 41 40 43 0 0
0.9679 4.1898 1.8154 0.287 0.869 -0.403 38 38 41 0 0
1.0106 4.1739 1.8214 0.268 0.798 -0.540 47 46 50 0 0
1.1121 4.1474 1.8320 0.279 0.727 -0.627 42 41 47 0 0
1.1789 2.6877 2.3131 -0.752 -0.289 0.593 40 39 44 0 0
0.9988 4.1867 1.8312 0.286 0.897 -0.336 58 57 62 0 0
1.0691 4.1669 1.8391 0.297 0.820 -0.489 40 38 43 0 0
1.1020 4.1588 1.8425 0.297 0.833 -0.466 40 38 43 0 0
0.9670 4.1981 1.8408 0.273 0.962 -0.024 54 53 58 0 0
0.9976 4.1915 1.8437 0.300 0.935 -0.187 49 48 53 0 0
1.0677 4.1718 1.8517 0.294 0.890 -0.347 45 44 48 0 0
1.1022 4.1626 1.8555 0.279 0.886 -0.371 64 64 67 0 0
0.8928 4.2093 1.8494 0.144 0.980 -0.135 52 51 56 0 0
0.9722 4.1980 1.8551 0.256 0.963 -0.080 39 38 43 0 0
1.0352 4.1835 1.8614 0.256 0.893 -0.369 49 48 53 0 0
1.0674 4.1760 1.8646 0.269 0.924 -0.273 62 62 65 0 0
1.0995 4.1685 1.8679 0.219 0.924 -0.313 66 66 68 0 0
1.1506 4.1471 1.8761 0.287 0.955 0.070 57 57 59 0 0
1.0079 4.1914 1.8722 0.253 0.927 -0.275 53 52 56 0 0
1.0397 4.1840 1.8755 0.206 0.932 -0.298 60 60 64 0 0
1.0717 4.1766 1.8788 0.240 0.954 -0.178 59 59 62 0 0
1.1037 4.1693 1.8820 0.262 0.960 -0.093 48 48 51 0 0
1.1555 4.1474 1.8905 0.335 0.942 -0.013 41 40 44 0 0
0.7737 4.1290 1.8998 -0.979 0.177 0.104 40 42 43 0 0
0.8332 4.2136 1.8742 0.258 0.966 -0.013 50 49 54 0 0
0.8559 4.2124 1.8752 0.189 0.975 -0.115 51 50 55 0 0
0.9067 4.2063 1.8786 0.082 0.990 0.112 44 43 48 0 0
0.9311 4.2041 1.8801 0.082 0.990 0.112 44 43 48 0 0
1.0142 4.1906 1.8868 0.232 0.958 -0.169 61 61 63 0 0
1.0417 4.1864 1.8890 0.144 0.973 -0.181 53 53 55 0 0
1.0850 4.1705 1.8953 0.236 0.969 0.081 42 41 45 0 0
1.1249 4.1574 1.9007 0.245 0.945 0.217 41 40 45 0 0
1.1769 4.1354 1.9093 0.270 0.939 0.211 41 40 45 0 0
0.7724 4.2156 1.8855 -0.855 0.100 0.509 42 43 48 0 0
0.7710 4.2328 1.8799 -0.855 0.100 0.509 47 48 53 0 0
0.8571 4.2153 1.8882 0.207 0.974 0.087 50 49 54 0 0
0.9148 4.2039 1.8937 0.082 0.990 0.112 48 47 52 0 0
0.9393 4.2017 1.8951 0.082 0.990 0.112 49 48 53 0 0
1.0247 4.1866 1.9026 0.170 0.980 0.103 42 41 44 0 0
1.0535 4.1814 1.9051 0.150 0.983 0.108 37 37 40 0 0
1.0981 4.1647 1.9119 0.185 0.951 0.246 40 40 44 0 0
1.1427 4.1481 1.9186 0.200 0.933 0.300 40 39 44 0 0
1.2025 4.1372 1.9240 0.396 0.875 -0.278 40 39 44 0 0
1.1989 4.1565 1.9176 0.042 0.806 -0.590 42 42 47 0 0
0.8271 4.2258 1.8977 -0.223 0.722 0.655 47 46 51 0 0
1.0623 4.1787 1.9205 0.122 0.987 0.105 34 33 38 0 0
1.0917 4.1733 1.9232 0.173 0.971 0.165 36 35 40 0 0
1.1489 4.1474 1.9334 0.312 0.950 -0.020 37 36 41 0 0
1.1776 4.1428 1.9358 0.345 0.923 -0.173 38 37 42 0 0
1.2193 4.1287 1.9417 0.387 0.866 -0.315 38 37 42 0 0
0.8137 4.1089 1.9494 -0.618 0.763 0.190 37 37 40 0 0
0.7792 4.1852 1.9233 -0.884 0.046 -0.466 33 32 37 0 0
0.7815 4.1998 1.9186 -0.881 0.036 -0.472 19 18 23 0 0
0.9540 4.2146 1.9195 0.259 0.885 -0.387 23 23 25 0 0
0.9879 4.2054 1.9236 0.279 0.891 -0.358 23 22 27 0 0
1.0220 4.1963 1.9277 0.271 0.913 -0.304 24 23 29 0 0
1.0546 4.1883 1.9314 0.256 0.942 -0.215 27 26 32 0 0
1.1066 4.1661 1.9403 0.361 0.903 -0.232 33 32 38 0 0
0.7785 4.1895 1.9357 -0.923 0.379 0.064 19 18 22 0 0
0.7825 4.2028 1.9315 -0.880 0.475 0.009 29 28 33 0 0
1.0217 4.2004 1.9405 0.310 0.888 -0.340 16 15 20 0 0
1.0560 4.1912 1.9447 0.295 0.933 -0.205 22 21 27 0 0
1.1545 4.1511 1.9612 0.374 0.884 -0.279 39 38 44 0 0
0.7804 4.1919 1.9489 -0.923 0.379 0.064 15 15 19 0 0
0.7840 4.2054 1.9446 -0.880 0.475 0.009 41 40 45 0 0
1.0565 4.1947 1.9578 0.344 0.938 0.031 34 33 39 0 0
1.1025 4.1769 1.9653 0.369 0.928 0.040 43 43 48 0 0
1.1460 4.1613 1.9720 0.372 0.869 -0.327 50 51 55 0 0
0.7786 4.1971 1.9610 -0.863 0.476 0.172 24 24 27 0 0
0.7844 4.2089 1.9573 -0.863 0.476 0.172 28 27 31 0 0
1.0334 4.2158 1.9642 0.380 0.902 0.205 52 51 56 0 0
0.7929 4.2060 1.9724 -0.669 0.456 0.588 27 27 29 0 0
0.8037 4.2015 1.9882 -0.669 0.456 0.588 24 24 28 0 0
0.8093 4.2134 1.9845 -0.671 0.453 0.588 34 33 39 0 0
0.9095 4.2020 1.9922 0.134 0.847 0.515 45 44 50 0 0
1.4353 4.0795 2.0538 0.390 0.918 0.076 47 48 51 0 0
0.8051 4.1715 2.0122 -0.997 -0.071 0.012 35 35 37 0 0
0.8050 4.2042 2.0013 -0.999 0.049 0.003 37 36 41 0 0
0.9745 4.2222 2.0022 0.308 0.949 0.069 53 52 58 0 0
1.0141 4.2089 2.0083 0.308 0.949 0.069 57 56 61 0 0
1.0542 4.1954 2.0144 0.308 0.949 0.069 60 59 64 0 0
1.1317 4.1709 2.0258 0.249 0.964 -0.090 70 69 74 0 0
1.3829 4.1045 2.0583 0.341 0.910 0.235 43 44 48 0 0
1.4368 4.0825 2.0678 0.373 0.928 -0.004 45 46 49 0 0
0.8792 4.2000 2.0197 0.156 0.983 0.094 50 49 55 0 0
0.8960 4.2035 2.0193 -0.094 0.945 0.313 49 48 54 0 0
0.9154 4.2052 2.0195 -0.094 0.943 0.318 49 48 54 0 0
0.9568 4.1902 2.0263 0.173 0.960 0.220 50 49 55 0 0
1.0078 4.1845 2.0304 -0.217 0.957 -0.195 54 53 59 0 0
1.0320 4.1829 2.0320 0.187 0.964 -0.191 57 56 62 0 0
1.0584 4.1796 2.0341 0.204 0.969 -0.143 60 61 64 0 0
1.0877 4.1744 2.0372 0.154 0.981 -0.118 64 64 67 0 0
1.1202 4.1668 2.0411 0.205 0.975 -0.087 67 68 71 0 0
1.1430 4.1665 2.0421 0.225 0.950 -0.217 74 74 77 0 0
1.3022 4.1332 2.0600 0.379 0.900 0.215 43 42 47 0 0
1.3555 4.1114 2.0696 0.343 0.904 0.254 41 41 46 0 0
1.4061 4.0917 2.0783 0.358 0.915 0.183 43 43 48 0 0
0.8584 4.1541 2.0482 -0.757 0.415 0.504 45 44 49 0 0
0.8797 4.1870 2.0381 -0.132 0.902 0.410 47 46 52 0 0
0.9940 4.1988 2.0392 0.074 0.858 0.508 58 57 63 0 0
1.0153 4.1993 2.0400 0.214 0.893 0.395 60 59 65 0 0
1.0525 4.1880 2.0454 0.214 0.893 0.395 66 65 69 0 0
1.0913 4.1756 2.0512 0.216 0.953 0.211 71 70 74 0 0
1.1244 4.1675 2.0554 0.305 0.946 0.107 68 67 71 0 0
1.1446 4.1692 2.0557 0.225 0.950 -0.217 61 61 65 0 0
1.1996 4.1452 2.0662 0.318 0.947 0.045 52 51 56 0 0
1.3325 4.1152 2.0821 0.388 0.903 0.185 41 40 45 0 0
0.8660 4.1356 2.0689 -0.880 0.470 0.073 48 47 52 0 0
0.8632 4.1543 2.0625 -0.763 0.589 0.266 46 45 50 0 0
0.8730 4.1631 2.0599 -0.622 0.756 0.203 46 45 51 0 0
0.8850 4.2032 2.0470 0.040 0.875 0.483 52 51 57 0 0
0.9437 4.1913 2.0536 0.006 0.755 0.656 54 53 59 0 0
0.9571 4.1976 2.0521 0.210 0.860 0.464 58 57 63 0 0
0.9972 4.1838 2.0586 0.166 0.812 0.560 58 57 63 0 0
1.0181 4.1846 2.0593 0.128 0.817 0.562 60 59 65 0 0
1.0430 4.1824 2.0611 0.218 0.860 0.461 63 62 68 0 0
1.0804 4.1710 2.0666 0.213 0.884 0.416 63 61 67 0 0
1.1144 4.1623 2.0711 0.169 0.917 0.362 55 53 59 0 0
1.1446 4.1564 2.0744 0.200 0.950 0.241 52 50 56 0 0
1.1698 4.1545 2.0762 0.136 0.949 0.283 43 42 47 0 0
1.2232 4.1318 2.0863 0.304 0.940 0.157 40 39 44 0 0
1.2785 4.1080 2.0968 0.296 0.921 0.253 43 42 47 0 0
0.9412 4.1806 2.0712 0.045 0.847 0.529 53 52 58 0 0
0.9798 4.1678 2.0774 -0.007 0.740 0.673 56 55 61 0 0
0.9957 4.1723 2.0766 0.212 0.832 0.512 55 54 60 0 0
1.0339 4.1600 2.0825 0.171 0.810 0.562 51 49 55 0 0
1.0558 4.1601 2.0835 0.119 0.772 0.625 50 49 55 0 0
1.0830 4.1563 2.0860 0.177 0.835 0.522 50 49 55 0 0
1.1207 4.1448 2.0917 0.177 0.835 0.522 45 42 49 0 0
1.1561 4.1519 2.0909 0.153 0.967 0.202 40 37 44 0 0
1.1851 4.1471 2.0939 0.133 0.951 0.278 42 40 46 0 0
1.2305 4.1304 2.1016 0.156 0.934 0.320 41 40 45 0 0
0.9118 4.1739 2.0863 0.254 0.957 0.141 47 44 51 0 0
0.9411 4.1680 2.0897 0.314 0.929 0.195 47 44 51 0 0
0.9661 4.1655 2.0917 0.199 0.942 0.271 47 44 51 0 0
