ply
format ascii 1.0
element vertex 881
property float x
property float y
property float z
property float nx
property float ny
property float nz
property uchar diffuse_red
property uchar diffuse_green
property uchar diffuse_blue
property uchar class
property uchar detection
end_header
1.1005 2.1644 0.2712 0.705 -0.461 -0.538 71 68 69 0 0
1.0909 2.1503 0.2741 0.451 -0.539 -0.711 66 62 64 0 0
1.0830 2.1300 0.2770 -0.173 -0.567 -0.805 62 59 60 0 0
1.0662 2.1433 0.2795 0.345 -0.399 -0.850 61 59 62 0 0
0.8268 2.2278 0.3217 0.969 -0.021 0.247 53 53 55 0 0
1.2944 2.3672 0.2328 0.774 -0.634 -0.002 32 32 34 0 0
1.2863 2.3442 0.2359 0.574 -0.589 -0.569 33 33 35 0 0
1.1976 2.2659 0.2586 0.732 -0.538 -0.418 58 56 57 0 0
1.1878 2.2517 0.2615 0.595 -0.653 -0.468 64 63 60 0 0
1.1707 2.2131 0.2674 0.705 -0.683 -0.189 80 79 75 0 0
1.1325 2.2057 0.2755 0.212 -0.747 -0.630 72 71 69 0 0
1.0877 2.1226 0.2898 0.861 -0.507 -0.048 51 49 54 0 0
1.0727 2.1288 0.2924 0.744 -0.668 -0.009 52 50 53 0 0
0.4072 2.5453 0.3987 -0.847 -0.469 -0.248 136 136 136 0 0
1.4633 3.2512 0.1572 0.900 -0.434 0.026 42 40 43 0 0
1.4420 2.9873 0.1780 0.911 -0.353 0.213 81 81 81 0 0
1.3381 2.4251 0.2340 0.836 -0.484 -0.258 50 50 52 0 0
1.2882 2.3478 0.2488 0.710 -0.535 -0.458 32 32 34 0 0
1.2448 2.3041 0.2602 0.639 -0.728 -0.250 37 37 39 0 0
1.1839 2.2244 0.2774 0.816 -0.420 -0.397 70 69 67 0 0
1.1387 2.1922 0.2885 -0.163 -0.927 -0.337 52 50 51 0 0
1.1250 2.1934 0.2911 -0.044 -0.847 -0.529 46 44 46 0 0
1.1145 2.1824 0.2939 0.145 -0.989 -0.038 39 38 42 0 0
1.1028 2.1257 0.2998 0.169 -0.982 0.081 37 36 41 0 0
1.0742 2.1334 0.3051 0.510 -0.680 0.527 37 35 40 0 0
0.7931 2.4075 0.3442 0.994 0.032 0.108 50 50 52 0 0
0.4183 2.5206 0.4122 -0.859 -0.488 -0.153 103 103 103 0 0
1.4429 2.9979 0.1917 0.911 -0.353 0.213 82 82 82 0 0
1.3940 2.6196 0.2246 0.730 0.047 -0.682 28 28 30 0 0
1.3021 2.3582 0.2589 0.713 -0.638 -0.290 28 28 30 0 0
1.1777 2.2067 0.2931 0.522 -0.787 -0.328 55 53 54 0 0
1.1290 2.1883 0.3040 -0.293 -0.921 -0.257 39 37 42 0 0
1.1145 2.1417 0.3098 0.372 -0.757 -0.537 29 29 31 0 0
1.1032 2.1341 0.3125 0.403 -0.830 -0.385 30 30 32 0 0
0.9851 2.1757 0.3337 -0.783 -0.571 0.245 42 42 44 0 0
0.4243 2.5110 0.4257 -0.812 -0.583 -0.032 88 88 89 0 0
0.3959 2.5528 0.4289 -0.844 -0.523 -0.119 145 145 144 0 0
1.1942 2.2050 0.3033 0.152 -0.844 -0.514 40 38 39 0 0
1.1801 2.2081 0.3059 0.296 -0.854 -0.428 46 44 45 0 0
1.0343 2.1040 0.3414 -0.125 -0.856 -0.501 37 37 39 0 0
1.0202 2.1067 0.3441 -0.378 -0.785 -0.491 37 37 39 0 0
0.4014 2.5447 0.4425 -0.858 -0.513 -0.016 124 124 123 0 0
1.1849 2.1997 0.3188 0.066 -0.713 -0.698 31 29 32 0 0
1.1346 2.0854 0.3355 0.266 -0.964 0.024 27 27 29 0 0
1.1223 2.0821 0.3382 0.266 -0.964 0.024 28 28 30 0 0
0.4364 2.4912 0.4527 -0.836 -0.542 0.087 80 79 82 0 0
0.4076 2.5344 0.4560 -0.828 -0.555 0.079 114 114 112 0 0
1.1305 2.1114 0.3481 0.097 -0.985 -0.144 26 26 28 0 0
1.1163 2.1150 0.3508 -0.142 -0.986 0.086 27 27 29 0 0
1.0284 2.0965 0.3696 0.761 -0.251 0.598 26 26 28 0 0
0.9798 2.0798 0.3803 0.176 -0.821 -0.543 30 30 32 0 0
0.4134 2.5253 0.4695 -0.887 -0.447 0.116 104 104 103 0 0
1.5107 3.4820 0.2098 -0.725 -0.318 0.611 149 147 148 0 0
1.3560 2.4686 0.2963 0.173 -0.850 0.498 49 49 51 0 0
1.2833 2.2562 0.3226 0.589 -0.617 -0.522 44 44 46 0 0
1.1518 2.1418 0.3554 0.155 -0.883 -0.443 17 17 19 0 0
1.1372 2.1472 0.3581 -0.575 -0.733 -0.364 21 21 23 0 0
1.4789 3.1898 0.2470 0.963 -0.262 -0.059 28 28 30 0 0
1.0894 2.1871 0.3789 -0.034 -0.984 -0.176 24 24 26 0 0
1.0147 2.1660 0.3952 0.570 -0.199 0.797 20 20 22 0 0
1.0088 2.1384 0.3978 0.789 -0.200 0.581 17 17 19 0 0
1.4801 3.1996 0.2612 0.973 -0.221 -0.058 29 29 32 0 0
1.3049 2.3598 0.3398 0.123 -0.925 -0.360 29 29 31 0 0
1.2884 2.2579 0.3483 0.827 -0.470 -0.308 29 29 31 0 0
1.1899 2.1699 0.3728 -0.044 -0.946 -0.320 12 12 14 0 0
1.1138 2.1552 0.3890 -0.301 -0.750 0.589 23 23 25 0 0
0.4335 2.4901 0.5098 -0.900 -0.424 0.104 107 106 105 0 0
1.5335 3.4922 0.2507 -0.827 -0.360 0.432 160 158 159 0 0
1.4819 3.2067 0.2753 0.979 -0.203 -0.024 35 34 38 0 0
1.2125 2.1970 0.3802 0.800 -0.598 0.051 16 16 18 0 0
0.4908 2.4119 0.5161 -0.777 -0.571 -0.263 63 63 63 0 0
0.4780 2.4078 0.5190 -0.893 -0.449 0.014 77 75 75 0 0
1.4835 3.2144 0.2895 0.989 -0.138 -0.046 28 27 32 0 0
1.2897 2.2194 0.3768 0.680 -0.628 -0.379 22 21 24 0 0
1.2783 2.2113 0.3795 0.772 -0.626 -0.110 15 14 16 0 0
1.4840 3.5507 0.2887 0.703 -0.711 -0.028 39 40 44 0 0
1.4845 3.2257 0.3038 0.981 -0.192 -0.042 28 27 32 0 0
1.3192 2.2757 0.3816 0.830 -0.556 -0.033 29 29 31 0 0
1.3044 2.2820 0.3843 0.687 -0.498 -0.529 24 25 27 0 0
1.2997 2.2450 0.3870 0.769 -0.591 -0.243 25 25 27 0 0
1.2922 2.2201 0.3897 0.387 -0.918 0.083 29 27 30 0 0
1.2124 2.2193 0.4060 -0.051 -0.994 0.098 16 16 18 0 0
1.1413 2.1319 0.4246 -0.852 -0.503 0.147 19 19 21 0 0
0.8075 2.0392 0.4969 0.191 -0.855 0.482 41 41 42 0 0
0.5132 2.3607 0.5419 -0.648 -0.539 -0.538 61 61 63 0 0
1.4901 3.2124 0.3182 0.926 -0.378 0.006 28 27 32 0 0
1.3214 2.2782 0.3945 0.830 -0.556 -0.033 34 34 36 0 0
1.3089 2.2745 0.3972 0.687 -0.498 -0.529 29 30 32 0 0
1.3027 2.2436 0.3999 0.769 -0.591 -0.243 30 31 33 0 0
1.2035 2.2123 0.4215 0.164 -0.963 -0.215 15 15 17 0 0
1.1763 2.2141 0.4270 0.149 -0.865 0.480 12 12 14 0 0
1.4932 3.2127 0.3325 0.898 -0.437 0.058 28 28 30 0 0
1.3067 2.2385 0.4127 0.513 -0.774 -0.371 39 39 41 0 0
1.3001 2.2215 0.4282 -0.022 -0.999 -0.038 17 17 19 0 0
1.4060 2.7418 0.3991 0.854 -0.121 0.506 52 52 54 0 0
1.3776 2.5490 0.4126 0.661 -0.742 0.116 52 52 52 0 0
1.3660 2.5391 0.4154 0.661 -0.742 0.116 60 60 60 0 0
1.2761 2.2217 0.4466 -0.013 -1.000 0.003 26 26 28 0 0
1.2627 2.2223 0.4493 -0.031 -0.999 -0.035 25 25 27 0 0
1.5959 3.5230 0.3443 -0.706 -0.408 0.578 170 169 167 0 0
1.3826 2.5391 0.4259 0.471 -0.764 -0.440 52 52 53 0 0
1.3678 2.5439 0.4288 0.576 -0.817 0.024 56 56 57 0 0
1.3057 2.2211 0.4539 -0.058 -0.998 -0.013 28 28 30 0 0
1.2922 2.2218 0.4567 -0.058 -0.998 -0.013 29 29 31 0 0
1.2652 2.2231 0.4622 -0.130 -0.977 -0.169 27 27 29 0 0
1.2347 2.1840 0.4700 0.124 -0.979 -0.161 35 35 36 0 0
1.3947 2.9622 0.4218 0.878 -0.033 0.478 46 46 48 0 0
1.3805 2.5619 0.4394 0.618 -0.784 0.050 53 53 55 0 0
1.3609 2.5885 0.4425 0.308 -0.566 0.765 55 55 57 0 0
1.3075 2.2248 0.4668 0.424 -0.906 0.009 30 30 32 0 0
1.2955 2.2192 0.4695 0.424 -0.906 0.009 29 29 31 0 0
1.2814 2.2225 0.4723 -0.082 -0.997 0.014 30 30 32 0 0
1.2686 2.2204 0.4750 -0.130 -0.977 -0.169 35 35 37 0 0
1.2469 2.1997 0.4803 0.105 -0.940 0.324 36 36 37 0 0
1.5052 3.2313 0.4041 0.787 -0.608 0.102 26 27 31 0 0
1.3622 2.5957 0.4560 -0.036 -0.623 0.781 55 55 57 0 0
0.5117 2.2953 0.6420 -0.927 -0.374 -0.028 146 146 146 0 0
1.5027 3.2619 0.4186 0.426 -0.591 0.686 25 26 30 0 0
1.3630 2.6052 0.4695 0.039 -0.721 0.692 55 55 57 0 0
1.2369 2.2083 0.5089 0.753 -0.514 0.411 38 37 42 0 0
1.3625 2.6211 0.4831 -0.251 -0.861 0.442 56 56 58 0 0
1.5056 3.1228 0.4523 0.036 -0.818 0.574 29 28 32 0 0
1.4103 2.8062 0.4817 0.691 -0.519 0.504 43 43 45 0 0
1.3535 2.4250 0.5050 0.903 -0.392 0.174 60 60 60 0 0
1.3447 2.4039 0.5075 0.909 -0.361 0.208 57 57 57 0 0
1.3358 2.3830 0.5100 0.909 -0.361 0.208 64 64 64 0 0
1.5028 3.1539 0.4669 0.528 -0.799 0.289 29 28 32 0 0
1.3446 2.4168 0.5209 0.846 -0.259 0.466 55 55 55 0 0
1.3361 2.3939 0.5233 0.842 -0.267 0.468 54 54 54 0 0
1.5053 3.1569 0.4812 0.527 -0.841 0.121 30 29 33 0 0
1.3635 2.7214 0.5225 0.877 -0.473 0.087 42 42 44 0 0
1.3429 2.4367 0.5345 0.908 -0.232 0.350 59 59 59 0 0
1.3268 2.3875 0.5391 0.832 -0.282 0.478 53 53 53 0 0
1.1982 2.1397 0.5726 0.324 -0.850 0.415 32 32 34 0 0
1.1901 2.1192 0.5749 -0.472 -0.866 0.165 30 30 32 0 0
1.1731 2.1338 0.5780 -0.513 -0.849 0.126 28 28 30 0 0
1.1292 2.0980 0.5881 -0.664 -0.734 -0.142 18 18 20 0 0
1.5098 3.1493 0.4953 0.503 -0.851 -0.151 29 29 31 0 0
1.4972 3.1386 0.4982 -0.060 -0.990 0.130 34 34 36 0 0
1.3652 2.7272 0.5362 0.853 -0.523 0.006 40 40 42 0 0
1.3400 2.4623 0.5482 0.883 -0.189 0.429 58 58 58 0 0
1.2034 2.1299 0.5852 0.461 -0.548 0.698 33 33 35 0 0
1.1858 2.0945 0.5897 0.645 -0.340 0.685 29 29 31 0 0
1.1723 2.0955 0.5925 0.823 -0.170 0.542 27 27 29 0 0
1.1738 2.0384 0.5937 -0.477 -0.648 0.594 24 24 26 0 0
1.1634 2.0279 0.5961 -0.564 -0.600 0.567 19 19 21 0 0
1.6400 3.6151 0.4719 -0.698 -0.687 0.204 169 169 167 0 0
1.5129 3.1493 0.5096 0.343 -0.934 -0.094 30 30 32 0 0
1.3676 2.7297 0.5499 0.865 -0.483 -0.137 41 41 43 0 0
1.2193 2.1835 0.5939 -0.380 -0.840 -0.386 39 39 41 0 0
1.2021 2.1457 0.5984 0.461 -0.548 0.698 34 34 36 0 0
1.1773 2.0352 0.6062 -0.523 -0.610 0.595 25 25 27 0 0
1.1653 2.0308 0.6088 -0.177 -0.613 0.770 21 21 23 0 0
1.1335 2.1019 0.6138 -0.566 -0.480 0.670 19 19 21 0 0
0.7569 1.9759 0.6954 -0.566 -0.571 -0.594 49 49 51 0 0
1.3805 2.7488 0.5611 0.851 -0.471 -0.233 39 39 41 0 0
1.2119 2.1704 0.6092 -0.472 -0.737 -0.484 38 38 40 0 0
1.1733 2.1125 0.6186 0.803 -0.278 0.528 28 28 30 0 0
1.1591 2.1163 0.6215 0.461 -0.436 0.773 25 25 27 0 0
1.1691 2.0262 0.6214 -0.427 -0.740 0.520 23 23 25 0 0
1.1578 2.0193 0.6239 -0.809 -0.583 0.069 21 21 23 0 0
0.8205 1.9510 0.6960 0.141 -0.978 0.152 58 57 59 0 0
0.8125 1.9338 0.6980 0.397 -0.719 -0.570 63 61 64 0 0
0.8009 1.9285 0.7006 0.264 -0.746 -0.612 53 51 55 0 0
0.7265 2.0380 0.7137 -0.710 -0.433 -0.555 47 47 49 0 0
0.7134 2.0368 0.7165 -0.594 -0.466 -0.656 44 44 46 0 0
1.2126 2.1252 0.6234 -0.762 -0.537 -0.361 35 36 38 0 0
1.1894 2.1228 0.6417 -0.033 -0.892 0.451 33 32 37 0 0
1.1735 2.1330 0.6449 -0.072 -0.730 0.680 30 29 34 0 0
1.2672 2.1960 0.6375 -0.471 -0.623 -0.624 45 45 47 0 0
1.1755 2.1356 0.6578 -0.451 -0.698 0.557 31 30 35 0 0
1.3171 2.5795 0.6344 0.940 -0.265 0.215 39 40 42 0 0
1.2974 2.4233 0.6410 0.924 -0.360 -0.126 46 45 50 0 0
1.2146 2.1499 0.6627 -0.106 -0.593 0.798 36 37 39 0 0
1.1757 2.1456 0.6710 -0.397 -0.691 0.604 32 31 36 0 0
0.7140 1.9834 0.7708 -0.623 -0.345 -0.702 50 50 52 0 0
1.2861 2.4252 0.6572 0.701 -0.651 0.292 44 44 48 0 0
1.2428 2.2090 0.6694 0.952 -0.151 0.265 42 42 44 0 0
1.1739 2.1634 0.6846 -0.360 -0.605 0.710 32 31 36 0 0
0.7355 1.9243 0.7804 -0.636 -0.344 -0.691 51 52 54 0 0
1.5368 3.2982 0.6072 0.423 -0.867 0.264 28 28 30 0 0
1.5258 3.2769 0.6098 0.870 -0.492 0.034 29 29 31 0 0
1.2859 2.4384 0.6709 0.675 -0.717 -0.173 40 40 44 0 0
1.2445 2.2131 0.6825 0.994 -0.082 0.070 42 42 44 0 0
0.7065 1.9394 0.7996 -0.686 -0.360 -0.633 59 60 62 0 0
1.2857 2.4513 0.6847 0.875 -0.423 0.237 38 37 41 0 0
0.8231 1.7888 0.7898 0.539 -0.570 -0.620 51 50 55 0 0
0.5425 2.1161 0.8457 -0.675 -0.317 -0.666 168 168 168 0 0
1.5417 3.3057 0.6364 -0.465 -0.692 0.553 28 28 30 0 0
1.2741 2.5139 0.7005 0.931 -0.136 0.339 35 34 38 0 0
1.5453 3.3035 0.6509 -0.778 -0.579 0.246 28 28 30 0 0
1.2481 2.2880 0.7218 0.936 -0.097 0.338 37 36 41 0 0
1.5518 3.2851 0.6649 0.482 -0.748 0.457 28 28 30 0 0
1.2330 2.2501 0.7388 0.888 -0.449 0.103 35 34 39 0 0
1.2253 2.2267 0.7406 0.573 -0.780 0.252 34 33 38 0 0
1.2138 2.2189 0.7431 0.557 -0.761 0.334 34 33 38 0 0
1.1718 2.0682 0.7530 0.311 -0.908 -0.280 29 28 33 0 0
0.8056 1.7445 0.8328 0.043 -0.457 -0.888 51 51 53 0 0
1.5628 3.5817 0.6764 0.083 -0.937 -0.338 32 32 34 0 0
1.2412 2.3400 0.7503 0.843 -0.130 0.522 34 33 38 0 0
1.2478 2.2008 0.7495 0.016 -0.966 0.258 34 33 38 0 0
1.2280 2.2270 0.7536 0.018 -0.980 0.197 33 32 37 0 0
1.2143 2.2279 0.7565 -0.040 -0.967 0.250 33 32 37 0 0
0.8131 1.7288 0.8442 0.270 -0.544 -0.794 50 50 52 0 0
1.2345 2.3225 0.7656 0.383 -0.785 -0.487 33 32 37 0 0
1.2368 2.3246 0.7788 0.316 -0.880 -0.355 32 31 36 0 0
1.1916 2.1263 0.7887 0.405 -0.913 0.052 32 31 36 0 0
1.1721 2.0986 0.7929 0.690 -0.720 0.075 30 29 34 0 0
1.5673 3.2689 0.7223 0.989 -0.118 0.091 27 27 29 0 0
1.5678 3.2838 0.7374 0.997 -0.075 0.008 27 27 29 0 0
0.7826 1.7341 0.9025 -0.368 -0.746 0.555 52 51 56 0 0
0.7714 1.7283 0.9049 -0.055 -0.787 0.614 60 58 62 0 0
0.7573 1.7316 0.9079 -0.055 -0.787 0.614 62 60 64 0 0
0.7432 1.7350 0.9110 -0.055 -0.787 0.614 72 71 73 0 0
0.7275 1.7431 0.9144 -0.042 -0.759 0.650 70 71 72 0 0
0.7806 1.7078 0.9158 -0.058 -0.620 -0.783 60 58 62 0 0
0.8450 1.8087 0.9285 -0.346 -0.648 -0.678 112 108 109 0 0
1.6116 3.5376 0.7911 -0.665 -0.736 0.129 33 33 35 0 0
0.8664 1.7900 0.9368 -0.372 -0.740 -0.560 91 89 92 0 0
0.8544 1.7869 0.9394 -0.363 -0.609 -0.705 89 87 90 0 0
0.9497 1.8255 0.9322 -0.474 -0.669 -0.573 53 54 58 0 0
0.9388 1.8181 0.9344 0.140 -0.489 -0.861 68 68 71 0 0
0.8728 1.7776 0.9483 -0.402 -0.732 -0.551 85 83 86 0 0
0.8620 1.7705 0.9506 -0.294 -0.652 -0.699 76 74 77 0 0
0.8799 1.7628 0.9596 -0.393 -0.654 -0.647 41 39 43 0 0
0.9263 1.7899 0.9629 0.545 -0.406 -0.734 46 45 49 0 0
0.8010 1.6512 0.9882 0.154 -0.875 -0.458 40 40 44 0 0
0.7900 1.6453 0.9905 0.203 -0.869 -0.451 42 41 45 0 0
0.9088 1.7703 0.9795 -0.344 -0.651 0.677 15 15 18 0 0
0.8899 1.7894 0.9839 -0.345 -0.562 0.752 14 13 18 0 0
0.8691 1.7722 0.9881 -0.313 -0.717 0.623 10 9 14 0 0
1.5469 3.1474 0.8768 0.437 -0.736 0.517 39 39 41 0 0
0.9187 1.7460 0.9899 -0.185 -0.899 -0.396 10 10 13 0 0
0.8901 1.7545 0.9963 -0.293 -0.921 -0.258 10 9 14 0 0
0.9848 1.7940 0.9894 0.072 -0.683 -0.727 20 20 22 0 0
1.5946 3.5032 0.9037 -0.745 -0.527 0.410 41 41 43 0 0
1.0051 1.7778 0.9977 -0.147 -0.725 -0.672 19 19 21 0 0
0.9915 1.7800 1.0007 -0.000 -0.628 -0.778 18 18 20 0 0
1.3467 2.6977 0.9704 0.347 -0.627 0.698 67 67 67 0 0
0.9839 1.7351 1.0274 0.159 -0.986 0.056 41 41 43 0 0
1.6360 3.4957 0.9414 -0.402 -0.862 0.309 33 33 35 0 0
1.0106 1.7410 1.0346 0.103 -0.960 -0.261 43 42 45 0 0
0.9974 1.7419 1.0375 -0.118 -0.983 -0.141 36 36 38 0 0
1.6404 3.4886 0.9558 0.568 -0.793 0.219 33 33 35 0 0
1.0520 1.7857 1.0397 0.612 -0.575 -0.542 24 24 26 0 0
1.6425 3.4953 0.9712 0.818 -0.574 -0.020 34 34 36 0 0
1.6243 3.5136 0.9757 -0.000 -0.944 0.329 36 36 38 0 0
1.5608 3.1908 0.9805 0.583 -0.226 -0.780 41 40 43 0 0
1.0669 1.7880 1.0495 0.815 -0.324 -0.481 29 29 31 0 0
1.0564 1.7792 1.0515 0.612 -0.575 -0.542 24 24 26 0 0
1.0168 1.7370 1.0591 0.322 -0.944 -0.071 24 22 25 0 0
1.0712 1.7819 1.0614 0.834 -0.315 -0.453 27 27 29 0 0
1.0613 1.7711 1.0633 0.602 -0.490 -0.631 19 19 21 0 0
1.0067 1.7364 1.0743 -0.053 -0.960 -0.275 15 15 17 0 0
0.9251 1.7495 1.0927 0.082 -0.996 0.030 19 19 21 0 0
0.9124 1.7486 1.0955 0.082 -0.996 0.030 28 28 30 0 0
0.8997 1.7476 1.0982 0.134 -0.985 0.106 23 23 25 0 0
1.6339 3.4954 1.0044 0.793 -0.588 -0.159 35 35 37 0 0
1.6162 3.5101 1.0088 -0.551 -0.805 0.220 39 39 41 0 0
1.5864 3.5063 1.0152 0.118 -0.909 0.400 43 43 45 0 0
1.0607 1.7367 1.0753 0.840 -0.459 -0.289 17 17 19 0 0
1.5214 3.1360 1.0330 -0.703 -0.597 0.386 39 39 41 0 0
1.5017 3.1623 1.0382 -0.741 -0.607 -0.288 34 34 36 0 0
1.2333 2.5305 1.0765 0.890 -0.211 0.403 15 16 21 0 0
1.1970 2.2811 1.0763 0.883 -0.334 0.330 68 68 68 0 0
1.1872 2.2659 1.0779 0.491 -0.758 -0.431 64 64 62 0 0
1.2313 2.5514 1.0919 0.890 -0.211 0.403 17 16 20 0 0
1.2095 2.4097 1.0918 0.784 -0.072 0.617 14 15 19 0 0
1.2036 2.3210 1.0900 0.820 -0.064 0.568 25 26 30 0 0
1.0921 1.8277 1.0975 0.749 -0.651 -0.123 30 29 34 0 0
0.8217 1.7297 1.1540 -0.428 -0.761 0.487 11 11 13 0 0
1.2293 2.5724 1.1074 0.890 -0.211 0.403 18 18 20 0 0
1.1565 2.0382 1.1040 0.938 -0.278 0.208 37 38 42 0 0
1.1475 2.0220 1.1054 0.965 -0.237 0.109 36 37 41 0 0
0.8761 1.7730 1.1566 -0.504 -0.854 -0.129 12 11 14 0 0
0.8659 1.7635 1.1585 -0.430 -0.879 -0.206 10 10 12 0 0
1.5160 3.1363 1.0795 -0.380 -0.876 -0.296 36 35 40 0 0
0.8799 1.7689 1.1687 -0.504 -0.854 -0.129 11 11 13 0 0
0.8726 1.7504 1.1696 -0.305 -0.917 -0.257 10 10 12 0 0
1.6382 3.4758 1.0810 -0.042 -0.963 -0.266 38 38 40 0 0
1.4777 3.1219 1.1026 -0.091 -0.619 -0.780 35 34 39 0 0
1.2417 2.6651 1.1370 0.913 -0.271 0.304 18 18 20 0 0
1.5242 3.1257 1.1075 -0.001 -0.806 -0.592 37 36 41 0 0
1.4828 3.1112 1.1162 -0.058 -0.759 -0.649 34 33 38 0 0
1.1773 2.2519 1.1486 0.968 -0.043 0.248 18 19 22 0 0
1.7625 3.9081 1.1032 0.152 -0.945 -0.289 170 169 167 0 0
1.5291 3.1157 1.1211 -0.001 -0.806 -0.592 39 38 43 0 0
1.4882 3.0993 1.1296 -0.137 -0.812 -0.568 34 33 36 0 0
1.4227 3.1332 1.1457 0.497 -0.837 -0.230 48 47 50 0 0
1.2049 2.6655 1.1742 0.650 -0.203 0.733 8 8 10 0 0
0.9087 1.7424 1.2005 0.156 -0.987 0.045 14 14 16 0 0
0.8920 1.7121 1.2029 0.654 -0.751 0.090 12 12 14 0 0
0.8075 1.6917 1.2209 0.508 -0.860 -0.042 17 17 19 0 0
0.7973 1.6829 1.2228 0.581 -0.812 -0.061 17 17 19 0 0
1.7665 3.9041 1.1185 0.152 -0.945 -0.289 170 169 167 0 0
1.7512 3.9007 1.1217 0.152 -0.945 -0.289 170 169 167 0 0
1.7092 3.4711 1.1119 -0.279 -0.933 -0.228 47 44 49 0 0
1.6375 3.4478 1.1269 0.245 -0.746 0.619 42 41 46 0 0
1.5341 3.1054 1.1347 -0.342 -0.747 -0.570 41 40 45 0 0
1.4258 3.1330 1.1602 0.208 -0.939 -0.273 48 48 50 0 0
1.0966 1.8209 1.1750 0.770 -0.524 -0.364 36 37 39 0 0
0.5207 1.8059 1.3033 0.759 -0.423 0.495 168 168 168 0 0
0.5131 1.7897 1.3043 0.943 -0.109 0.316 170 170 170 0 0
1.6977 3.4689 1.1300 0.010 -0.991 -0.134 36 36 39 0 0
1.5401 3.0902 1.1477 -0.647 -0.637 -0.419 42 41 46 0 0
1.4303 3.1262 1.1740 0.003 -0.837 -0.548 50 49 52 0 0
1.3306 2.6361 1.1736 0.737 -0.413 -0.534 28 28 30 0 0
0.9618 1.7123 1.2133 -0.183 -0.983 0.022 21 21 23 0 0
0.9398 1.7424 1.2196 0.023 -0.990 -0.136 20 20 22 0 0
1.6035 3.5078 1.1687 -0.703 -0.513 0.492 46 45 50 0 0
0.9011 1.7930 1.2439 -0.185 -0.886 -0.425 31 31 33 0 0
0.9020 1.7469 1.2414 0.419 -0.903 -0.099 29 29 32 0 0
1.3257 3.1603 1.2296 0.810 -0.571 -0.134 31 31 33 0 0
0.5127 1.8506 1.3473 0.702 -0.386 0.599 172 172 172 0 0
1.3983 3.1109 1.2260 -0.104 -0.994 0.025 28 28 30 0 0
0.9438 1.7551 1.2586 0.255 -0.967 -0.029 44 44 46 0 0
0.7574 1.7647 1.3011 -0.039 -0.653 0.756 59 58 60 0 0
1.7099 3.4738 1.1901 -0.221 -0.839 -0.497 38 37 42 0 0
1.6227 3.4521 1.2087 0.925 -0.314 -0.213 49 48 53 0 0
1.4019 3.1084 1.2403 0.124 -0.972 0.201 29 29 31 0 0
1.1669 2.0506 1.2371 0.817 -0.577 -0.002 45 46 48 0 0
1.1573 2.0364 1.2385 0.879 -0.477 -0.007 61 61 62 0 0
0.8252 1.7666 1.2991 0.396 -0.584 0.708 50 52 52 0 0
0.8135 1.7620 1.3015 0.319 -0.667 0.673 55 56 56 0 0
1.7146 3.4646 1.2042 0.023 -0.808 -0.588 39 39 43 0 0
1.6372 3.4750 1.2223 0.273 -0.754 -0.598 52 50 55 0 0
1.6250 3.4574 1.2241 0.903 -0.330 -0.275 52 50 55 0 0
1.4071 3.0979 1.2537 0.283 -0.955 0.091 30 30 32 0 0
1.3356 3.1577 1.2731 0.530 -0.431 -0.730 28 28 30 0 0
1.2879 3.0330 1.2771 0.379 -0.411 0.829 32 32 34 0 0
1.1646 2.0188 1.2494 -0.140 -0.684 -0.716 57 58 59 0 0
0.7494 1.8056 1.3316 -0.206 -0.565 0.799 87 86 89 0 0
0.7317 1.8193 1.3364 -0.257 -0.546 0.797 88 86 89 0 0
1.7195 3.4543 1.2182 0.142 -0.816 -0.560 40 39 42 0 0
1.3503 3.1741 1.2860 0.647 -0.447 -0.617 24 24 26 0 0
1.3386 3.1586 1.2878 0.491 -0.463 -0.738 28 28 30 0 0
0.9689 1.7845 1.2940 0.866 -0.208 0.455 36 36 38 0 0
0.5671 2.0800 1.4017 -0.653 -0.486 0.581 171 171 171 0 0
1.6769 3.4576 1.2437 -0.493 -0.849 -0.187 34 34 37 0 0
1.3542 3.1700 1.3002 0.205 -0.956 -0.210 24 24 26 0 0
1.3414 3.1601 1.3026 -0.178 -0.982 0.068 28 28 30 0 0
1.3315 3.1358 1.3034 -0.199 -0.976 0.085 33 33 35 0 0
1.3175 3.1317 1.3064 -0.024 -0.989 0.148 35 34 39 0 0
1.1713 2.6182 1.3097 0.871 -0.129 -0.474 8 8 10 0 0
1.7155 3.4253 1.2487 0.113 -0.979 -0.172 36 36 38 0 0
1.6814 3.4500 1.2579 -0.202 -0.951 0.234 34 34 37 0 0
1.3550 3.1817 1.3161 -0.195 -0.978 0.068 24 24 26 0 0
1.3449 3.1579 1.3170 -0.459 -0.813 0.358 27 27 29 0 0
1.2159 2.6828 1.3179 0.994 -0.104 -0.035 11 11 13 0 0
1.1691 2.5807 1.3224 -0.304 -0.950 0.065 8 8 10 0 0
1.0408 1.8713 1.3091 0.713 -0.688 0.135 44 44 46 0 0
0.9911 1.8609 1.3198 0.637 -0.653 0.410 44 44 46 0 0
1.7193 3.4219 1.2633 0.231 -0.961 -0.151 35 35 37 0 0
1.6845 3.4512 1.2730 -0.141 -0.975 0.174 34 33 36 0 0
1.6356 3.4716 1.2854 -0.759 -0.643 0.101 58 56 59 0 0
1.6263 3.4368 1.2854 0.979 -0.168 -0.118 60 58 63 0 0
1.6183 3.3949 1.2846 0.974 -0.224 -0.011 51 49 54 0 0
1.5164 3.0530 1.2868 -0.177 -0.812 -0.556 33 33 35 0 0
1.4998 3.0633 1.2912 -0.686 -0.648 -0.331 31 31 33 0 0
1.4494 3.0962 1.3047 0.790 -0.590 0.166 39 39 41 0 0
1.3973 3.1351 1.3190 -0.060 -0.988 -0.142 27 27 29 0 0
1.3580 3.1822 1.3308 -0.279 -0.957 0.079 22 22 24 0 0
1.3486 3.1551 1.3313 -0.074 -0.770 0.634 25 25 27 0 0
1.3069 3.0011 1.3313 0.985 -0.053 0.166 34 34 36 0 0
0.9873 1.8831 1.3353 0.309 -0.607 0.732 45 45 47 0 0
0.7596 1.8893 1.3876 -0.052 -0.433 0.900 67 67 69 0 0
1.5044 3.0552 1.3047 -0.638 -0.728 -0.249 31 31 33 0 0
1.4015 3.1298 1.3329 0.177 -0.967 -0.182 27 27 29 0 0
1.0483 1.8632 1.3335 0.493 -0.396 0.775 45 45 47 0 0
0.9317 1.8566 1.3597 -0.667 -0.743 0.061 46 45 50 0 0
0.9120 1.8783 1.3656 -0.729 -0.678 0.093 46 45 49 0 0
0.7631 1.9287 1.4027 0.071 -0.368 0.927 75 75 76 0 0
0.7470 1.9370 1.4069 0.049 -0.378 0.925 77 77 78 0 0
1.6817 3.4155 1.3027 0.178 -0.946 0.269 38 36 39 0 0
1.5393 3.0416 1.3110 0.031 -0.951 -0.307 37 37 39 0 0
1.5270 3.0295 1.3130 0.197 -0.978 0.069 33 33 35 0 0
1.5164 3.0082 1.3141 0.746 -0.647 0.161 31 31 33 0 0
1.4052 3.1267 1.3472 0.285 -0.956 -0.074 27 27 29 0 0
1.0621 1.9174 1.3472 0.621 -0.329 0.712 20 20 22 0 0
1.0530 1.9026 1.3483 0.621 -0.329 0.712 22 22 24 0 0
0.9926 1.9292 1.3638 0.495 -0.162 0.853 48 48 50 0 0
0.9836 1.9145 1.3649 0.429 -0.215 0.877 49 49 51 0 0
0.7666 2.0119 1.4208 -0.155 -0.350 0.924 77 79 77 0 0
0.7454 2.0362 1.4272 -0.132 -0.347 0.928 87 88 87 0 0
0.7479 1.9851 1.4233 0.150 -0.291 0.945 92 92 91 0 0
1.6841 3.4203 1.3181 0.178 -0.946 0.269 36 35 38 0 0
1.6328 3.4563 1.3323 0.798 -0.555 -0.235 61 60 63 0 0
1.5969 3.1450 1.3198 0.932 -0.087 -0.352 43 43 46 0 0
1.5442 3.0321 1.3243 -0.190 -0.967 0.171 37 37 39 0 0
1.5329 3.0143 1.3257 0.369 -0.929 -0.014 34 34 36 0 0
1.4461 3.0851 1.3503 -0.858 -0.368 -0.359 37 37 39 0 0
1.0479 1.9306 1.3647 0.614 -0.314 0.725 15 15 17 0 0
1.0396 1.9128 1.3654 0.483 -0.316 0.817 13 13 15 0 0
0.8175 2.0762 1.4271 0.971 -0.226 0.076 55 56 56 0 0
0.7485 2.0786 1.4430 -0.155 -0.350 0.924 114 115 112 0 0
1.7576 3.4532 1.3192 0.332 -0.823 -0.460 55 55 57 0 0
1.6874 3.4203 1.3330 -0.077 -0.971 0.227 36 36 39 0 0
1.6745 3.4068 1.3351 -0.381 -0.922 0.072 46 45 51 0 0
1.6288 3.4091 1.3457 0.954 -0.249 -0.165 58 58 60 0 0
1.4550 3.0555 1.3614 -0.845 -0.342 -0.411 37 37 39 0 0
1.3631 3.1455 1.3886 0.519 -0.376 -0.768 18 18 20 0 0
1.3417 3.1050 1.3908 -0.029 -0.966 -0.257 30 30 32 0 0
0.7581 2.1004 1.4560 -0.045 -0.262 0.964 141 141 139 0 0
1.6910 3.4180 1.3477 -0.394 -0.907 -0.150 34 34 37 0 0
1.6785 3.4018 1.3494 -0.473 -0.858 -0.198 45 44 50 0 0
1.6307 3.4172 1.3615 0.928 -0.279 -0.247 59 59 61 0 0
1.3575 3.1154 1.4031 0.608 -0.728 -0.316 23 23 25 0 0
1.3449 3.1046 1.4053 0.384 -0.878 -0.286 29 29 31 0 0
1.3314 3.0979 1.4079 0.384 -0.878 -0.286 34 34 36 0 0
0.9188 2.0737 1.4311 0.872 -0.390 0.296 23 23 24 0 0
0.9129 2.0475 1.4307 0.589 -0.447 0.674 28 28 29 0 0
1.7696 3.4168 1.3452 0.075 -0.994 -0.084 55 55 57 0 0
1.6950 3.4133 1.3621 -0.444 -0.878 -0.179 34 33 36 0 0
1.6815 3.4037 1.3645 -0.260 -0.956 -0.135 43 42 48 0 0
1.6348 3.4120 1.3759 0.950 -0.291 -0.114 60 60 62 0 0
1.5162 2.9976 1.3735 0.156 -0.751 -0.642 31 31 33 0 0
1.3605 3.1159 1.4178 0.597 -0.791 -0.132 24 24 26 0 0
1.3486 3.1016 1.4195 0.384 -0.878 -0.286 29 29 31 0 0
1.3351 3.0949 1.4221 0.384 -0.878 -0.286 34 34 36 0 0
1.0002 2.0827 1.4268 0.482 -0.156 0.862 46 46 48 0 0
0.9992 2.0379 1.4238 0.143 -0.249 0.958 48 47 50 0 0
1.7735 3.4131 1.3597 0.125 -0.949 -0.290 57 56 59 0 0
1.7465 3.4903 1.3715 0.104 -0.956 -0.275 43 43 45 0 0
1.6983 3.4129 1.3770 -0.552 -0.732 -0.399 35 35 37 0 0
1.6828 3.4154 1.3807 0.171 -0.857 -0.486 40 40 43 0 0
1.6679 3.4142 1.3841 -0.264 -0.871 -0.414 52 52 54 0 0
1.6391 3.4060 1.3901 0.924 -0.245 -0.292 60 59 61 0 0
1.3615 3.1260 1.4336 0.504 -0.859 0.094 24 23 26 0 0
1.3527 3.0967 1.4334 0.413 -0.849 -0.330 26 25 30 0 0
1.3390 3.0910 1.4362 0.301 -0.878 -0.373 34 34 36 0 0
1.3187 3.1171 1.4427 0.624 -0.780 -0.055 36 36 38 0 0
1.3017 3.1274 1.4474 0.326 -0.943 -0.059 36 36 38 0 0
1.2343 2.6430 1.4275 0.644 -0.389 -0.658 21 21 23 0 0
0.9670 2.1140 1.4504 0.294 -0.209 0.933 46 46 48 0 0
1.6881 3.4025 1.3942 0.609 -0.394 -0.688 39 39 41 0 0
1.6564 3.4120 1.4023 0.606 -0.495 -0.623 58 56 59 0 0
1.6446 3.3925 1.4035 0.884 -0.188 -0.428 61 60 62 0 0
1.3565 3.0931 1.4475 0.413 -0.849 -0.330 24 23 28 0 0
1.3405 3.0989 1.4517 -0.687 -0.336 -0.644 33 33 35 0 0
1.3057 3.1228 1.4615 0.667 -0.679 -0.307 36 36 38 0 0
1.1939 2.5859 1.4471 0.129 -0.989 0.073 9 9 11 0 0
1.1809 2.5813 1.4498 0.301 -0.953 -0.038 9 9 11 0 0
1.7048 3.4127 1.4068 -0.391 -0.683 -0.617 34 34 36 0 0
1.6388 3.3566 1.4178 0.397 -0.272 -0.877 49 50 52 0 0
1.4860 2.9753 1.4239 -0.836 -0.547 0.036 35 35 37 0 0
1.3603 3.0899 1.4617 0.179 -0.859 -0.479 25 24 29 0 0
1.2602 2.5563 1.4440 0.624 -0.649 -0.436 13 13 15 0 0
1.1694 2.5819 1.4670 -0.448 -0.870 0.207 8 8 10 0 0
1.1492 2.6069 1.4735 -0.241 -0.870 -0.431 9 9 11 0 0
0.9780 2.6057 1.5130 0.450 -0.642 -0.621 39 37 40 0 0
0.9563 2.6335 1.5201 -0.660 -0.437 -0.611 39 37 40 0 0
0.8984 2.4271 1.5177 0.280 -0.182 0.943 68 68 68 0 0
1.4912 2.9642 1.4369 -0.796 -0.574 0.193 35 35 37 0 0
1.3739 3.1111 1.4755 0.142 -0.529 -0.837 19 19 22 0 0
1.2648 2.5492 1.4568 0.519 -0.744 -0.420 13 13 15 0 0
1.7139 3.3963 1.4348 -0.105 -0.992 -0.068 34 34 36 0 0
1.6727 3.3719 1.4423 0.044 -0.739 -0.672 55 54 58 0 0
1.5463 2.9195 1.4356 0.381 -0.539 -0.751 31 31 34 0 0
1.4413 2.9382 1.4614 -0.645 -0.563 -0.517 23 23 25 0 0
1.2872 2.5868 1.4690 0.276 -0.803 -0.529 16 15 19 0 0
1.2787 2.5624 1.4691 0.289 -0.897 -0.335 12 12 14 0 0
1.2674 2.5502 1.4707 -0.047 -0.829 0.557 13 13 14 0 0
0.9321 2.6379 1.5554 -0.561 -0.688 -0.460 46 46 48 0 0
1.2891 2.5914 1.4835 0.292 -0.873 0.390 18 17 19 0 0
1.0821 2.4571 1.5205 -0.111 -0.992 -0.068 11 11 13 0 0
0.9788 2.5814 1.5547 -0.064 -0.997 -0.051 15 15 17 0 0
0.9599 2.5985 1.5604 -0.563 -0.750 -0.347 46 46 49 0 0
0.9399 2.6195 1.5668 -0.490 -0.564 -0.664 55 54 59 0 0
0.9210 2.6363 1.5725 -0.496 -0.496 -0.713 46 45 50 0 0
1.6016 2.9663 1.4565 0.889 -0.441 -0.124 38 37 42 0 0
1.2900 2.6000 1.4984 0.115 -0.732 0.671 46 43 44 0 0
1.1542 2.6936 1.5378 -0.439 -0.785 0.437 13 13 15 0 0
1.0290 2.5097 1.5516 -0.470 -0.730 0.496 19 19 21 0 0
0.9923 2.5954 1.5672 0.715 -0.658 0.235 20 20 22 0 0
0.9661 2.5862 1.5726 0.618 -0.722 -0.312 40 39 42 0 0
0.9555 2.5722 1.5739 0.778 -0.569 -0.266 48 47 53 0 0
1.4871 2.9735 1.4987 -0.741 -0.453 -0.496 35 34 39 0 0
1.4674 2.9997 1.5055 -0.367 -0.457 -0.811 33 32 36 0 0
1.1959 2.6511 1.5392 -0.316 -0.916 0.247 37 37 39 0 0
1.1749 2.6796 1.5465 -0.689 -0.715 -0.117 20 20 22 0 0
1.1313 2.5080 1.5421 0.679 -0.680 -0.278 9 9 11 0 0
1.0175 2.5650 1.5734 0.544 -0.720 -0.431 19 17 20 0 0
1.0062 2.5534 1.5751 -0.593 -0.793 -0.139 37 36 38 0 0
0.9880 2.5686 1.5806 -0.365 -0.872 -0.325 18 16 19 0 0
0.9689 2.5864 1.5865 -0.335 -0.920 -0.203 34 33 36 0 0
0.9527 2.5934 1.5909 -0.281 -0.929 -0.242 36 34 38 0 0
1.4725 2.9897 1.5186 -0.618 -0.622 0.481 36 35 40 0 0
1.3059 2.6182 1.5253 0.371 -0.898 0.237 77 76 72 0 0
1.2027 2.6349 1.5508 -0.201 -0.887 -0.416 24 24 26 0 0
1.1909 2.6245 1.5527 -0.305 -0.612 -0.729 15 15 17 0 0
1.0204 2.5647 1.5873 0.561 -0.773 -0.295 16 14 17 0 0
1.0042 2.5720 1.5917 0.280 -0.946 -0.161 29 27 30 0 0
0.9889 2.5760 1.5956 0.453 -0.873 -0.182 18 16 19 0 0
0.9740 2.5780 1.5992 0.287 -0.957 -0.043 20 18 21 0 0
0.9605 2.5751 1.6021 0.519 -0.843 -0.140 24 22 25 0 0
0.9183 2.6249 1.6163 -0.438 -0.574 -0.692 37 34 41 0 0
0.8581 2.6860 1.6356 -0.777 -0.575 -0.256 42 41 46 0 0
0.8319 2.7279 1.6453 -0.566 -0.771 -0.292 44 43 48 0 0
1.2491 2.6314 1.5543 -0.461 -0.770 0.441 41 40 41 0 0
1.2077 2.6262 1.5635 -0.175 -0.498 -0.849 13 13 15 0 0
1.1935 2.6257 1.5668 -0.281 -0.390 -0.877 11 11 13 0 0
1.1634 2.5154 1.5641 -0.050 -0.573 -0.818 12 12 14 0 0
1.1487 2.5181 1.5678 -0.331 -0.613 -0.717 12 12 14 0 0
1.1249 2.5003 1.5717 -0.023 -0.954 0.300 12 12 14 0 0
1.0028 2.5884 1.6080 0.366 -0.598 -0.713 17 15 18 0 0
0.9776 2.5757 1.6128 0.171 -0.752 -0.637 17 15 18 0 0
0.9259 2.6077 1.6277 -0.461 -0.627 -0.628 40 37 44 0 0
0.8667 2.6655 1.6466 -0.705 -0.469 -0.532 41 40 45 0 0
1.7043 3.2968 1.5221 0.381 -0.261 -0.887 40 40 42 0 0
1.6845 3.1476 1.5134 0.796 -0.021 -0.605 42 42 44 0 0
1.6746 3.0338 1.5055 0.936 -0.039 -0.350 42 42 44 0 0
1.5007 2.9507 1.5387 -0.793 -0.550 -0.262 53 52 58 0 0
1.2381 2.6304 1.5714 -0.209 -0.674 -0.708 15 14 16 0 0
1.1266 2.5048 1.5862 -0.023 -0.954 0.300 12 12 14 0 0
0.9498 2.5829 1.6345 -0.015 -0.763 -0.647 44 42 48 0 0
1.6894 3.0505 1.5186 0.661 -0.073 -0.747 51 51 53 0 0
1.6762 3.0425 1.5210 0.048 -0.108 -0.993 54 54 56 0 0
1.4721 2.9642 1.5617 -0.038 -0.125 -0.991 44 43 49 0 0
1.4600 2.9517 1.5633 0.017 -0.147 -0.989 42 41 46 0 0
1.1903 2.4862 1.5840 -0.106 -0.772 -0.626 11 10 14 0 0
1.1782 2.4783 1.5861 0.241 -0.905 -0.352 13 13 15 0 0
1.1213 2.4812 1.5997 0.654 -0.713 -0.253 14 14 17 0 0
0.9875 2.5598 1.6382 -0.599 -0.798 -0.064 43 43 46 0 0
0.9514 2.5876 1.6492 -0.350 -0.883 0.314 54 53 58 0 0
0.8244 2.7339 1.6924 -0.441 -0.897 0.030 64 63 68 0 0
0.7575 2.8668 1.7202 -0.826 -0.558 0.078 79 79 80 0 0
1.7186 3.1576 1.5369 0.177 -0.416 -0.892 48 48 50 0 0
1.2159 2.5684 1.6000 0.161 -0.749 -0.642 15 15 17 0 0
1.1943 2.4816 1.5970 -0.063 -0.966 -0.249 27 26 31 0 0
1.1337 2.4992 1.6128 0.515 -0.856 -0.038 37 37 37 0 0
1.1083 2.4883 1.6178 0.605 -0.726 -0.326 35 35 36 0 0
0.8192 2.7630 1.7112 0.435 -0.900 -0.019 54 53 58 0 0
1.6276 2.9413 1.5531 0.310 -0.476 -0.823 56 56 58 0 0
1.2086 2.5516 1.6146 -0.048 -0.876 -0.481 38 38 40 0 0
1.1918 2.5040 1.6141 0.386 -0.700 0.600 48 48 52 0 0
1.1123 2.4835 1.6308 0.668 -0.652 -0.360 39 39 40 0 0
1.5131 2.7279 1.5744 0.483 -0.861 0.160 39 39 42 0 0
1.5005 2.7200 1.5767 0.478 -0.876 -0.073 32 31 35 0 0
1.4850 2.7266 1.5809 0.468 -0.696 0.545 28 27 31 0 0
1.4616 2.7019 1.5841 0.774 -0.451 0.444 27 25 31 0 0
1.2101 2.5575 1.6293 -0.224 -0.888 -0.402 44 44 47 0 0
1.7887 3.1456 1.5652 0.273 -0.224 -0.936 37 37 39 0 0
1.6224 2.9235 1.5826 0.831 -0.253 -0.495 42 42 44 0 0
1.5428 2.7367 1.5830 0.522 -0.594 -0.612 33 33 35 0 0
1.5310 2.7244 1.5846 0.348 -0.686 -0.639 29 29 31 0 0
1.7942 3.1304 1.5776 0.152 -0.309 -0.939 46 46 48 0 0
1.5734 2.7407 1.5909 0.557 -0.307 -0.771 35 35 37 0 0
1.5611 2.7307 1.5928 0.459 -0.525 -0.717 28 28 30 0 0
1.2241 2.5827 1.6576 0.373 -0.783 0.498 34 33 40 0 0
1.1983 2.5720 1.6626 -0.126 -0.685 0.717 31 31 35 0 0
1.2938 2.5382 1.6511 0.012 -0.775 0.631 37 35 40 0 0
1.2832 2.5232 1.6521 -0.077 -0.552 0.830 35 33 39 0 0
1.2691 2.5234 1.6555 -0.172 -0.519 0.837 40 38 44 0 0
1.0844 2.4719 1.6939 0.227 -0.779 -0.585 20 20 22 0 0
1.3119 2.5332 1.6608 0.119 -0.492 0.862 42 41 43 0 0
1.2956 2.5431 1.6657 0.027 -0.464 0.885 52 50 53 0 0
0.9869 2.5304 1.7375 -0.794 -0.483 -0.368 69 71 70 0 0
1.2078 2.6290 1.7100 0.332 -0.661 0.673 40 38 43 0 0
1.1961 2.6179 1.7116 -0.731 -0.618 0.289 32 31 34 0 0
1.1771 2.6377 1.7182 -0.573 -0.819 -0.034 26 26 28 0 0
1.1642 2.6320 1.7207 -0.597 -0.779 -0.192 18 18 20 0 0
1.8660 3.3272 1.6426 0.895 -0.108 -0.432 77 77 77 0 0
1.0740 2.4359 1.7359 -0.619 -0.764 -0.181 20 19 23 0 0
0.9804 2.5227 1.7674 -0.830 -0.519 -0.205 68 69 69 0 0
1.3066 2.5956 1.7122 -0.047 -0.698 0.714 44 43 48 0 0
1.0708 2.4594 1.7536 0.734 -0.679 -0.017 23 23 26 0 0
0.9891 2.5010 1.7775 -0.826 -0.490 -0.277 70 71 72 0 0
1.5716 2.6955 1.6746 0.968 -0.203 0.148 38 39 42 0 0
1.0727 2.4633 1.7680 0.826 -0.554 0.104 25 26 28 0 0
1.4754 2.6960 1.7123 0.310 -0.397 0.864 62 62 62 0 0
1.1000 2.7076 1.8032 -0.826 -0.345 -0.446 17 17 19 0 0
1.0775 2.4009 1.7743 -0.686 -0.690 -0.231 24 25 27 0 0
0.9797 2.5042 1.8092 -0.847 -0.437 -0.303 74 73 75 0 0
0.8203 2.6643 1.8651 0.964 -0.264 -0.005 53 52 57 0 0
0.9846 2.4966 1.8217 -0.875 -0.445 -0.191 80 78 81 0 0
0.9574 2.5450 1.8337 -0.875 -0.445 -0.191 71 69 72 0 0
0.8226 2.6667 1.8798 0.974 -0.214 -0.070 51 50 55 0 0
0.7187 2.8241 1.9224 -0.920 -0.381 -0.093 84 84 84 0 0
1.7159 2.9789 1.7166 0.489 -0.553 0.674 50 49 54 0 0
0.7305 2.7936 1.9313 -0.920 -0.381 -0.093 82 82 82 0 0
1.0774 2.3803 1.8151 -0.705 -0.645 -0.294 25 25 28 0 0
1.8801 3.1805 1.7312 0.487 -0.194 -0.852 60 59 64 0 0
1.0710 2.4161 1.8352 -0.356 -0.924 -0.140 25 25 28 0 0
0.8487 2.6570 1.9171 0.531 -0.486 -0.693 48 47 52 0 0
0.7154 2.8147 1.9677 -0.918 -0.389 -0.078 86 86 84 0 0
1.8673 3.0899 1.7388 0.715 -0.483 -0.506 60 59 63 0 0
1.8549 3.0755 1.7401 0.674 -0.439 -0.594 57 57 61 0 0
1.8428 3.0597 1.7411 0.819 -0.447 -0.359 55 54 59 0 0
1.7416 3.2380 1.7868 0.485 -0.180 0.856 44 43 48 0 0
1.5083 3.2067 1.8392 0.255 -0.266 0.930 60 60 62 0 0
0.7268 2.7854 1.9767 -0.913 -0.405 -0.058 82 83 82 0 0
1.8771 3.0453 1.7463 0.809 -0.405 0.426 53 53 55 0 0
1.8662 3.0211 1.7460 0.521 -0.451 0.725 49 49 52 0 0
1.0085 2.7943 1.9251 0.843 -0.178 0.507 27 27 29 0 0
1.8697 3.0186 1.7600 0.721 -0.289 0.630 49 48 51 0 0
1.8483 3.0647 1.7708 0.258 -0.354 0.899 47 46 51 0 0
0.8682 2.6180 1.9522 -0.115 -0.793 -0.599 46 45 50 0 0
1.8234 3.1538 1.8032 0.355 -0.308 0.883 44 43 48 0 0
0.9856 2.4616 1.9192 -0.751 -0.623 0.216 53 51 56 0 0
0.9895 2.4578 1.9323 -0.700 -0.653 0.289 60 60 62 0 0
0.9062 2.5539 1.9646 -0.687 -0.520 -0.508 48 48 53 0 0
1.8807 3.2073 1.8270 0.275 -0.394 0.877 50 49 54 0 0
1.7260 3.4384 1.8942 0.863 -0.211 -0.459 38 39 43 0 0
1.6978 3.5199 1.9115 0.933 -0.007 -0.359 41 42 46 0 0
1.6938 3.4494 1.9034 0.927 -0.007 -0.375 46 47 49 0 0
0.9934 2.4536 1.9453 -0.394 -0.802 0.450 45 45 47 0 0
0.9152 2.5316 1.9743 -0.672 -0.626 -0.396 46 47 52 0 0
0.8964 2.5476 1.9809 -0.672 -0.626 -0.396 48 49 54 0 0
0.8824 2.5462 1.9841 -0.692 -0.710 -0.135 49 50 55 0 0
1.6984 3.4412 1.9172 0.937 -0.065 -0.342 49 50 52 0 0
1.3708 2.6060 1.8881 -0.524 -0.315 -0.791 22 22 24 0 0
0.9991 2.4430 1.9571 0.046 -0.819 0.572 30 30 32 0 0
0.9224 2.5157 1.9852 -0.555 -0.766 -0.324 43 44 49 0 0
0.9068 2.5204 1.9896 -0.689 -0.724 -0.035 46 49 52 0 0
0.8870 2.5398 1.9969 -0.693 -0.721 0.034 54 56 61 0 0
0.6067 2.9998 2.1248 -0.937 -0.350 -0.027 165 165 165 0 0
1.7597 3.5593 1.9338 -0.849 -0.475 0.232 35 35 39 0 0
1.7424 3.5723 1.9397 -0.049 -0.958 0.282 36 37 41 0 0
1.7238 3.5924 1.9469 0.278 -0.920 0.275 37 37 42 0 0
1.7092 3.5872 1.9497 0.381 -0.894 0.236 39 40 44 0 0
1.3966 2.5652 1.8911 -0.621 -0.609 -0.494 20 20 23 0 0
0.9952 2.4682 1.9759 0.047 -0.887 0.459 22 22 24 0 0
0.9837 2.4584 1.9774 -0.174 -0.839 0.516 20 20 23 0 0
0.9634 2.4808 1.9853 -0.442 -0.895 -0.058 25 25 28 0 0
0.9477 2.4858 1.9898 -0.514 -0.848 0.133 30 30 34 0 0
0.9259 2.5133 1.9987 -0.460 -0.862 -0.215 34 35 40 0 0
0.9087 2.5237 2.0042 -0.653 -0.756 0.046 53 55 58 0 0
0.8897 2.5406 2.0111 -0.653 -0.756 0.046 59 61 65 0 0
1.9130 3.3624 1.8863 -0.552 -0.506 0.663 58 58 58 0 0
1.8716 3.4430 1.9071 0.168 -0.739 0.653 46 46 51 0 0
1.8565 3.4428 1.9108 0.168 -0.739 0.653 39 40 44 0 0
1.8414 3.4426 1.9144 0.168 -0.739 0.653 38 39 43 0 0
0.9963 2.4749 1.9911 0.151 -0.884 0.442 16 16 18 0 0
0.9519 2.4812 2.0028 -0.304 -0.886 0.350 29 31 33 0 0
0.9311 2.5048 2.0110 -0.312 -0.937 0.156 42 44 45 0 0
0.7817 2.7280 2.0772 -0.792 -0.507 0.340 70 71 73 0 0
0.5768 2.9664 2.1589 0.579 -0.770 -0.268 180 180 180 0 0
1.9653 3.4435 1.9002 0.860 0.032 -0.508 77 76 79 0 0
1.7451 3.5975 1.9748 -0.637 -0.740 0.216 36 35 40 0 0
1.7131 3.6046 1.9835 0.956 -0.042 -0.289 42 41 46 0 0
1.7080 3.5392 1.9759 0.956 -0.042 -0.289 47 46 51 0 0
1.3792 2.4782 1.9127 0.104 -0.941 -0.323 38 36 41 0 0
0.9947 2.4918 2.0084 0.536 -0.733 -0.418 16 16 18 0 0
0.7251 2.8323 2.1202 -0.839 -0.508 0.197 71 71 70 0 0
0.5931 2.9730 2.1714 0.500 -0.853 -0.152 182 182 182 0 0
0.5804 2.9642 2.1733 0.579 -0.770 -0.268 182 182 182 0 0
1.8805 3.4267 1.9345 -0.835 -0.469 0.289 39 40 44 0 0
1.7359 3.6802 2.0046 -0.566 -0.585 0.581 37 36 41 0 0
1.7151 3.7139 2.0143 -0.597 -0.583 0.551 39 38 43 0 0
1.4756 2.5656 1.9156 0.561 -0.507 0.654 19 19 21 0 0
1.4634 2.5571 1.9174 0.406 -0.575 0.710 22 22 24 0 0
1.0051 2.4635 2.0166 0.172 -0.673 -0.720 22 22 24 0 0
0.9968 2.4413 2.0156 -0.249 -0.927 0.280 34 34 36 0 0
1.7342 3.7133 2.0259 -0.492 -0.672 0.554 37 37 42 0 0
1.4302 2.4625 1.9270 -0.096 -0.901 0.424 47 46 51 0 0
1.0247 2.4542 2.0251 0.139 -0.799 -0.585 32 33 37 0 0
1.0146 2.4385 2.0254 -0.290 -0.927 -0.240 40 40 45 0 0
0.9991 2.4433 2.0298 -0.350 -0.933 0.083 48 49 53 0 0
0.6101 3.0400 2.2077 -0.860 -0.478 0.176 112 113 111 0 0
1.4091 2.4448 1.9441 -0.010 -0.966 -0.259 48 47 52 0 0
1.3910 2.4642 1.9513 -0.314 -0.860 -0.403 48 47 52 0 0
1.0274 2.4547 2.0390 0.128 -0.912 -0.389 38 39 44 0 0
1.0159 2.4446 2.0404 -0.304 -0.927 -0.219 51 52 57 0 0
1.0007 2.4481 2.0447 -0.337 -0.898 -0.284 60 61 66 0 0
0.9850 2.4536 2.0493 -0.299 -0.939 -0.170 68 68 71 0 0
0.9200 2.5353 2.0767 -0.708 -0.643 0.291 66 66 68 0 0
0.6132 3.0401 2.2227 -0.820 -0.526 0.225 124 126 124 0 0
1.7554 3.7213 2.0547 -0.539 -0.584 0.607 37 36 41 0 0
1.3500 2.4729 1.9770 -0.034 -0.964 -0.265 45 44 49 0 0
1.2405 2.4611 2.0022 -0.052 -0.583 0.811 47 46 51 0 0
1.2281 2.4542 2.0043 0.221 -0.908 0.355 47 46 51 0 0
1.0560 2.4646 2.0480 0.363 -0.788 -0.498 45 44 49 0 0
1.0295 2.4574 2.0535 -0.253 -0.853 -0.456 46 45 51 0 0
1.0005 2.4597 2.0609 -0.501 -0.842 -0.197 65 64 70 0 0
0.9826 2.4732 2.0672 -0.631 -0.775 0.031 64 63 68 0 0
0.9631 2.4928 2.0748 -0.564 -0.810 -0.159 61 60 64 0 0
0.9233 2.5338 2.0904 -0.808 -0.589 0.009 53 53 55 0 0
0.9017 2.5599 2.0994 -0.804 -0.594 0.019 54 54 56 0 0
0.8765 2.5988 2.1111 -0.842 -0.539 -0.011 56 56 58 0 0
1.1527 2.4864 2.0419 0.883 0.024 0.469 47 46 51 0 0
1.0603 2.4592 2.0607 0.131 -0.857 -0.498 43 42 47 0 0
1.0226 2.4407 2.0674 -0.220 -0.912 -0.346 63 62 68 0 0
1.0054 2.4519 2.0732 -0.459 -0.888 0.038 60 59 65 0 0
0.9667 2.4902 2.0882 -0.684 -0.643 -0.345 48 48 53 0 0
0.9433 2.5237 2.0988 -0.809 -0.586 0.034 50 50 54 0 0
0.7437 2.8194 2.1903 -0.792 -0.572 0.215 82 82 83 0 0
1.5306 2.5748 1.9764 -0.492 -0.842 -0.223 21 21 24 0 0
1.0248 2.4431 2.0817 -0.448 -0.890 0.080 54 55 60 0 0
1.0083 2.4519 2.0871 -0.448 -0.890 0.080 47 48 54 0 0
0.9856 2.4836 2.0973 -0.688 -0.723 0.056 47 48 53 0 0
0.8315 2.6765 2.1632 -0.760 -0.403 -0.510 61 62 64 0 0
1.5491 2.5669 1.9852 -0.510 -0.792 0.336 22 22 24 0 0
1.5115 2.5448 1.9913 0.236 -0.758 -0.608 40 39 44 0 0
1.3602 2.5299 2.0264 0.326 -0.614 0.719 49 48 53 0 0
1.0267 2.4467 2.0964 -0.564 -0.769 0.302 42 43 47 0 0
1.0111 2.4522 2.1010 -0.393 -0.911 0.121 43 44 49 0 0
1.3112 2.5101 2.0501 0.853 -0.466 0.234 38 38 42 0 0
1.3002 2.4964 2.0508 0.698 -0.553 0.455 36 36 39 0 0
1.6076 2.5846 2.0026 0.394 -0.262 -0.881 25 25 27 0 0
1.3904 2.5473 2.0507 0.208 -0.618 -0.758 41 40 45 0 0
0.6622 2.9872 2.2970 -0.894 -0.419 -0.160 97 98 97 0 0
1.6225 2.5215 2.0039 0.008 -0.538 0.843 28 28 30 0 0
1.2675 2.5409 2.0948 0.282 -0.738 0.613 26 26 30 0 0
1.0591 2.4648 2.1349 0.454 -0.859 0.234 29 30 32 0 0
0.9955 2.4897 2.1544 0.789 -0.589 0.174 39 40 45 0 0
1.6313 2.5646 2.0229 0.520 -0.488 0.701 32 31 35 0 0
1.1205 2.6300 2.1597 0.206 -0.305 0.930 26 26 28 0 0
1.0011 2.4794 2.1661 -0.380 -0.847 -0.371 36 37 42 0 0
1.4116 2.5552 2.0906 0.825 -0.477 0.302 34 33 38 0 0
1.4013 2.5377 2.0904 0.735 -0.516 0.440 33 32 37 0 0
2.0868 3.4432 2.0928 0.986 -0.022 -0.163 87 87 89 0 0
1.4915 2.6069 2.1082 -0.498 -0.811 0.308 42 41 46 0 0
0.8800 2.6925 2.2742 -0.922 -0.353 -0.160 45 46 50 0 0
2.0373 3.3841 2.1116 0.368 -0.627 -0.687 59 60 64 0 0
1.5305 2.5118 2.1125 -0.359 -0.595 -0.719 40 39 44 0 0
2.0996 3.4186 2.1334 0.863 -0.138 -0.485 111 109 112 0 0
1.5173 2.5929 2.1437 -0.697 -0.717 -0.029 39 38 43 0 0
0.9077 2.6234 2.3013 -0.907 -0.412 0.090 48 49 53 0 0
2.1036 3.4123 2.1472 0.882 -0.163 -0.442 117 115 118 0 0
1.6067 2.5089 2.1221 0.790 -0.604 0.108 44 43 48 0 0
1.7594 2.6058 2.1145 0.833 -0.203 0.514 40 40 45 0 0
0.6074 3.0162 2.4724 -0.912 -0.374 -0.170 105 107 104 0 0
2.0215 3.0576 2.1396 0.952 -0.145 -0.269 55 55 57 0 0
1.6858 2.5647 2.1407 -0.151 -0.558 0.816 49 48 53 0 0
2.0628 3.2164 2.1717 0.939 -0.120 -0.323 70 70 72 0 0
1.6166 2.5770 2.1748 0.708 -0.313 0.633 40 39 43 0 0
2.1022 3.2831 2.1889 0.837 -0.306 -0.453 81 80 78 0 0
2.0687 3.1948 2.1821 0.968 -0.095 -0.231 74 72 75 0 0
2.1627 3.7141 2.2644 0.596 -0.373 -0.711 203 203 203 0 0
2.1393 3.5090 2.2346 0.855 -0.019 -0.519 87 87 87 0 0
2.1155 3.3239 2.2083 0.914 -0.239 -0.329 74 73 72 0 0
2.0812 3.2395 2.2023 0.987 -0.111 -0.114 79 78 80 0 0
2.1447 3.4901 2.2460 0.875 -0.034 -0.483 85 85 85 0 0
2.1585 3.5947 2.3096 0.740 -0.197 -0.644 90 90 90 0 0
1.0327 2.3830 2.3908 -0.093 -0.951 0.295 23 24 26 0 0
1.0368 2.3784 2.4035 -0.401 -0.907 -0.133 23 24 26 0 0
0.7936 2.6850 2.5221 -0.350 -0.295 -0.889 50 51 55 0 0
0.8067 2.6490 2.5272 -0.277 -0.327 -0.903 51 50 55 0 0
0.8188 2.6687 2.5430 -0.489 -0.292 -0.822 48 47 52 0 0
0.9989 2.4038 2.4765 0.362 -0.811 0.460 22 23 25 0 0
1.0153 2.4063 2.4875 0.167 -0.971 0.174 20 21 23 0 0
2.1417 3.3096 2.3886 0.963 -0.133 0.236 75 75 80 0 0
0.7119 2.7715 2.6513 -0.799 -0.450 0.398 113 115 112 0 0
0.9332 2.4147 2.5397 -0.648 -0.762 0.019 48 49 53 0 0
1.2019 2.4556 2.5227 0.997 -0.035 -0.070 12 13 15 0 0
1.1921 2.4377 2.5217 0.506 -0.210 -0.836 11 12 16 0 0
1.2027 2.4643 2.5390 0.945 -0.016 -0.327 32 33 35 0 0
1.1977 2.4266 2.5327 0.617 -0.262 -0.742 33 34 38 0 0
1.1868 2.4131 2.5327 0.259 -0.353 -0.899 30 31 35 0 0
2.0724 2.9541 2.4287 0.993 -0.078 0.094 68 67 72 0 0
2.0579 2.9551 2.4326 0.982 -0.122 0.143 65 65 69 0 0
1.1941 2.3952 2.5419 0.259 -0.353 -0.899 40 40 45 0 0
1.1754 2.4137 2.5505 0.902 -0.396 0.174 40 40 44 0 0
1.1614 2.3118 2.5477 -0.297 -0.875 0.383 46 45 50 0 0
1.2535 2.3594 2.5628 0.568 -0.811 -0.141 49 50 54 0 0
1.2378 2.3665 2.5684 0.443 -0.735 -0.513 48 49 53 0 0
1.2285 2.3468 2.5667 0.347 -0.858 -0.379 49 48 52 0 0
1.2171 2.3363 2.5674 0.177 -0.928 0.328 49 48 52 0 0
0.6297 3.0432 2.8691 -0.843 -0.423 0.332 191 191 190 0 0
1.8408 2.6716 2.4904 -0.157 -0.349 -0.924 54 53 58 0 0
1.3624 2.3851 2.5544 0.846 -0.512 -0.148 47 48 52 0 0
1.3130 2.3568 2.5613 -0.186 -0.979 -0.079 52 52 53 0 0
1.2841 2.3607 2.5697 0.141 -0.989 -0.049 50 51 55 0 0
1.8045 2.6535 2.5109 0.512 -0.367 -0.777 54 53 58 0 0
1.5586 2.5333 2.5494 -0.333 -0.077 -0.940 49 50 54 0 0
1.5426 2.5434 2.5558 -0.207 -0.020 -0.978 49 50 54 0 0
1.5299 2.5360 2.5575 -0.181 -0.017 -0.983 50 51 55 0 0
1.5353 2.4391 2.5354 0.617 -0.485 0.620 48 49 53 0 0
1.4796 2.4383 2.5498 0.609 -0.440 -0.660 48 47 52 0 0
1.4663 2.4350 2.5525 0.049 -0.500 -0.865 48 49 52 0 0
1.4346 2.3871 2.5506 0.501 -0.814 0.296 48 50 52 0 0
1.4221 2.3807 2.5525 0.313 -0.819 0.481 46 49 51 0 0
1.4098 2.3732 2.5541 0.506 -0.685 0.524 47 51 52 0 0
1.3955 2.3748 2.5582 0.418 -0.638 0.647 48 52 53 0 0
1.0646 2.5151 2.6746 -0.131 -0.481 0.867 38 38 39 0 0
1.0436 2.5404 2.6855 -0.131 -0.481 0.867 43 44 46 0 0
0.9980 2.6045 2.7112 -0.270 -0.500 0.822 44 45 49 0 0
0.9575 2.6468 2.7308 -0.486 -0.545 0.683 44 43 48 0 0
0.8266 2.7474 2.7865 0.431 -0.226 -0.874 54 55 58 0 0
2.0859 3.1152 2.5517 0.623 -0.024 -0.782 39 38 43 0 0
1.8210 2.6571 2.5222 0.932 -0.289 -0.217 36 35 40 0 0
1.8106 2.6343 2.5200 0.673 -0.401 -0.622 38 37 42 0 0
1.7494 2.5808 2.5245 0.503 -0.366 -0.783 50 49 54 0 0
1.7219 2.5780 2.5311 0.060 -0.478 -0.877 51 50 55 0 0
1.6194 2.4510 2.5306 0.450 -0.568 -0.689 50 51 55 0 0
1.6100 2.4277 2.5280 0.173 -0.846 -0.504 49 50 54 0 0
1.4587 2.4185 2.5656 0.102 -0.639 0.762 45 46 48 0 0
1.2561 2.3851 2.6114 0.267 -0.850 0.455 30 31 35 0 0
1.0617 2.5377 2.6952 -0.383 -0.537 0.752 42 42 44 0 0
0.8463 2.7408 2.7953 0.049 -0.279 -0.959 57 58 62 0 0
1.8248 2.6525 2.5352 0.917 -0.299 0.265 43 43 46 0 0
1.8124 2.6420 2.5361 0.868 -0.436 0.236 40 39 43 0 0
1.7281 2.5593 2.5402 0.574 -0.606 -0.551 32 31 36 0 0
1.7138 2.5613 2.5444 0.117 -0.772 -0.624 33 32 37 0 0
1.5114 2.4482 2.5729 0.697 -0.626 0.351 38 37 42 0 0
1.4221 2.4729 2.6017 0.215 -0.459 0.862 29 29 31 0 0
1.3960 2.4633 2.6064 0.405 -0.336 0.850 28 27 30 0 0
1.2679 2.4068 2.6277 0.096 -0.992 -0.082 14 14 17 0 0
1.2539 2.4066 2.6314 0.327 -0.866 -0.378 15 15 18 0 0
1.2404 2.4038 2.6343 -0.053 -0.987 -0.154 15 15 18 0 0
1.1653 2.4221 2.6579 -0.075 -0.937 0.342 32 32 34 0 0
1.1078 2.4810 2.6858 -0.599 -0.617 0.510 39 39 40 0 0
1.0389 2.5815 2.7257 -0.577 -0.607 0.547 40 39 43 0 0
1.0172 2.6093 2.7374 -0.468 -0.667 0.579 38 39 42 0 0
0.9755 2.6569 2.7587 -0.417 -0.642 0.644 40 41 44 0 0
0.9530 2.6864 2.7710 -0.364 -0.688 0.627 41 41 46 0 0
0.7008 2.8932 2.8820 -0.809 -0.567 0.157 105 106 105 0 0
0.6581 2.9877 2.9137 -0.847 -0.515 0.135 134 135 133 0 0
1.8242 2.6748 2.5551 0.956 -0.213 -0.203 61 61 63 0 0
1.5142 2.4489 2.5870 0.730 -0.683 -0.028 19 18 23 0 0
1.5028 2.4362 2.5872 0.740 -0.587 -0.328 16 16 20 0 0
1.1829 2.4197 2.6675 -0.539 -0.841 -0.052 26 27 29 0 0
0.9740 2.6739 2.7780 -0.630 -0.572 -0.525 41 41 44 0 0
0.6781 2.9292 2.9116 -0.879 -0.433 -0.199 101 103 102 0 0
2.1103 3.1136 2.5917 0.130 -0.586 -0.800 61 59 64 0 0
1.8230 2.7010 2.5761 0.952 -0.175 -0.250 61 60 65 0 0
1.1520 2.4416 2.6952 -0.238 -0.918 0.319 31 31 33 0 0
0.9135 2.6359 2.8008 -0.699 -0.354 -0.621 65 64 68 0 0
2.1774 3.3285 2.6374 0.906 -0.101 -0.411 92 90 92 0 0
2.1580 3.2362 2.6220 0.956 -0.184 -0.228 91 91 93 0 0
2.1022 3.0870 2.6035 0.307 -0.462 -0.832 64 62 67 0 0
1.7647 2.5614 2.5754 0.759 -0.651 0.015 48 47 52 0 0
1.4307 2.4738 2.6439 -0.155 -0.965 0.210 15 15 17 0 0
1.4159 2.4770 2.6485 0.174 -0.544 -0.821 15 15 17 0 0
1.2179 2.4159 2.6870 0.235 -0.960 0.156 28 29 31 0 0
1.2071 2.4021 2.6868 0.346 -0.877 0.334 28 29 31 0 0
1.1602 2.4204 2.7032 -0.145 -0.849 0.507 31 31 33 0 0
1.1442 2.4275 2.7090 -0.291 -0.868 0.402 31 31 33 0 0
2.1716 3.2756 2.6430 0.903 -0.139 -0.407 86 86 88 0 0
2.1550 3.1619 2.6219 0.781 -0.245 -0.575 85 85 87 0 0
1.4311 2.4856 2.6612 0.778 -0.327 -0.536 15 15 17 0 0
1.4180 2.4810 2.6636 0.588 -0.722 -0.366 14 14 16 0 0
1.4109 2.4482 2.6581 0.452 -0.844 -0.289 14 14 16 0 0
1.2674 2.3981 2.6847 0.287 -0.953 -0.101 24 25 27 0 0
1.1756 2.4273 2.7155 -0.212 -0.940 0.266 33 33 35 0 0
1.1604 2.4310 2.7203 -0.389 -0.906 0.169 34 34 36 0 0
2.2398 3.8237 2.7647 -0.681 -0.615 0.398 174 174 174 0 0
2.2249 3.8155 2.7668 0.548 -0.358 -0.756 119 121 120 0 0
2.1773 3.2540 2.6525 0.710 -0.123 -0.693 80 80 82 0 0
2.1592 3.1537 2.6347 0.752 -0.205 -0.627 77 77 79 0 0
2.1486 3.1185 2.6295 0.743 -0.215 -0.634 79 79 82 0 0
2.0779 2.9828 2.6175 0.533 -0.219 -0.817 59 59 61 0 0
1.1750 2.4413 2.7335 -0.128 -0.924 -0.360 40 39 43 0 0
2.3429 3.7540 2.7384 -0.689 -0.650 -0.321 205 205 205 0 0
2.1703 3.2137 2.6611 -0.290 -0.909 -0.300 73 73 75 0 0
2.1534 3.1049 2.6408 0.740 -0.378 -0.557 67 67 70 0 0
1.2245 2.4843 2.7450 0.515 -0.690 0.508 39 40 44 0 0
1.2098 2.4865 2.7495 -0.446 -0.894 -0.048 41 42 44 0 0
1.1581 2.5222 2.7712 0.072 -0.942 -0.327 47 46 51 0 0
1.0913 2.5021 2.7843 -0.685 -0.722 0.103 53 53 55 0 0
2.3468 3.7502 2.7532 -0.491 -0.815 0.307 204 204 204 0 0
2.1595 3.0794 2.6489 0.630 -0.599 -0.494 64 64 67 0 0
1.6661 2.5526 2.6587 0.864 -0.404 -0.300 26 26 28 0 0
1.4549 2.5492 2.7138 0.369 -0.380 0.848 23 24 25 0 0
1.4459 2.5245 2.7106 0.387 -0.294 0.874 19 19 22 0 0
1.4354 2.5070 2.7093 0.387 -0.294 0.874 22 22 25 0 0
1.1242 2.4972 2.7895 0.154 -0.914 -0.376 42 41 45 0 0
1.1109 2.4930 2.7920 -0.138 -0.974 -0.177 54 53 56 0 0
1.0948 2.4997 2.7978 -0.412 -0.905 -0.102 57 56 60 0 0
1.0265 2.5406 2.8253 -0.294 -0.951 -0.093 63 63 65 0 0
2.2843 3.7933 2.7963 -0.755 -0.609 0.242 190 190 190 0 0
2.1227 3.0492 2.6672 0.836 -0.423 0.348 52 52 54 0 0
1.6690 2.5531 2.6729 0.901 -0.434 -0.004 34 34 36 0 0
1.3450 2.4176 2.7275 -0.352 -0.803 -0.482 42 43 45 0 0
1.3293 2.4245 2.7332 -0.141 -0.906 -0.398 44 45 47 0 0
1.3111 2.4426 2.7422 0.190 -0.955 0.229 44 45 47 0 0
1.1291 2.4889 2.8012 0.134 -0.981 0.140 44 43 48 0 0
1.1137 2.4931 2.8062 -0.144 -0.915 0.376 55 54 59 0 0
1.0982 2.4977 2.8114 -0.232 -0.911 0.341 57 56 61 0 0
2.3404 3.7258 2.7825 -0.758 -0.645 -0.095 207 207 207 0 0
1.7565 2.4696 2.6451 0.322 -0.478 -0.817 41 40 46 0 0
1.7421 2.4726 2.6496 -0.112 -0.774 -0.623 41 40 46 0 0
1.6976 2.5667 2.6833 -0.418 -0.636 -0.648 43 42 47 0 0
1.4499 2.3999 2.7102 0.143 -0.969 0.201 43 42 47 0 0
1.3799 2.4639 2.7437 0.654 -0.756 -0.012 42 42 46 0 0
1.3680 2.4536 2.7445 0.654 -0.756 -0.012 43 42 47 0 0
1.1746 2.4908 2.8045 0.100 -0.993 0.060 51 50 55 0 0
1.1596 2.4935 2.8091 0.107 -0.994 -0.037 48 48 51 0 0
1.1454 2.4928 2.8127 0.134 -0.981 0.140 39 39 42 0 0
1.1315 2.4914 2.8161 0.134 -0.981 0.140 44 43 48 0 0
1.1035 2.4885 2.8228 -0.292 -0.956 0.035 51 50 55 0 0
