ply
format ascii 1.0
element vertex 730
property float x
property float y
property float z
property uchar diffuse_red
property uchar diffuse_green
property uchar diffuse_blue
end_header
1.8630314506511327 2.6047430554968516 3.0819797750488584 33 32 37
1.8435674357486107 2.638568544495774 3.0969523308062317 33 32 37
1.8271534019626854 2.6526174542405143 3.1054757155302086 33 32 37
1.864796134435315 2.333177833774149 3.004521565910807 32 31 36
1.8469006110476125 2.3590201322908766 3.0167974639496946 30 30 33
1.7558689701074768 2.6539101028183154 3.125565311794983 29 29 33
1.7613753387024902 2.5382674074133513 3.091265088265237 29 28 34
1.7927121675869064 2.275135299050258 3.0080149612580582 29 28 33
1.7542959246005405 2.4174606711531648 3.058983493759878 28 27 32
1.733509524706766 2.456757048616441 3.075872549850453 26 27 32
1.7277809861943234 2.4104824617458416 3.0643418978532844 22 23 28
1.7197204065383889 2.378037412728511 3.0573762000544664 19 20 24
1.709571724737456 2.3576822323561015 3.0544148867289698 17 18 22
1.6461444101864644 2.6290864885449974 3.148888500353231 17 18 22
1.6460849043336911 2.551987804739418 3.127052822334961 15 16 20
1.6383445016036524 2.517496141931275 3.119418463489996 16 17 21
1.6351598558340994 2.4593465682336033 3.1038182214491026 16 17 21
1.6255304042377172 2.4361722008909683 3.0999142012961167 16 17 21
1.6128801909030535 2.4291418611913285 3.1014216906184373 16 17 21
1.606037416456532 2.3921184782379674 3.0928214054290613 16 17 21
1.5928366316926803 2.3883233023959547 3.095398173841437 18 17 22
1.5792738205034085 2.3863842556169423 3.0986011931218336 20 18 23
1.561558167314798 2.4053649131353287 3.1088825236031434 23 21 26
1.541741974447445 2.43446451481899 3.1226130590978967 26 25 30
1.5304459164131976 2.4207950603652817 3.1218641464474355 27 25 31
1.5183086544837523 2.4114406752914093 3.1225710045648634 27 26 30
1.494858980738484 2.4573013296504644 3.142057462661036 26 26 28
1.4813938390849144 2.4541123254882025 3.144879181969065 24 25 29
1.4723729447151679 2.429637523575247 3.140438200904249 25 26 30
1.4489264059142648 2.4740498761915215 3.159513298279121 28 29 33
1.4376555756267828 2.4603161395032407 3.158739185963877 30 30 35
1.4564700549714067 2.3061571520835202 3.10984012514992 32 31 36
1.4434768554070376 2.3018895818883767 3.112225567067476 32 31 36
1.426870114472424 2.3142600320496958 3.120326543505784 33 32 37
1.4094012022816111 2.330319788622859 3.1297117315288907 33 34 36
1.4030783010305539 2.2956352133029716 3.121630496188899 34 35 38
1.3904881075279987 2.2895904181919997 3.1234007127190546 34 35 40
1.3753854772814114 2.294787545246758 3.129052385910919 35 35 41
1.3602362085164559 2.3000649933053805 3.13473972865426 36 37 42
1.3387318300860052 2.3330943745936894 3.15005117770217 37 38 43
1.3386436447017658 2.2723445827742155 3.1328572145114775 37 38 43
1.3232698287446236 2.278508857878879 3.1388580398449597 39 39 44
1.3157028696205009 2.251062590137744 3.1331725740527556 42 41 46
1.2964585149663905 2.273677859819462 3.1449070319363335 44 43 48
1.2770601912866557 2.2965640277545787 3.156760871406309 44 43 48
1.2623645526986933 2.299351406179549 3.16161693975448 43 42 47
1.251039914860872 2.28802423746737 3.1615398106035153 43 42 47
1.1932060706378294 2.468986380938866 3.2288317226241903 47 46 51
1.180511154584067 2.4621311867742097 3.2304012220879796 50 49 52
1.167828233951187 2.455282417680815 3.231969223680934 50 50 52
1.1561826839201934 2.4442940584736963 3.2320769146625636 43 43 45
1.1429623253282233 2.439741271612383 3.234444368524611 39 39 42
1.1291963246807741 2.4373854261871886 3.237585473380241 49 48 53
1.1154281492178297 2.435029100453597 3.240727043837044 53 52 57
1.1051067907841965 2.419114922516222 3.239072224183063 55 54 59
1.1031614941601047 2.3706825361328017 3.2258832250506195 56 55 60
1.066632967455678 2.456946135966048 3.2604398243190396 57 56 61
1.0450761438175646 2.4843444807452255 3.2741697748543537 58 57 62
1.0255923719002802 2.5034019141181654 3.2849620751009985 59 58 63
1.000207464551958 2.5445750347456824 3.303655388757278 61 61 63
0.9914089199094827 2.522578173864808 3.299855212041879 63 63 65
0.9805580086964487 2.5085256054189955 3.2988745483414483 66 66 68
0.9683435841340915 2.4996950738280557 3.299751232295741 69 69 71
0.9475642854711857 2.5226151384513393 3.311996772001781 73 73 75
0.9249709257474175 2.5518594103164705 3.3265367074847765 77 77 79
0.9023755921709902 2.580689787354277 3.340959878554436 80 80 82
0.8783563760841864 2.6142700992406036 3.357123292170834 84 82 85
0.8568390477766691 2.6383638315372955 3.3699056860149694 85 84 87
0.8279555649906967 2.6884786873913367 3.3921013607071413 85 83 86
0.8024137127346096 2.7260291163763926 3.4098113159941175 81 79 82
0.7765483426643389 2.7642075782337976 3.427788787158686 78 76 79
0.7498832556966079 2.804674128387127 3.446636041439221 70 68 71
0.7233781377185363 2.8440356918461354 3.4651258476814997 67 65 68
0.6911296493524584 2.9027876164403805 3.490700574977027 70 71 71
0.683343688829877 2.8764512335071624 3.485390278787667 89 89 87
0.6408039176519029 2.969455361308174 3.5235205629807647 118 119 115
0.5971362880531043 3.065119717204799 3.562716897490529 169 168 165
0.5518940641598481 3.164906022065202 3.6035171834505264 189 189 189
0.5055847832671406 3.2670308736424523 3.6452755225691393 193 193 193
0.4845248382245775 3.2834727927261356 3.655762606443927 194 194 194
0.5495590464120628 3.0135854464757434 3.5612743310160844 195 195 195
0.5623971417045691 2.919293771139613 3.530997077211989 195 195 195
0.49390936841893673 3.0931208399407457 3.5992144546936786 195 195 195
0.4321353740829257 3.2429406235676117 3.658769836656106 195 195 195
0.4012189093265479 3.2908289992952557 3.6808969506737443 196 196 196
-1.1239523815673222 3.278437164249655 4.0993743195976755 207 207 207
-1.13402129920274 3.2631875986197016 4.0978380253660625 207 207 207
-1.1332759210132015 3.2256349464127645 4.086988213001491 207 207 207
3.028555178479804 2.543774407624646 2.7567160227642673 204 204 204
3.0154322535141076 2.541598182692752 2.7597313780957466 204 204 204
2.9709408356025406 4.129722825832601 3.224973257066029 204 204 204
2.954745297970554 4.1518181634688665 3.2357619117177143 203 203 203
2.925570184143521 2.9276306717655447 2.8947215520303122 202 202 202
2.9084113084674317 3.0404812165692845 2.9316594438119794 202 202 202
2.895172758511413 3.0147081377129488 2.927977288802212 202 202 202
2.9179847175588796 1.884818244989396 2.59942536225947 202 202 202
2.9038367048140428 1.9419908711577574 2.619650338412149 202 202 202
2.892625218208791 1.9117697211814368 2.6141380039512305 201 201 201
2.877960181429127 1.976199861964022 2.6365759910372497 201 201 201
2.8635645992836705 2.0281719678916486 2.6553864340843165 201 201 201
2.8490383102663994 2.079008650068026 2.6739092827143205 201 201 201
2.832291274481961 2.1782708388260206 2.7068578251695943 201 201 201
2.816764049930785 2.2422184719546463 2.729397094423028 201 201 201
2.8000031900488533 2.3285155533349076 2.7586519701655785 200 200 200
2.777768592722248 2.5247955252526597 2.8207892968134365 200 200 200
2.7624166180412604 2.5666790328117384 2.8369875787748415 199 199 199
2.747299480305418 2.601014315073096 2.850968128532055 199 199 199
2.5267104427930365 4.12537972430587 3.346818261068155 196 196 196
2.5184594192375265 4.008708652716147 3.3158311600291843 195 195 195
2.5022657398872026 4.013697829953428 3.3217408229413996 195 195 195
2.4977246505357162 3.851753865228286 3.276814505078302 194 194 194
2.483138967166583 3.8373368045524017 3.276744205976896 194 194 194
2.461969625678378 3.913293466540395 3.304271579910434 193 193 193
2.4520984107939343 3.8349105517735453 3.2846527222885116 191 189 190
2.4430129210832416 3.7494795227264257 3.2628061228168086 177 177 177
2.434210366444561 3.663879759051693 3.2408330089425306 128 129 129
2.4262240417613437 3.5714443574871453 3.2166842969924794 93 94 95
2.4206517454345438 3.4529790612146414 3.1844433049412975 72 73 75
2.410193732212266 3.39786044341072 3.171621737828842 69 69 71
2.398044964010415 3.3647053037634653 3.1655323579009096 69 68 71
2.394271810093263 3.235769966604405 3.1298069414671055 72 72 74
2.3855787030298625 3.1674141962953875 3.1127212879953614 77 77 79
2.376317130528221 3.107794774797274 3.098284644622214 77 76 78
2.3669390753978954 3.0514933652817366 3.0848265334802263 83 82 85
2.358026746112267 2.992076594122868 3.0703509182525495 83 83 85
2.3458108815094922 2.969519203179878 3.067302482801965 81 80 82
2.3387928876878497 2.893677534238183 3.0476178123686175 77 76 79
2.331671191267962 2.821355832843846 3.028965728548412 74 74 75
2.317616035461678 2.8209131487584846 3.0327337641015624 71 71 72
2.307252538199869 2.7839487851243234 3.0250633902517676 70 70 71
2.281146008246073 2.9009538955870644 3.065665256050453 69 69 70
2.271481499446339 2.8570185252449036 3.0558131628041827 65 65 66
2.2656729088832104 2.7780907784529645 3.0349132878228753 62 62 63
2.253080159214036 2.764335640849141 3.034479576199938 60 60 61
2.258448925604382 2.587082038889883 2.982441389726632 58 57 61
2.1956261100093575 3.027695389391914 3.1255055788399178 57 56 60
2.262790053336463 2.30462908635242 2.90068630838055 55 55 59
2.265496045778662 2.164774643059277 2.860051703435834 54 53 58
2.200701882574774 2.6091683913456314 3.0047402221271713 54 53 57
2.202047621852484 2.4803263718307225 2.967623119096095 52 51 55
2.1983060687603784 2.3975185592600337 2.9450439774515837 51 51 55
2.1821629308388157 2.419122445976987 2.9556779575801144 50 49 55
2.174951308872524 2.367452975804838 2.942940564355305 50 49 54
2.1640587090503924 2.346615735092639 2.940016056600113 48 47 53
2.1635214629638835 2.244310663583872 2.910988702432354 47 46 51
2.1644970778620243 2.132799250662924 2.878916636630743 46 45 50
2.088129676561534 2.5140892619157156 3.00881532269401 45 44 49
2.0798140838793637 2.4729848483835264 2.9993968389310823 44 43 48
2.0565643065875454 2.543636788409254 3.025987797791397 43 42 47
2.046967601738747 2.5124241039266275 3.0197452791944204 41 40 45
2.00848678226331 2.690971982594297 3.0813269862871984 40 39 44
1.9320151987356957 3.1368043514084456 3.2296612637347897 39 39 42
1.91852697999354 3.1269105556093284 3.2305768706387146 39 39 42
1.963240848744762 2.7108021859302998 3.099518689495283 40 39 43
1.925826560554663 2.8710681181189135 3.155591093806412 40 39 42
1.9316338432160145 2.7327526969878164 3.114536120677203 39 39 42
1.9183485840096026 2.726267280964727 3.1163675233127255 39 39 42
1.8993897869824368 2.7576835254126384 3.130580012142269 39 38 42
1.8930012903458568 2.7054634858420212 3.117457538349642 39 38 43
1.8862256804144988 2.6568555989472116 3.105472466332962 39 38 43
1.874121318111291 2.6436047004499037 3.105047239558358 38 37 42
1.871297577461867 2.571385651784526 3.0852335898066965 38 37 42
1.8665798096724202 2.5126026850868377 3.0697765345213055 38 37 42
1.8458404207359402 2.5550168533996893 3.0876188539685128 38 37 42
1.8373419255686918 2.520869073069548 3.0802349977020715 37 36 41
1.8210715132276922 2.534874018648856 3.0887371128209695 36 36 40
1.8118179032577086 2.506083290943676 3.083090246136727 34 34 38
1.7840062303111384 2.5889309201648865 3.1144232444311903 34 34 37
1.7765293968634988 2.549524592011605 3.105256638431096 34 34 38
1.7667036902516262 2.5246298163806893 3.100879363415414 36 35 40
1.7565365275986113 2.5021539844533125 3.097286550606967 35 34 39
1.7401289218719962 2.5159540354828103 3.1057682445815233 34 33 37
1.7216492644417363 2.5412274714241954 3.1180961203215376 33 33 38
1.713610963143192 2.507062411393165 3.1105798294556664 32 33 37
1.7086372371895155 2.4563760479858727 3.097502749452856 32 33 37
1.6321211131115303 2.802443281895555 3.2173975182545993 33 34 37
1.6314491663628554 2.7262383097715284 3.1958509288718084 30 31 34
1.6318580787653778 2.6455306017110343 3.172720736540613 28 29 32
1.6357255332510405 2.547656241122919 3.1437365520660485 27 28 31
1.6363317744294874 2.4689060558696876 3.1211099481523816 27 28 31
1.6249895288275555 2.4546409412914256 3.1201843179547435 27 28 31
1.6136645926969517 2.4404891255261205 3.1192862032912148 30 31 34
1.5996140337246094 2.4406750562100528 3.123232238772006 29 30 34
1.5872259153710422 2.4322586542048583 3.124264374580094 32 31 36
1.573450249590131 2.431008493748958 3.127724688581101 33 32 37
1.5520986764136413 2.4679939183257797 3.1441884126518325 32 31 36
1.5306817098055403 2.50461382250254 3.1605660132395883 32 32 37
1.523344489464243 2.4706592780935615 3.152915509375741 31 31 36
1.5108265189460672 2.4627313780001003 3.154122938556443 33 33 37
1.4785793297544592 2.551166095919426 3.1882782645815455 34 34 37
1.4751004115090238 2.498854392970567 3.174323488056073 33 33 37
1.4654355449867165 2.4770491421637972 3.170782745169672 33 33 37
1.4295518549783797 2.580328258016108 3.210179090793215 33 33 38
1.4266696400638899 2.5261003806549165 3.1955125142181644 34 34 39
1.4607725331953505 2.299568519821669 3.1214593355197495 35 34 39
1.4389545379539679 2.3363197525367805 3.137985503097613 37 36 41
1.4292352628537506 2.3167052184693486 3.1350846020707044 37 36 41
1.409549386793517 2.342897621776249 3.148008765426198 38 37 41
1.4064757124888358 2.2933226602723984 3.134722193981509 37 37 41
1.3949618800629646 2.282440776121314 3.134808963357672 38 37 42
1.3803443757634108 2.2855328498782685 3.1397408812744656 39 38 43
1.357753763725626 2.323834865963165 3.156923384267829 39 39 44
1.3380644781368272 2.348754329502497 3.1694854647740174 40 40 45
1.319207801174217 2.369617366819222 3.1806600078009213 40 40 45
1.3045520352969642 2.371941264719438 3.185383452143226 41 40 45
1.292336219970465 2.36370731095528 3.186419879787981 43 42 47
1.2731355694581437 2.385323001818944 3.1979043760893435 44 43 48
1.2851528068003466 2.2745060670816204 3.1629710478412947 45 44 49
1.2687573903059979 2.284594175730786 3.1703907619764156 45 44 49
1.2511115104332236 2.2997034370859684 3.179588917965909 46 45 50
1.19651598082504 2.467446199538307 3.2425540600932714 49 48 53
1.1832395181789028 2.462976707374136 3.2449579433573392 51 50 54
1.1703845842045755 2.4568090558178084 3.246760737820778 51 51 54
1.1594796479373426 2.4427905787241713 3.2457842797715193 42 42 45
1.1467638406456766 2.4362091429575754 3.2474305197717217 41 40 44
1.1341001251999812 2.4294702788713556 3.249017429887768 51 50 55
1.1214478121119351 2.4227386517915614 3.250603244644432 54 53 58
1.1072245791598505 2.4222428039395463 3.2544026879093297 56 55 60
1.0781435362257845 2.4797929360645683 3.2788728422422024 56 56 61
1.0702319646510046 2.4543252320406728 3.273801822378739 57 57 62
1.0504407984927462 2.4749677308677565 3.285172390782602 58 58 62
1.03137892295422 2.492495507097227 3.2954526110470517 59 59 64
1.008779710374096 2.5231993097059955 3.3104705753956596 62 62 64
0.9957101414229788 2.517447641514126 3.3124514726958627 65 65 67
0.9812003640750566 2.517136718827102 3.3163830477561866 68 68 70
0.9781808659232905 2.473957306208892 3.3049054013767942 70 70 72
0.9507418780644459 2.5217350614580942 3.3261336213746695 75 75 77
0.9250318223257566 2.5624852018645683 3.3448786099071572 77 77 79
0.9034524975913544 2.587566717777483 3.3580105819401065 79 79 81
0.8811491064004768 2.614911895909194 3.3719887421798753 81 79 83
0.8581751734526741 2.6442834048937147 3.3867305763251063 81 78 82
0.8298871828250322 2.6922860802936537 3.4082581754366132 78 75 80
0.8071618332913735 2.7198249715036384 3.4224084930347503 75 73 77
0.7828449892858615 2.7526069826417032 3.4384950449581324 68 67 70
0.7564087376168936 2.792388885069283 3.4571651115798074 65 64 66
0.7549102935670198 2.7444859069563026 3.443918918745393 66 65 66
0.7269068856119838 2.78918598884804 3.464425807053707 75 76 76
0.6860969480808637 2.8774897322785726 3.5009162746849114 94 94 93
0.648941469695925 2.9521299110169377 3.5324975068039985 118 118 115
0.6014310423117798 3.061112361346538 3.576741814916492 162 162 159
0.5563531709640934 3.1604828607002293 3.617570914953574 188 187 188
0.5100924777984115 3.2625895113776564 3.6595080596251313 193 192 192
0.49133216881095254 3.271376732135034 3.667212020190142 194 194 194
0.5523453969903455 3.014615638954221 3.5770817296243935 194 194 194
0.5269930446154761 3.046500776697561 3.5931994136601544 195 195 195
0.47564150064033595 3.163437353436187 3.6407764097357336 195 195 195
0.4221807044478073 3.2858443438721983 3.690497917604729 195 195 195
-1.1203605614632148 3.313805042529746 4.125866289168829 207 207 207
-1.0962697831514436 3.226989161435397 4.094432545917886 206 206 206
-1.1021974648309594 3.203315781155147 4.089323566740259 207 207 207
-1.1205109923005285 3.2054764489580228 4.0950139214606 207 207 207
-1.1054816930122793 3.138763111868948 4.071823866713804 206 206 206
-1.0888772816416523 3.0693181538224956 4.047418366866426 206 206 206
3.0335995934370197 2.4225320982967355 2.7350305512935416 203 203 203
3.0205165305792567 2.4289621188780948 2.7405056486906254 203 203 203
3.007544210492595 2.4281305242161397 2.7438663237129264 203 203 203
2.9596313641138186 4.094650634422764 3.235362471320755 203 203 203
2.9459597887258417 4.005609937729322 3.2136058609866285 202 202 202
2.9292565306672187 4.05341700505878 3.231958419565582 202 202 202
2.943306838353823 2.901447253002945 2.8975062359774104 202 202 202
2.9285126235698122 2.937972171287613 2.9120917375075703 202 202 202
2.931973300289138 1.9184404756590356 2.61858039966177 201 201 201
2.919859241787118 1.914556871228434 2.6208271777524357 201 201 201
2.904920003496732 1.9943161257756503 2.647858862655408 201 201 201
2.8928610536515054 1.985286318620713 2.648613665004889 201 201 201
2.8787488862086072 2.032221529530995 2.665997123690622 201 201 201
2.8639456705819133 2.0928775711044363 2.687509466026771 201 201 201
2.8488795992276756 2.154968724658442 2.709506540762157 200 200 200
2.8371412887629393 2.132637777416907 2.7063556618183187 200 200 200
2.8225613093307333 2.17705183182432 2.7231454823085866 200 200 200
2.8020638750405857 2.3491542070813787 2.778216886749563 199 199 199
2.782509009166089 2.4889708643569457 2.823762489741565 199 199 199
2.766931039883793 2.5370330567487036 2.8418760331061645 199 199 199
2.751145597381923 2.585933532529527 2.860287684519936 198 198 198
2.7370078490895424 2.599664851404225 2.868150497418131 198 198 198
2.5610570301806845 3.892676978465394 3.2879952040572404 195 195 195
2.546708311807908 3.6371742442390222 3.218660760434347 194 194 194
2.5327697847177615 3.6179423869948746 3.217009626606901 194 194 194
2.501822542234166 3.8438477953153587 3.2904190301219947 193 193 193
2.4742264442218342 4.012160375339249 3.3463725600887653 192 192 192
2.4649181073550066 3.9218027466684884 3.323027437018644 191 191 191
2.4552325207743655 3.840336824929704 3.3023384305497294 188 188 188
2.4461136295069497 3.754797272149646 3.280323274353623 175 175 175
2.4371707895524866 3.6704665990749734 3.258606154886564 127 127 127
2.4286788222989277 3.583814358762376 3.2360977705455514 99 100 101
2.4204837422466343 3.496884234798811 3.213427274154843 78 79 81
2.411845988075326 3.418634167374758 3.1933703146549863 65 64 67
2.4065629325183835 3.3035633084283322 3.1618169605021125 66 64 69
2.397236252377429 3.2397756968193065 3.1461011026284966 66 66 68
2.3889440084220084 3.1664734704694033 3.127368044010454 68 68 70
2.378145250515474 3.1238179609987085 3.1181244131994896 69 69 71
2.3691346559106554 3.0629477829056215 3.103158001859452 72 71 74
2.356133269956702 3.0472102124947433 3.1022495226480467 78 76 79
2.3484917772692557 2.975083945505267 3.083673344189698 80 78 81
2.3373040635757536 2.9422922421131545 3.077368018476439 79 77 80
2.3319362333159623 2.850896078709496 3.052631558951829 74 74 76
2.3241517995431673 2.7867914199729915 3.036396814007582 72 72 74
2.316175686066404 2.7265941180370654 3.0213364551819413 71 71 73
2.3094355449599355 2.656203009829172 3.003008085717057 69 69 71
2.294654772770106 2.6650726928059405 3.009654282122423 67 67 69
2.287878952708407 2.598006314211222 2.9922898319462865 65 65 67
2.2488455134120064 2.8327087118176846 3.0704670966330094 63 63 65
2.24145479150036 2.7705752685185736 3.054688745985308 61 61 63
2.203432456236009 2.986335634419814 3.127150118555398 60 60 62
2.1946111778444233 2.936289182663474 3.1152370108783805 59 58 62
2.190868484955694 2.8431732962835756 3.0895561723106395 58 57 61
2.199734212956209 2.6439103814299747 3.0299184755091484 56 56 58
2.1915494694372866 2.5951896040147933 3.018209152673576 54 54 56
2.183454212603394 2.547001879520476 3.0066279585893887 53 53 55
2.1754469951940565 2.4993383963929374 2.9951727663679364 53 52 56
2.167526423944218 2.452190355002992 2.9838414375608124 51 50 55
2.162644736251726 2.381791695083556 2.96499525491168 50 49 54
2.1613373961113513 2.284823330879979 2.937533248324611 49 48 53
2.13040232163523 2.4223738764296563 2.9855861495166076 48 47 52
2.121394050903662 2.386776184368581 2.977870946970378 47 46 51
2.1182025993789786 2.3076295409714667 2.956045587621018 46 45 50
2.1118247118790134 2.2544240068403205 2.9425480491189653 46 45 50
2.075914914290835 2.422189390512183 3.0006512809812644 45 44 49
2.0558948774076704 2.4689761646872554 3.0196313429514943 44 43 48
2.04759967533522 2.4294513373969187 3.01059141442131 42 41 46
2.006594273336776 2.625335663148109 3.078177106450265 42 41 46
1.988617039689653 2.653330885690124 3.091198200917657 43 42 47
1.9704613475551636 2.681841501497353 3.104416700791787 43 42 47
1.9493174259702806 2.730286974770107 3.124184553710071 43 42 47
1.9133539258899446 2.878877051117159 3.176800396895141 42 41 46
1.9153594727848418 2.7673341131531606 3.1442370729187545 43 42 47
1.8942383342052809 2.812806782551627 3.163145568546045 43 42 47
1.8839259818593137 2.7857649533442244 3.1582472719499983 42 41 46
1.8795623186783166 2.7203814842809897 3.1406964501782952 42 41 46
1.8735024963864695 2.667329227077556 3.1271546436353543 41 40 45
1.859755519041554 2.6645064463393218 3.130158890915599 40 39 44
1.8434648948539472 2.677765132823529 3.1384834202334946 40 39 44
1.818469063438918 2.7451413817585983 3.1647521449985203 42 41 46
1.8084004302770649 2.7186242081157768 3.1599367742316886 42 41 46
1.797878736282102 2.6953726093805774 3.1561841552352483 41 40 45
1.7870202283532368 2.6745809934673255 3.153230872261089 40 39 44
1.7318080548026007 2.663509252732425 3.165373036668644 39 38 43
1.7216756572249186 2.639571808431644 3.1613156024948235 41 40 45
1.6892646857741354 2.7431919622224643 3.200041795810771 38 39 43
1.6845343705713252 2.6882961921042474 3.1856021146647246 37 38 42
1.679438328613615 2.6364437365135327 3.172137176729726 38 39 43
1.6663205986416196 2.629995171158765 3.1739264265987353 37 38 42
1.6134622620035817 2.8418619234800433 3.2493869350890914 37 38 40
1.6164330111325635 2.7459685856061657 3.2210464055355255 35 36 38
1.6275438552271595 2.6079225526095984 3.1783517543371125 34 35 37
1.6317613216278515 2.5091738622923163 3.1488459771346937 34 35 37
1.622500469369129 2.4834946268215456 3.1440469230792316 34 35 37
1.6089112795008371 2.4809227658243156 3.147079391229335 35 36 38
1.5934935611751713 2.487845829461787 3.1533437388552494 36 36 39
1.5802295065956766 2.483500195993073 3.1557770170554877 37 36 41
1.5675469797626924 2.4762098592431347 3.1572039720895786 37 36 41
1.5437491792144866 2.5252411087003472 3.177876256401427 36 35 40
1.5194251256822533 2.576008318581114 3.199192682715074 36 35 40
1.5166416415360267 2.518726017550865 3.1835280271766826 37 36 41
1.5008135018227446 2.526688809301636 3.1902045967002985 36 35 40
1.4620522626662031 2.64657820404086 3.235361137620933 37 36 41
1.4665846156759168 2.5545312509642195 3.2076910326387646 38 37 42
1.465412241226505 2.491394335002557 3.1898993970457665 38 37 42
1.4131036089141136 2.6730285706757533 3.2565322672193626 37 36 41
1.4716172958614782 2.3276656339843784 3.141196351666249 37 36 41
1.4537857598186936 2.345899955697687 3.1513761637302444 38 37 42
1.4363922923413732 2.3617532695351287 3.1607512072659674 38 37 42
1.4271996111944507 2.3394669892575464 3.1569068353701777 39 38 43
1.4193283981854248 2.3114414006582673 3.151048934167601 38 39 43
1.408909155748437 2.295383388393343 3.1493320640505393 38 39 43
1.3993348960136935 2.2757255351090118 3.1463477830519886 40 41 45
1.3737276291885947 2.3279907645387183 3.168450101156319 42 42 46
1.3594934512316648 2.3289600667441284 3.1726776523088454 42 41 46
1.3537826322104074 2.292360151612636 3.163759954745043 42 41 46
1.3315475310878113 2.3284372233175015 3.1802814955995333 43 42 47
1.3135677418977398 2.345479183576451 3.1901602979147263 44 43 48
1.2978552407905115 2.352467353920354 3.1965251180805954 45 44 49
1.2771259235345989 2.380721898331968 3.2103842168389254 45 44 49
1.2667584709582225 2.3646083320037765 3.208637036064999 46 45 50
1.2518291859517297 2.3678745122153604 3.2137165328318495 47 46 51
1.2577449840611747 2.2840277540995384 3.1880155952942513 47 46 51
1.199320242236243 2.468000516099116 3.257016472575075 50 49 54
1.186778557199501 2.4604931313267038 3.258342068473455 52 51 56
1.1736264482619072 2.4555438185237763 3.2605710625264956 51 50 55
1.1604069183653136 2.450895704159331 3.2629051910536875 42 41 46
1.147983998578286 2.4430635490916157 3.2641046426337543 43 42 47
1.134784603027403 2.4384038410957594 3.266429857935015 51 50 55
1.1212894892084777 2.4349412900500416 3.269180643288299 56 55 60
1.1079915161924712 2.4307079962046707 3.271655567964932 58 57 62
1.1100106421365437 2.3665313045944436 3.25268005900909 57 58 62
1.0727515845677897 2.455896570260225 3.288661010203941 58 59 63
1.0908871976912096 2.33011971337535 3.2475378656826135 59 60 64
1.061351362613936 2.388818487355181 3.272576287473112 60 61 65
1.0363990820789204 2.4292245609630156 3.291093928894561 64 64 66
1.0105556661292319 2.472417323941996 3.3106584556341767 67 67 69
0.9919253316017601 2.4878870804242004 3.3202666196698964 69 69 71
0.9713907611764466 2.510218584677341 3.3323720878479497 72 72 74
0.9516050892798876 2.52943759973726 3.3433766485894822 76 76 78
0.9265016287781578 2.5679524404470584 3.361393553562568 77 77 79
0.9064619411179213 2.587392759006705 3.372532095769001 76 76 78
0.884139310119695 2.614840629955678 3.3866018029586065 75 74 79
0.8619143622394545 2.6415410831310524 3.4004299380246796 73 72 77
0.8355255877820946 2.682802736178197 3.4195916544647695 69 68 73
0.8123803946414604 2.711930563092978 3.434371647269412 64 63 67
0.7896870695163253 2.7390474696705396 3.4484492381077128 61 61 63
0.7634150943214965 2.778382718343943 3.4670257722819247 62 62 62
0.7283460705852602 2.8479642558349583 3.4967222037205703 67 67 67
0.6998944483564037 2.893627710446601 3.5177193595685714 82 82 82
0.6874676532058978 2.883311282821787 3.5182070328786432 96 96 96
0.6509158236767364 2.9559300323115894 3.549186401035492 116 116 114
0.6048522230743223 3.060079907949352 3.5918526529639316 159 158 157
0.5688811264281042 3.128681908797892 3.621518298741753 187 185 186
0.5311246110956975 3.2024291662245776 3.6531557403666617 193 192 192
0.5009668610613435 3.2497803038497253 3.6751105530954598 194 194 194
0.5603447519929392 2.9982873840192577 3.586470536439744 194 194 194
0.532803888426481 3.037549978887028 3.6053782884577066 194 194 194
0.44219244464596197 3.283886751344343 3.70120482380643 195 195 195
0.4136710105648266 3.3241235438189043 3.720664187470832 195 195 195
-1.0493869964576306 3.2074484772534455 4.093124562894238 207 207 207
-1.1051674494376447 3.288362213425496 4.131819320558679 207 207 207
-1.1251642911774455 3.293769178981127 4.1389191520131146 205 205 205
-1.1301039132138024 3.2677478539013225 4.132822968527898 204 204 204
-1.137445123443356 3.246889502473685 4.128874627056224 204 204 204
-1.1367512300189708 3.2095725957367343 4.117974140503838 205 205 205
-1.1082874387872437 3.1153917921555623 4.08305172061885 206 206 206
3.0346946631553613 2.546031361934166 2.784676707921328 202 202 202
3.0215569762534042 2.544313788087607 2.7878311194367447 202 202 202
3.0108144150694294 2.416154981241518 2.7538157501257845 202 202 202
2.947692137223496 2.855460954148772 2.898184290603823 202 202 202
2.933431093001449 1.964389777096086 2.64488941004801 201 201 201
2.851736173906748 2.156825041609612 2.7231453587804775 200 200 200
2.8389080169204965 2.160444359117502 2.727754558632819 200 200 200
2.825665023882447 2.173197414518616 2.7351159817894883 199 199 199
2.8050572923322123 2.349323339273346 2.7916903568375213 199 199 199
2.7856522038021048 2.487015451479817 2.8368345204426726 199 199 199
2.771678815595191 2.5020839276696654 2.8450673577781007 198 198 198
2.756574223288146 2.538764389262213 2.8598540007351807 197 197 197
2.7413650485598158 2.574974612539238 2.8745339412856437 197 197 197
2.679637892391348 3.48824525567454 3.1553511303334534 197 197 197
2.667033126647931 3.4458272284062605 3.1466070194895144 196 196 196
2.650374720463635 3.4778742377478427 3.160487683218983 196 196 196
2.637917864535946 3.4352143656103045 3.1516326538933495 195 195 195
2.562217703403917 3.931081175751032 3.3158253722460773 194 194 194
2.580149450048097 3.408061836597116 3.1598444246000432 194 194 194
2.5612250323739403 3.4696800622189743 3.182892073295169 194 194 194
2.536341187463288 3.6163313522721188 3.2321450657054784 193 193 193
2.5075119511233623 3.8128807026380924 3.296900130880865 192 192 192
2.477769901546832 4.013063118915915 3.3629577063956084 191 191 191
2.468123499194144 3.926870150672962 3.340753546094069 190 190 190
2.459028079758349 3.8369104360737367 3.317308815114828 187 187 187
2.4497935227459497 3.752538502191509 3.2955159671786576 174 174 174
2.4408107947949143 3.6683533085086397 3.273707061901723 127 127 127
2.431177165113308 3.595762293033811 3.2554263134256383 102 102 104
2.422273373611924 3.5169555110255053 3.235148253653919 88 89 91
2.4141173979088038 3.4320906966135776 3.2129134262701915 73 72 76
2.4035955549039807 3.378585307111093 3.2003895945705856 63 62 66
2.400914245881987 3.235498461858948 3.159824610428327 62 62 65
2.3923248405928677 3.1653577331626517 3.1419611375650014 61 61 64
2.381033474746244 3.128070970903963 3.1343335259384175 64 63 66
2.3713257513531287 3.07455576932761 3.121580659636225 68 67 70
2.3575249181383704 3.0671996372466666 3.1232914416174267 69 67 70
2.347589677401788 3.018843289871365 3.1120911810208622 73 71 74
2.341119643987988 2.935807326919917 3.089915917091871 77 75 78
2.33143240265998 2.8885764366305047 3.078971676091437 76 76 78
2.326251744180248 2.7972672880840075 3.054049645976747 74 74 76
2.317605794201735 2.7433262441521173 3.04087882457304 72 72 74
2.3088819652012997 2.6918018075301076 3.0284273299257802 70 70 72
2.298564717935808 2.6571658731150865 3.021294370036557 68 68 70
2.2920436051698 2.5875677707752147 3.00301288477953 67 67 69
2.252347561580512 2.8294131967917737 3.0838645077760605 65 65 67
2.2498867014214103 2.721840698346232 3.053491465055729 64 64 66
2.2100544889517275 2.955418841400748 3.131994111005271 63 63 65
2.206883162332047 2.85531913795788 3.103975908408276 61 60 64
2.1985415673276525 2.803454616578804 3.0913200262782032 60 59 63
2.1884545083447877 2.7681035304476325 3.0839166406064233 58 58 60
2.1964987141328707 2.579037559901045 3.027097156220745 57 57 59
2.185777091305536 2.5530042170666514 3.0225601682614474 55 55 57
2.1742710213046093 2.5341160296976923 3.020303984458092 54 54 58
2.162302756984923 2.519444358883634 3.0193935527658557 52 51 56
2.149340671454355 2.513107373414047 3.02116552346664 51 50 55
2.1514179951358834 2.387151578686967 2.9842241921905317 51 50 55
2.1045243512860674 2.4348168768952085 3.0110147555355375 48 47 52
2.0889011926442103 2.4496879714585464 3.019648993693693 47 46 51
2.0828039206098072 2.3930468042547837 3.0049904854361227 46 45 50
2.0567696392309354 2.4846258213228145 3.0386634480589008 46 45 50
2.046095691502427 2.462106557484117 3.0351277481316816 45 44 49
2.0357123480047523 2.437973278880655 3.031045329103865 45 44 49
2.027850931921797 2.396436794108908 3.021237792626204 45 44 49
2.006655243791106 2.4493982694305942 3.0424172573288435 44 43 48
1.953746960008096 2.7209991558452336 3.1355304493358203 44 43 48
1.9034777058059476 2.968134471346472 3.2208470426040465 45 44 49
1.9085934425472741 2.8342059228352676 3.1807597141251795 45 44 49
1.8940201266101822 2.835156948527388 3.1850834525971474 44 43 48
1.890270168650369 2.764320974314163 3.1656746259029758 43 42 47
1.8852937026375782 2.7030267067515115 3.14936132713747 43 42 47
1.8754392687407164 2.674616178794504 3.1438970853641823 43 42 47
1.8663828073299082 2.641645393099381 3.1368945560420203 42 41 46
1.8451877173589564 2.686263193515547 3.155664988413339 42 41 46
1.8188214360224118 2.762291574415131 3.18494064007103 43 42 47
1.8164216124427366 2.6879445868163323 3.164143031328297 44 43 48
1.83014189070464 2.516118893269767 3.1107238249715365 43 42 47
1.7813246086709444 2.727770558825408 3.1853926597294753 42 41 46
1.7353220245987684 2.7448987605388413 3.2031194111106593 41 40 45
1.7194875293531093 2.753176429464838 3.2099088095270134 41 40 45
1.7069526280206073 2.7421718275240945 3.21021452052434 42 41 46
1.6666526624043483 2.8901153345127457 3.264123927173449 41 41 46
1.6440536943552304 2.9348730594770958 3.2833248217789994 40 41 45
1.6392644573257815 2.878813206204953 3.2684707067563368 40 41 45
1.634533846439015 2.823437955766255 3.2537979512657498 40 41 45
1.601918039413912 2.922501550395114 3.2914604198866253 39 40 43
1.6020239446894027 2.841272579037737 3.267979730850688 39 40 42
1.6255188271005585 2.6351815185720033 3.201952061512081 39 40 42
1.6307399557791555 2.5306130524669483 3.170311871895175 38 39 42
1.6222664438671879 2.500508572375826 3.163974889647592 38 39 41
1.6023072932315814 2.5312389133713573 3.178392530221372 38 39 41
1.586838881411185 2.5379814973030586 3.1846370252376466 38 39 42
1.5730702222236417 2.535779312132899 3.187826841339802 40 39 44
1.5673518514926152 2.492389852715613 3.1768888989595263 39 38 43
1.5348513179543153 2.5854840051708816 3.2127959273145765 39 38 43
1.5216783994537275 2.579774942448772 3.2148077624594076 39 38 43
1.5020231632080958 2.606407574508018 3.2279579291725913 39 38 43
1.4949872563481201 2.570200244869176 3.2194595835350945 39 38 43
1.534183491783918 2.3081400590841645 3.132910715944291 39 38 43
1.5140776503012154 2.338425765543056 3.1472407458244 39 38 43
1.5021323585031126 2.328858842685086 3.1477977008599263 39 38 43
1.492435526800518 2.3086646744167902 3.1446617790854425 38 37 42
1.4775536831816143 2.31331147239457 3.1501382318293674 39 38 43
1.4819743368684761 2.227165034017005 3.1240389964708415 39 38 43
1.4562676059146697 2.282737561614186 3.1472256725961048 39 38 43
1.4309164363723461 2.3357236907852004 3.169566848712016 39 38 43
1.4206888056595801 2.3184800241638683 3.167430235085872 39 38 43
1.4120821867065738 2.2940910636599714 3.162780339241198 39 39 44
1.3851900730364783 2.3525487681985395 3.187129338914018 44 44 49
1.3800851889276706 2.3125059131915635 3.1769871239003336 45 45 49
1.3631942336579592 2.3253942931410956 3.1854011963536832 44 43 48
1.351544725905311 2.3149352081930674 3.1856183960352884 44 43 48
1.3345010162237012 2.3281851100912045 3.1941792844831003 45 44 49
1.314861755228215 2.3524544402380427 3.206642713871208 46 45 50
1.30264743748085 2.3443270638703266 3.2076900225395493 46 45 50
1.2819681202739177 2.372468322385757 3.2215602774614425 47 46 51
1.2687132154636627 2.368640088360564 3.2241378982501927 47 46 51
1.2538900270812472 2.371430148385988 3.229062002984889 48 47 52
1.2628430334469842 2.2747278714614536 3.198655930566184 49 48 53
1.2008166067301382 2.473988371464628 3.273417504976128 50 49 54
1.1913598688542564 2.4537113875761305 3.2701909641870115 53 52 57
1.1782922536992873 2.4484538556656115 3.2723039004686276 51 50 55
1.1661755284182411 2.4393669631613237 3.273047075494708 41 40 45
1.1506695959155961 2.444032524773416 3.278702347480668 45 44 49
1.13545346802705 2.447429156004933 3.283910750351602 51 50 55
1.1229861274776267 2.439808127767423 3.2851745465601745 58 57 62
1.1134160344493345 2.4208145164189094 3.282350018225109 59 58 63
1.109593375749552 2.379512486749988 3.271488008134302 58 58 63
1.0799177580601746 2.4393864563498915 3.297019283575196 58 59 63
1.0642452421756314 2.4442567220104072 3.302779939697614 60 61 65
1.0264227071245857 2.534073756834188 3.33921955506642 61 62 66
1.0146992484570023 2.523092711711754 3.3393066090343364 65 65 67
1.0035865008285025 2.5099051822562264 3.3385869534338686 68 68 70
0.9860608903674508 2.5209836937535917 3.346654844535166 70 70 72
0.9758825561558897 2.5044121928165777 3.344698591991417 72 72 74
0.9591014459103391 2.512535515136448 3.351706445097736 74 74 76
0.9431605820924132 2.5174125496278275 3.357543615453901 74 75 77
0.921602217095611 2.54277021293147 3.3708544726846617 71 72 74
0.8986691471462449 2.572762636409374 3.385885370910653 66 65 70
0.8821204446756137 2.5792355078663656 3.392352155398786 63 62 67
0.8409472027455108 2.6740772648247675 3.431173424886728 59 58 63
0.8173988330113583 2.704733748169964 3.4465670009899885 57 57 61
0.796143353981418 2.726825497770785 3.458850814094024 57 57 59
0.7693078540197281 2.7682703771471133 3.478272384898765 61 61 62
0.7305565613680027 2.8508987792033778 3.5128946551105766 74 74 74
0.7031444946307984 2.8929775958627197 3.5326594453289264 85 85 85
0.6886525920687188 2.889793093261096 3.535766612820673 97 97 97
0.6528006781643179 2.9600503900533686 3.56601168733834 117 117 115
0.6153206842395945 3.0349666726510116 3.5980541967757405 156 155 154
0.5729641145539612 3.1254879166082126 3.6359568954049135 185 183 184
0.5353250964238644 3.198942754633957 3.6676216621442115 192 191 191
0.5033320601691111 3.2525251021888617 3.6919804016725757 194 194 194
0.5552561130910908 3.0255700221773996 3.61203017340602 194 194 194
0.49004535896594115 3.1895822982045674 3.6775001463621706 194 194 194
0.4789492547079873 3.1732863789431756 3.6758784567117155 194 194 194
0.43422056876096504 3.2673098986841174 3.715451370787066 194 194 194
-1.0508609218276757 3.216972036159136 4.113546006210426 207 207 207
-1.0787941608222247 3.2393954897178387 4.127780988797499 207 207 207
-1.1125759045824593 3.2738462610628556 4.147113323525961 203 203 203
-1.1455904870218845 3.3063911209027657 4.165682256306732 203 203 203
-1.1535388518817289 3.286618948622744 4.162182358510748 203 203 203
-1.167403584231655 3.2792081409577554 4.1638951096117145 204 204 204
-1.1404879787141096 3.187866214606327 4.1300457219505375 205 205 205
-1.1404955884289167 3.152437550140661 4.119819380496154 207 207 207
2.8537702430564122 2.1795408915126835 2.743082545130346 200 200 200
2.8406211441936975 2.1900792662542194 2.7498021457558277 200 200 200
2.828817612220236 2.168152545649857 2.746717369240236 199 199 199
2.81221445901473 2.255730216611479 2.7767752744604257 198 198 198
2.7886105163442996 2.4890646282906608 2.8511183651560508 198 198 198
2.763489263770008 2.7381536483044613 2.9304597980587195 197 197 197
2.74676742085215 2.8001379405267133 2.953116733239554 197 197 197
2.6844253339045294 3.462274105479198 3.1627903317663564 196 196 196
2.6700139580410727 3.453691961889047 3.1643072934066785 196 196 196
2.6523785218195957 3.5032242408054906 3.1836015436271263 196 196 196
2.640295552064992 3.453038265577032 3.172386178127813 195 195 195
2.6044579836498265 3.310633014087766 3.1409937020760115 193 193 193
2.5858680007605956 3.371599241233622 3.1638747101746496 193 193 193
2.565529091569844 3.456033669421282 3.1940590374094344 193 193 193
2.5406157144388954 3.60425614762965 3.2440443797491305 192 192 192
2.510694821324955 3.8179978695638437 3.314454079263661 191 191 191
2.4809519192459333 4.019117452444995 3.381147958972986 191 191 191
2.471333218257995 3.9319440660363036 3.3585033752534 189 189 189
2.46196250395975 3.8451357355424265 3.3358958286082423 187 187 187
2.452899723469646 3.757877636854025 3.313071961225646 173 173 173
2.4440422252277116 3.6715344357133004 3.2904567229069155 130 130 130
2.433852184181503 3.6055909832884403 3.2741376708353007 103 104 105
2.4250583633333394 3.5248375982333355 3.2531283639106108 89 89 91
2.4171351429116843 3.4365796451845982 3.2296970055105487 79 78 81
2.405617365505265 3.3946425685106725 3.2207204031311205 67 66 70
2.395447614328828 3.3383989184933047 3.2072131637590586 61 60 65
2.3848086496111125 3.28956457352965 3.195988624569518 59 58 63
2.38379225672816 3.1338311090677964 3.1510362218926296 58 57 62
2.372862375284023 3.093520608141043 3.142368509248435 60 59 63
2.3624441083350503 3.048981894611683 3.132330296560421 62 60 63
2.3526373664279405 2.9993731315641274 3.1206492604225615 66 64 67
2.34218652814311 2.9581460802872215 3.111582033964803 66 64 67
2.33188837336343 2.916648119928719 3.102393635556692 68 68 70
2.3240548607668337 2.851433537787409 3.085630621694398 72 72 74
2.318044020087511 2.770089461107499 3.0636754110920212 72 72 74
2.3114580087165795 2.6969461485216613 3.044262273431792 71 71 73
2.3053621493932077 2.6213212658199367 3.02399194678317 69 69 71
2.2939103364899296 2.5989082338963527 3.020668052331459 69 69 71
2.247041997353038 2.9085237071651746 3.1236411773267396 67 67 69
2.2440250972666647 2.804484360890305 3.0942607484419646 66 66 68
2.2450720484493516 2.6666232692231544 3.0539255549958226 63 63 65
2.2356764642722675 2.6261338426945886 3.0447789723230256 62 61 65
2.232087778611728 2.5356020273897744 3.019481107284034 61 60 64
2.207628881581205 2.6287624600476955 3.0533463710650413 60 60 62
2.1979701759855566 2.592545751491718 3.0455140757361154 59 59 61
2.1853804482665464 2.581990188235788 3.0459509770529323 59 59 61
2.173832893275293 2.5629776678792573 3.043641452935642 58 57 62
2.161566970242402 2.550298965890144 3.0433715612153676 56 55 60
2.148775785885224 2.542134058741372 3.0445589183835815 54 53 58
2.148551792387657 2.4337827569812687 3.0131489251033425 53 52 57
2.1219124176176503 2.4289680064500345 3.019162466579665 52 51 56
2.1204266943725227 2.3357251300854083 2.9924920097837604 51 50 55
2.1232401103984753 2.21221523667084 2.9558338485873934 50 49 54
2.1235460769496073 2.1105036267524584 2.926205002302267 49 48 53
2.069865255598204 2.4100849427658977 3.028159035457003 49 48 53
2.0567763798743597 2.406037048240587 3.0306250715744314 48 47 52
2.0307786532308167 2.4950606102642303 3.0637168764781997 47 46 51
1.9970509137032577 2.6369169528332335 3.114305557953979 47 46 51
1.9905636260901498 2.5836548191296616 3.100639748533021 46 45 50
1.9799327929020414 2.560387549861334 3.096839300635817 46 45 50
1.9724435411735501 2.5160015125597877 3.086030474636812 47 46 51
1.9170451771582173 2.7980367541127578 3.1833658622198944 47 46 51
1.9351022347281415 2.5802479543500834 3.1150815845062083 46 45 50
1.8880332469605208 2.7997601416518543 3.1919386401028667 46 45 50
1.885767308924867 2.720118347074953 3.1694359131648033 46 45 50
1.886994838988052 2.619480768676162 3.1398626229044058 46 45 50
1.870326282844372 2.6359201362734392 3.149275501787341 45 44 49
1.858154219923856 2.6233706226417692 3.149017019471005 45 44 49
1.8304451820335585 2.7086813525087283 3.181506524829071 45 44 49
1.846723526357346 2.5185718287635965 3.1217570261400667 45 44 49
1.8267012372754918 2.5557652776949813 3.138131382612157 44 43 48
1.8118020633629968 2.5609261324042127 3.1437759347977363 43 42 47
1.8260185376110694 2.3904441405423444 3.090301245849063 43 42 47
1.8056905028963284 2.4294487697948695 3.1072867575004235 43 42 47
1.8098030264476548 2.3232821937805275 3.07530477209135 43 42 47
1.7978518073963554 2.313090222696904 3.0756696276413327 42 41 46
1.7795112477104775 2.340024180833605 3.088596036456626 44 43 48
1.7722033171346385 2.3031420768093995 3.0799163940358967 43 43 47
1.7624319611377044 2.2809021179227207 3.0761752059974743 42 43 47
1.6067934469367486 2.8322050148485336 3.279614082995852 41 42 46
1.6410837997972896 2.567368751423445 3.19314743572731 40 41 45
1.6300528014114342 2.5503490169867793 3.1912730220219605 41 42 46
1.6462912979276267 2.388726260974371 3.139809034102034 41 42 46
1.6265503947601472 2.419377152122973 3.1542047111839087 41 42 46
1.6081072769283367 2.4426527147547374 3.1660970177419343 42 42 47
1.5932456093903975 2.446943803705897 3.1714784973072905 42 41 46
1.5663945121205043 2.5125403073338566 3.1980029889580193 42 41 46
1.5378901481910103 2.585328001403052 3.2270762734388985 42 41 46
1.5251720256122474 2.5773150399106934 3.228287437088224 43 42 47
1.5073532699116032 2.5948462246001798 3.238337479290477 42 41 46
1.5686417216076372 2.22058025234554 3.112573404610507 43 42 47
1.539603634241531 2.295791794424363 3.142499234972307 42 41 46
1.520492500065569 2.3213917552287406 3.1552525659227 41 40 45
1.505867427540595 2.324873080302816 3.1603330075139757 41 40 45
1.489337233402495 2.3373611329084074 3.1685596682233954 41 40 45
1.4796886047797446 2.3169468170892094 3.1653146192372157 42 41 46
1.4800714731142124 2.2496177668838744 3.1456513239103456 42 41 46
1.4537698252574087 2.307873614296004 3.1698907309080253 42 41 46
1.4366617125278283 2.3225814707256607 3.178922966427658 41 40 45
1.4169172453986618 2.349112949432895 3.192123087883215 41 40 45
1.423626505931486 2.254661937849494 3.162821561538833 43 42 47
1.4061803389937226 2.270830541873531 3.172372153057583 45 44 49
1.3886827180247625 2.2869302516618735 3.1819170495934657 45 44 49
1.3721093445908632 2.298621259030688 3.189924210227387 46 45 50
1.359125673628075 2.294238211629559 3.1922636241324 46 45 50
1.338104320507599 2.32508919499341 3.207073689691894 47 46 51
1.3174434680170783 2.353857210167988 3.221178420201631 48 47 52
1.3018238113405203 2.3603943530555522 3.2274232016234476 49 48 53
1.2850669072304886 2.371658146535333 3.2353573363853543 50 49 54
1.2698759704714475 2.3760538237530975 3.240860810124836 52 51 56
1.277260907233043 2.2851057866374695 3.2123887789141894 52 51 56
1.2638064628504042 2.282716278059188 3.2154382336953997 50 49 54
1.2031104617959145 2.4766829735260165 3.288666744551998 52 51 56
1.193271952834854 2.45792717634076 3.285956269774424 54 53 58
1.1800049631644507 2.453443832965642 3.2883453809129835 53 52 57
1.1891316501685365 2.3579054791869436 3.258055401602047 44 43 48
1.1727233993047914 2.366798864336783 3.2652040062467966 46 45 50
1.154554830692201 2.382581575904057 3.2748435082097638 55 54 59
1.1343315322773648 2.4062797881515374 3.2873538920604566 60 59 64
1.1194159139604076 2.4086217840354323 3.2921842384104854 60 59 64
1.1037743185121274 2.4137393947686006 3.298022798873986 60 60 64
1.081325119290767 2.4452841814354946 3.3134316700221462 60 61 65
1.0690240324457294 2.4370634087224916 3.314466436895306 61 62 66
1.052322283116218 2.445835387203936 3.3216614392305543 62 63 67
1.032375644920453 2.46683983281294 3.333312399652706 65 65 67
1.0095283299353408 2.498523045456706 3.3488722493203156 67 67 69
0.9955993763838631 2.4961372007768463 3.3520547943585735 68 68 70
0.9859620117522365 2.4776804700083717 3.3493752222610627 69 69 71
0.9671257246083563 2.4936288331999807 3.359248624327952 66 67 69
0.9481883738260678 2.5097001176645475 3.369185850431972 64 65 67
0.9281595923289989 2.5295254354682926 3.380517170198048 62 63 65
0.9071205824507533 2.5527350959308333 3.393112607736688 58 57 62
0.8694966515243207 2.635668438064334 3.4276702543161917 54 53 58
0.8458138742646261 2.6673293561525004 3.4434560847245548 55 54 59
0.822833636811035 2.696033118944601 3.4581874909119574 56 55 59
0.8004590612790021 2.722179907660089 3.472007666736706 59 59 61
0.7767819255736268 2.7525537634167696 3.487418080234014 69 69 70
0.7320432003388337 2.856382917309996 3.5300248387414728 79 79 79
0.7064372865770199 2.8921800611521697 3.547547187874597 89 89 89
0.6902832148659737 2.8947502866919472 3.552788410660666 98 98 98
0.6607707732039716 2.943235488086538 3.5750831436660806 116 116 114
0.6194794559709298 3.031382624417566 3.6121756203239683 154 153 152
0.5782139640358805 3.1183216628477926 3.6489100006498982 185 183 184
0.540004262927197 3.1938333977483016 3.6814749092239025 191 190 190
0.5011031330610858 3.2707118042907632 3.7146291698615017 193 193 193
0.5580304650456713 3.0266675440563144 3.627903436693204 193 193 193
0.5458313153458709 3.0149287942500758 3.627887989853175 194 194 194
