ply
format ascii 1.0
element vertex 878
property float x
property float y
property float z
property float nx
property float ny
property float nz
property uchar diffuse_red
property uchar diffuse_green
property uchar diffuse_blue
property uchar class
property uchar detection
end_header
0.7947 2.0967 0.4147 -0.474 -0.629 0.616 45 45 47 0 0
0.8008 2.0783 0.4413 -0.016 -0.998 -0.057 46 46 48 0 0
0.7682 2.0999 0.4432 -0.109 -0.993 0.039 45 45 47 0 0
1.2317 2.2545 0.3983 0.361 -0.895 0.260 78 78 78 0 0
0.7850 2.0232 0.4595 0.563 -0.771 0.299 46 46 48 0 0
0.5790 2.1582 0.4718 0.287 -0.773 -0.566 33 33 35 0 0
1.2355 2.2592 0.4112 0.418 -0.851 0.317 79 79 80 0 0
0.6454 2.1164 0.4806 0.148 -0.931 -0.334 40 40 42 0 0
0.6023 2.1728 0.4814 0.399 -0.635 -0.662 33 31 34 0 0
0.5746 2.1485 0.4858 0.287 -0.740 -0.608 30 30 32 0 0
0.5400 2.1659 0.4882 -0.733 0.001 0.680 24 24 27 0 0
0.8607 2.0996 0.4728 0.695 -0.713 -0.095 46 46 48 0 0
0.6423 2.1093 0.4943 0.329 -0.770 -0.547 38 38 40 0 0
0.5888 2.0918 0.5008 0.172 -0.741 -0.649 32 32 34 0 0
0.5829 2.1079 0.5004 0.049 -0.879 -0.474 31 31 33 0 0
0.5510 2.1302 0.5022 -0.428 -0.535 0.728 24 24 26 0 0
0.5539 2.1910 0.4981 -0.600 0.060 0.798 24 24 26 0 0
0.8898 2.1486 0.4799 0.588 -0.806 0.065 46 46 48 0 0
0.5843 2.0820 0.5147 -0.255 -0.963 -0.084 31 31 33 0 0
0.5616 2.1764 0.5111 -0.433 0.017 0.901 22 22 24 0 0
0.6017 2.0858 0.5255 -0.492 -0.864 -0.104 32 32 34 0 0
0.5909 2.0929 0.5262 -0.406 -0.903 -0.139 30 30 32 0 0
0.6016 2.0843 0.5385 -0.492 -0.864 -0.104 31 31 33 0 0
0.5975 2.1037 0.5377 -0.582 -0.812 -0.049 29 29 31 0 0
0.5885 2.1141 0.5380 -0.785 -0.615 -0.071 26 26 28 0 0
0.4251 2.3634 0.5394 0.231 -0.910 -0.344 12 12 14 0 0
0.4074 2.3570 0.5415 -0.745 -0.667 0.023 12 12 14 0 0
0.8440 2.0912 0.5272 0.119 -0.631 -0.766 46 46 48 0 0
0.6215 2.1194 0.5473 -0.698 -0.554 0.454 30 30 32 0 0
0.6006 2.1080 0.5500 -0.639 -0.769 -0.023 28 28 30 0 0
0.5888 2.1133 0.5509 -0.650 -0.667 -0.364 24 24 26 0 0
0.4134 2.3383 0.5551 -0.594 -0.755 -0.278 14 14 16 0 0
0.4079 2.3566 0.5545 -0.824 -0.565 0.038 14 14 16 0 0
0.8905 2.1179 0.5342 0.476 -0.672 -0.568 45 45 46 0 0
0.4122 2.3344 0.5684 -0.594 -0.755 -0.278 17 17 19 0 0
0.8913 2.1178 0.5473 0.346 -0.620 -0.705 46 46 47 0 0
0.4767 2.3161 0.5762 -0.258 -0.839 0.479 13 13 15 0 0
0.4006 2.3387 0.5823 -0.911 -0.412 0.028 22 22 25 0 0
0.6121 2.0964 0.6010 -0.836 -0.463 -0.293 26 26 28 0 0
0.6038 2.1082 0.6012 -0.830 -0.535 -0.160 24 24 26 0 0
0.4522 2.3210 0.6175 0.446 -0.832 -0.331 22 21 26 0 0
0.8924 2.0880 0.6011 0.684 -0.712 -0.159 48 48 48 0 0
0.7158 2.0678 0.6185 -0.518 -0.695 0.499 47 47 47 0 0
0.6014 2.0470 0.6302 0.540 -0.650 -0.535 27 27 29 0 0
0.6459 2.0720 0.6505 0.369 -0.843 -0.391 34 34 36 0 0
0.4547 2.4094 0.6523 -0.673 -0.734 0.095 39 39 41 0 0
0.8958 2.0377 0.6424 -0.217 -0.543 -0.811 51 51 51 0 0
0.8611 1.9774 0.6611 0.044 -0.526 -0.849 50 50 52 0 0
0.7408 1.9755 0.6720 -0.852 -0.360 -0.380 61 59 60 0 0
0.6873 2.0908 0.6717 0.641 -0.746 -0.179 44 44 46 0 0
0.6055 2.3250 0.6688 0.468 -0.883 -0.044 14 14 16 0 0
0.6857 2.0865 0.6850 0.628 -0.742 -0.235 47 47 49 0 0
0.6907 2.1492 0.6819 -0.933 0.299 -0.201 32 32 34 0 0
0.7580 2.0027 0.6950 -0.263 -0.858 -0.440 67 64 65 0 0
0.7406 2.0507 0.6946 -0.502 -0.094 -0.860 72 70 71 0 0
0.7202 2.0102 0.7366 -0.356 -0.734 -0.579 83 82 82 0 0
0.6752 2.0354 0.7395 -0.909 -0.394 0.137 71 71 70 0 0
0.5078 2.3290 0.7430 -0.896 0.054 0.441 32 32 34 0 0
0.6146 3.0057 0.7091 -0.885 -0.228 -0.405 56 56 58 0 0
0.7532 1.8861 0.7510 -0.630 -0.628 -0.457 65 63 67 0 0
0.6790 2.0407 0.7518 -0.469 -0.694 0.547 77 77 76 0 0
0.6542 2.0491 0.7536 -0.876 -0.414 0.247 44 45 47 0 0
0.7484 1.8766 0.7644 -0.176 -0.857 -0.485 57 57 58 0 0
0.6884 2.0298 0.7643 -0.970 0.233 0.076 88 86 84 0 0
0.7483 1.8751 0.7772 0.126 -0.802 -0.584 55 55 56 0 0
0.5872 2.0040 0.7864 -0.712 -0.151 -0.686 31 30 34 0 0
0.5951 2.2090 0.7790 0.499 -0.545 -0.674 18 18 20 0 0
1.0690 2.0569 0.7580 0.605 -0.650 -0.459 77 75 78 0 0
0.9479 1.9585 0.7709 0.236 -0.595 -0.768 54 54 56 0 0
0.6637 1.9567 0.7943 -0.717 -0.517 -0.467 90 86 87 0 0
0.5791 1.9879 0.8003 -0.332 -0.337 -0.881 34 34 36 0 0
0.6106 2.2091 0.7908 0.556 -0.534 -0.638 21 21 23 0 0
0.6346 2.3941 0.7964 0.036 -0.406 0.913 25 25 27 0 0
0.6111 2.7670 0.7873 -0.859 0.292 0.421 60 60 63 0 0
0.7717 1.7857 0.8159 0.219 -0.732 -0.645 56 56 58 0 0
0.7476 1.7944 0.8176 -0.877 -0.481 -0.022 47 47 50 0 0
0.6208 2.3951 0.8108 -0.092 -0.539 0.838 27 27 29 0 0
0.7635 1.7704 0.8296 0.200 -0.717 -0.667 58 58 60 0 0
0.7515 1.7749 0.8304 -0.923 -0.339 -0.181 50 49 54 0 0
0.7463 1.7909 0.8304 -0.894 -0.415 -0.168 47 46 49 0 0
0.6290 1.9950 0.8342 0.713 -0.634 -0.299 52 50 53 0 0
0.6349 2.3919 0.8231 0.251 -0.723 0.644 27 27 29 0 0
0.7580 1.7599 0.8429 -0.373 -0.607 -0.701 56 56 58 0 0
0.7501 1.7712 0.8432 -0.948 -0.046 -0.314 50 49 54 0 0
0.7477 1.7920 0.8428 -0.821 -0.262 -0.507 48 48 51 0 0
0.7096 1.8267 0.8450 -0.019 -0.418 -0.908 50 49 54 0 0
0.9379 1.8604 0.8390 0.066 -0.460 -0.885 70 69 72 0 0
0.7855 1.7555 0.8534 0.151 -0.603 -0.783 55 55 57 0 0
0.7611 1.7390 0.8557 -0.496 -0.532 -0.686 57 57 59 0 0
0.6634 1.9232 0.8588 0.567 -0.817 -0.107 50 49 52 0 0
0.6400 1.9333 0.8604 -0.195 -0.508 0.839 48 48 51 0 0
0.6790 3.0918 0.8295 -0.947 -0.103 0.303 50 50 52 0 0
0.9537 1.8602 0.8506 0.028 -0.450 -0.893 72 72 74 0 0
0.9188 1.8278 0.8540 0.156 -0.480 -0.863 66 66 68 0 0
0.8040 1.7606 0.8644 0.283 -0.717 -0.637 50 50 52 0 0
0.7822 1.7487 0.8663 -0.367 -0.792 -0.488 53 53 55 0 0
0.7693 1.7516 0.8673 -0.630 -0.674 -0.385 56 56 58 0 0
0.6750 1.9423 0.8702 -0.645 -0.728 0.232 46 45 51 0 0
0.6558 1.9343 0.8719 -0.696 -0.449 0.561 43 42 48 0 0
0.6828 3.0980 0.8435 -0.947 -0.103 0.303 51 51 53 0 0
0.7997 3.8382 0.8177 -0.984 -0.017 0.177 139 139 137 0 0
1.0129 1.8813 0.8585 -0.962 0.156 -0.222 92 92 92 0 0
0.9802 1.8775 0.8611 -0.388 -0.275 -0.880 72 72 73 0 0
0.7918 1.7635 0.8779 -0.175 -0.817 0.550 55 55 57 0 0
0.7221 1.7443 0.8836 0.292 -0.694 -0.658 43 44 46 0 0
0.8016 3.8404 0.8330 -0.992 0.029 0.125 139 138 136 0 0
1.0025 1.8631 0.8726 -0.887 -0.061 -0.458 81 81 81 0 0
0.9788 1.8492 0.8747 -0.417 -0.305 -0.856 71 71 73 0 0
0.7356 1.7413 0.8951 0.220 -0.822 -0.526 49 50 51 0 0
0.7177 1.7356 0.8966 0.220 -0.822 -0.526 51 51 54 0 0
0.7005 1.7309 0.8980 0.238 -0.839 -0.489 52 52 57 0 0
0.5517 2.2537 0.8988 -0.348 -0.921 0.175 33 33 35 0 0
0.5523 2.3116 0.8976 -0.848 -0.016 0.529 40 40 42 0 0
0.9953 1.8256 0.8868 -0.828 -0.268 -0.493 82 82 81 0 0
0.8235 1.7402 0.9011 -0.250 -0.895 -0.370 40 40 43 0 0
0.7429 1.7276 0.9073 0.271 -0.936 -0.225 60 60 59 0 0
0.7256 1.7230 0.9087 0.137 -0.928 -0.347 57 57 61 0 0
0.6834 1.7249 0.9118 0.187 -0.982 0.038 71 70 74 0 0
0.6350 1.9711 0.9109 0.634 -0.736 -0.238 39 39 41 0 0
0.5820 2.2536 0.9096 0.509 -0.749 -0.424 29 29 31 0 0
0.9813 1.7776 0.9015 -0.501 -0.612 -0.613 82 82 83 0 0
0.7291 1.7030 0.9213 0.394 -0.916 -0.079 76 76 75 0 0
0.6818 1.7209 0.9245 0.274 -0.956 -0.109 78 77 78 0 0
0.5723 1.8828 0.9298 0.572 -0.743 -0.347 38 38 40 0 0
0.5603 1.8872 0.9306 0.051 -0.748 -0.662 40 40 42 0 0
0.9861 1.7598 0.9142 0.062 -0.765 -0.640 77 76 80 0 0
0.7319 1.6820 0.9339 0.190 -0.964 -0.183 60 59 63 0 0
0.5491 2.3011 0.9375 -0.909 -0.027 0.417 40 40 42 0 0
0.5511 2.3336 0.9369 -0.923 0.069 0.379 42 42 44 0 0
0.5540 2.3682 0.9361 -0.895 0.052 0.443 44 44 46 0 0
0.5610 2.4108 0.9349 -0.816 -0.051 0.576 46 46 48 0 0
0.9981 1.7536 0.9261 -0.408 -0.913 0.007 77 76 81 0 0
0.9795 1.7479 0.9276 0.296 -0.703 -0.647 62 61 66 0 0
0.8836 1.7137 0.9349 -0.111 -0.457 -0.883 42 40 44 0 0
0.8604 1.7000 0.9368 -0.112 -0.523 -0.845 42 40 45 0 0
0.7196 1.6844 0.9472 0.161 -0.880 -0.447 57 55 57 0 0
0.7023 1.6795 0.9485 0.230 -0.890 -0.395 66 67 69 0 0
1.0102 1.7476 0.9381 -0.512 -0.780 0.359 82 82 86 0 0
0.9953 1.7478 0.9392 -0.212 -0.966 0.148 61 60 65 0 0
0.8688 1.6883 0.9489 -0.001 -0.620 -0.785 63 61 63 0 0
0.5621 2.2947 0.9630 -0.913 -0.120 0.389 39 39 41 0 0
1.0133 1.7511 0.9506 -0.485 -0.732 0.478 63 62 68 0 0
0.8579 1.6693 0.9625 0.075 -0.837 -0.542 66 64 65 0 0
0.5741 2.3450 0.9747 -0.940 0.134 0.312 40 40 42 0 0
0.8915 1.6732 0.9852 0.524 -0.846 0.101 49 49 50 0 0
0.8809 1.6801 0.9858 0.101 -0.773 0.626 48 48 48 0 0
0.6306 1.9015 1.0011 -0.675 0.038 -0.737 60 60 59 0 0
0.8856 1.6863 0.9981 -0.567 -0.564 0.600 33 33 34 0 0
0.8722 1.6885 0.9989 -0.099 -0.887 0.451 25 25 27 0 0
0.6463 1.7000 1.0142 0.480 -0.845 -0.236 22 22 25 0 0
0.6097 1.7109 1.0166 -0.987 -0.158 0.008 29 33 32 0 0
0.6155 1.8990 1.0148 -0.706 0.099 -0.702 61 61 61 0 0
0.6384 1.9925 1.0126 -0.672 0.132 -0.728 51 51 51 0 0
0.9047 1.7158 1.0092 -0.485 -0.738 0.469 29 29 31 0 0
0.6310 1.6970 1.0276 0.061 -0.812 0.580 18 18 20 0 0
0.5991 1.8168 1.0291 -0.568 -0.142 -0.811 44 44 46 0 0
0.8489 3.9240 1.0002 0.329 -0.941 -0.081 128 128 128 0 0
0.8832 1.7037 1.0233 0.317 -0.920 0.232 21 21 23 0 0
0.6504 1.7043 1.0387 -0.251 -0.480 0.841 20 20 22 0 0
0.5350 1.9600 1.0452 -0.864 -0.261 -0.431 50 50 52 0 0
0.5884 2.3363 1.0400 -0.941 -0.088 0.328 43 43 45 0 0
0.8483 3.9208 1.0160 0.406 -0.908 -0.106 126 126 125 0 0
0.5842 1.6873 1.0555 -0.651 -0.663 0.370 15 15 17 0 0
0.5843 1.7626 1.0552 -0.850 -0.093 -0.518 25 23 26 0 0
0.5892 1.7967 1.0548 -0.321 -0.421 -0.848 30 28 31 0 0
0.5832 1.8114 1.0552 -0.334 -0.406 -0.851 29 28 31 0 0
0.5312 1.9514 1.0581 -0.864 -0.261 -0.431 52 52 54 0 0
0.7249 3.1952 1.0418 -0.951 0.154 0.267 39 39 41 0 0
0.8485 3.9193 1.0316 0.469 -0.878 -0.093 123 123 121 0 0
0.9316 1.7312 1.0454 -0.455 -0.771 -0.446 23 23 25 0 0
0.6322 1.7448 1.0646 -0.070 -0.890 -0.451 13 13 15 0 0
0.5596 1.7175 1.0693 -0.933 -0.319 0.167 17 15 18 0 0
0.5664 1.7548 1.0688 -0.281 -0.651 -0.705 18 16 19 0 0
0.5727 1.7914 1.0684 -0.175 -0.515 -0.839 18 17 20 0 0
0.5285 1.9451 1.0710 0.344 -0.903 -0.257 54 54 56 0 0
0.8486 3.9177 1.0473 0.469 -0.878 -0.093 120 120 118 0 0
0.9327 1.7318 1.0580 -0.713 -0.700 -0.047 21 21 23 0 0
0.6530 1.7296 1.0758 -0.377 -0.654 -0.656 12 12 14 0 0
0.6052 1.7213 1.0788 -0.523 -0.666 -0.531 12 12 14 0 0
0.5554 1.7592 1.0820 -0.439 -0.582 -0.685 15 14 18 0 0
0.5527 1.7797 1.0821 -0.450 -0.433 -0.781 15 14 19 0 0
0.5300 1.9465 1.0835 0.101 -0.969 0.227 55 55 57 0 0
0.7161 3.1072 1.0716 -0.943 0.118 0.310 36 36 38 0 0
0.8487 3.9161 1.0630 0.469 -0.878 -0.093 116 116 115 0 0
0.9030 1.7064 1.0725 -0.788 -0.419 0.451 20 18 21 0 0
0.6374 1.7262 1.0892 -0.376 -0.655 -0.655 12 12 14 0 0
0.6070 1.7231 1.0911 -0.634 -0.726 -0.269 12 12 14 0 0
0.5440 1.7628 1.0951 -0.546 -0.679 -0.491 17 17 19 0 0
0.5316 1.7660 1.0959 -0.932 -0.002 -0.363 15 15 17 0 0
0.7223 3.1183 1.0856 -0.940 0.144 0.310 36 36 38 0 0
0.8495 3.9161 1.0787 0.521 -0.850 -0.072 114 115 115 0 0
1.1048 1.7859 1.0729 0.327 -0.935 -0.139 168 166 168 0 0
1.0849 1.7788 1.0741 0.327 -0.935 -0.139 117 117 119 0 0
0.9086 1.7141 1.0848 -0.737 -0.672 0.070 19 17 20 0 0
0.7817 1.6033 1.0924 0.179 -0.960 -0.213 17 17 19 0 0
0.6360 1.6976 1.1016 -0.684 -0.692 -0.232 14 14 16 0 0
0.6271 1.7070 1.1022 -0.764 -0.631 -0.135 13 13 15 0 0
0.7161 3.0386 1.1003 -0.810 0.126 0.572 33 33 35 0 0
0.7232 3.0858 1.1000 -0.810 0.126 0.572 34 34 36 0 0
0.7301 3.1328 1.0997 -0.883 0.138 0.449 35 35 37 0 0
0.8499 3.9149 1.0944 0.521 -0.850 -0.072 110 111 111 0 0
1.0852 1.7779 1.0869 0.267 -0.960 -0.085 108 108 110 0 0
0.9089 1.7133 1.0974 -0.775 -0.541 -0.327 19 17 20 0 0
0.6458 1.6884 1.1134 -0.216 -0.968 0.130 15 15 17 0 0
0.5128 1.8843 1.1223 -0.984 0.180 -0.018 42 43 46 0 0
0.5198 1.9235 1.1221 -0.985 0.175 -0.002 52 51 53 0 0
0.7262 3.0251 1.1140 -0.766 0.123 0.630 30 30 34 0 0
0.7346 3.0747 1.1137 -0.768 0.142 0.625 34 33 37 0 0
1.0858 1.7774 1.0998 0.665 -0.742 -0.077 103 102 105 0 0
0.9131 1.7188 1.1099 -0.634 -0.618 -0.464 17 16 19 0 0
0.5896 1.7385 1.1295 -0.365 -0.925 0.103 28 27 30 0 0
0.5147 1.8865 1.1348 -0.980 0.200 -0.003 42 42 45 0 0
0.5527 2.0635 1.1335 -0.984 0.102 -0.146 64 64 67 0 0
0.6073 2.3621 1.1318 -0.744 0.237 0.625 78 77 79 0 0
0.6258 2.4266 1.1311 -0.711 0.250 0.657 78 77 80 0 0
0.7615 3.2607 1.1275 -0.948 -0.259 0.185 36 36 38 0 0
0.8301 3.7571 1.1261 -0.325 -0.916 -0.234 39 38 41 0 0
1.1126 1.7939 1.1112 0.571 -0.820 -0.041 167 166 167 0 0
0.9093 1.7113 1.1227 -0.572 -0.573 -0.586 16 16 18 0 0
0.5908 1.7394 1.1418 -0.365 -0.925 0.103 29 29 31 0 0
0.5378 1.8489 1.1457 -0.859 -0.350 0.374 22 22 22 0 0
0.5161 1.8876 1.1473 -0.975 0.215 0.060 42 41 45 0 0
0.5535 2.0636 1.1463 -0.981 0.049 -0.186 67 66 71 0 0
0.7689 3.2745 1.1419 -0.830 -0.529 0.175 38 38 40 0 0
0.8288 3.7524 1.1416 -0.186 -0.948 -0.256 39 39 41 0 0
1.1205 1.8050 1.1238 0.665 -0.746 -0.028 169 168 169 0 0
0.9621 1.6990 1.1322 0.039 -0.997 -0.062 52 51 52 0 0
0.9283 1.7167 1.1343 0.052 -0.995 0.087 20 20 22 0 0
0.5747 1.7600 1.1554 -0.361 -0.933 0.003 12 12 14 0 0
0.5315 1.9674 1.1596 -0.980 0.193 0.052 64 64 66 0 0
0.5486 2.0530 1.1593 -0.999 -0.001 -0.040 68 67 72 0 0
0.5637 2.1358 1.1591 -0.736 0.192 0.649 62 62 63 0 0
0.7843 3.2374 1.1554 -0.900 0.202 0.385 35 35 37 0 0
0.7505 3.3022 1.1579 -0.971 -0.237 0.021 58 58 60 0 0
1.1245 1.8098 1.1366 0.666 -0.744 0.048 169 168 169 0 0
0.9315 1.7205 1.1468 0.003 -0.965 0.261 21 21 23 0 0
0.8985 1.6913 1.1484 0.057 -0.950 -0.306 16 16 18 0 0
0.5445 1.7556 1.1695 -0.286 -0.956 0.063 14 12 15 0 0
0.5278 1.9592 1.1724 -0.964 0.022 0.263 61 61 63 0 0
0.5553 2.0640 1.1719 -0.933 0.249 0.258 68 67 72 0 0
0.8976 1.6885 1.1611 -0.672 -0.716 -0.188 17 17 19 0 0
0.7231 1.5940 1.1700 0.209 -0.952 -0.223 17 17 19 0 0
0.5296 1.8819 1.1842 -0.998 0.003 0.058 36 36 42 0 0
0.5403 1.9542 1.1844 -0.675 -0.721 -0.155 47 48 51 0 0
0.5297 1.9613 1.1850 -0.976 0.073 0.203 60 61 63 0 0
0.7564 3.2772 1.1868 -0.309 -0.660 -0.685 43 44 46 0 0
1.0895 1.7766 1.1641 -0.571 -0.637 -0.518 132 130 132 0 0
0.9336 1.6972 1.1718 -0.033 -0.862 0.506 24 24 26 0 0
0.8995 1.6902 1.1736 -0.350 -0.927 0.133 16 16 18 0 0
0.7241 1.5944 1.1822 0.337 -0.942 0.009 18 18 20 0 0
0.5344 1.9686 1.1976 -0.921 -0.367 0.130 57 58 60 0 0
0.7742 3.2786 1.2006 0.034 -0.753 -0.657 38 40 39 0 0
0.7528 3.2679 1.2017 -0.224 -0.678 -0.700 45 46 47 0 0
1.0860 1.7698 1.1771 -0.625 -0.606 -0.492 152 152 152 0 0
0.7326 1.6072 1.1943 -0.033 -0.982 -0.185 18 18 20 0 0
0.6870 1.7251 1.1985 -0.060 -0.963 -0.263 11 11 13 0 0
0.5773 1.7592 1.2050 -0.679 -0.715 0.163 50 50 52 0 0
0.5438 1.9846 1.2100 -0.895 -0.446 0.021 55 57 57 0 0
0.7693 3.2668 1.2154 0.081 -0.808 -0.584 39 41 40 0 0
0.7462 3.2526 1.2165 -0.230 -0.714 -0.661 47 48 49 0 0
1.0757 1.7761 1.1906 -0.749 -0.601 -0.278 87 87 87 0 0
0.7327 1.6060 1.2066 -0.192 -0.981 0.041 19 19 21 0 0
0.6859 1.7218 1.2110 -0.060 -0.963 -0.263 13 13 15 0 0
0.6372 1.6876 1.2131 -0.588 -0.747 -0.309 11 11 13 0 0
0.5796 1.7620 1.2174 -0.709 -0.646 0.283 56 56 57 0 0
0.7872 3.2683 1.2292 0.418 -0.766 -0.488 35 36 38 0 0
0.7413 3.2407 1.2313 -0.357 -0.811 -0.464 49 50 51 0 0
0.7603 1.6026 1.2175 0.133 -0.960 -0.245 22 22 24 0 0
0.7508 1.6109 1.2181 -0.399 -0.825 -0.401 22 22 24 0 0
0.7336 1.6063 1.2190 -0.192 -0.981 0.041 21 21 23 0 0
0.7610 3.2462 1.2450 0.212 -0.863 -0.459 40 41 43 0 0
0.7382 3.2326 1.2460 -0.393 -0.811 -0.434 51 51 53 0 0
0.5826 1.7394 1.2417 -0.765 -0.643 -0.029 42 41 43 0 0
0.5849 1.7169 1.2536 -0.742 -0.586 -0.327 16 15 19 0 0
0.5965 1.6861 1.2648 -0.540 -0.551 -0.636 28 26 29 0 0
0.7760 1.6473 1.2673 -0.417 -0.816 0.401 42 42 44 0 0
0.7574 1.6647 1.2686 -0.503 -0.750 0.429 40 40 42 0 0
0.7792 1.6512 1.2797 -0.380 -0.787 0.487 46 46 48 0 0
0.6030 1.7196 1.2900 0.113 -0.716 -0.689 50 49 51 0 0
0.8745 1.6858 1.2884 0.260 -0.701 0.665 50 50 52 0 0
0.8615 1.6887 1.2891 0.101 -0.622 0.776 51 52 54 0 0
0.6010 1.7148 1.3024 -0.243 -0.886 0.394 56 54 57 0 0
0.5867 1.7147 1.3031 -0.978 -0.109 -0.180 50 50 52 0 0
1.1239 1.8894 1.2946 0.621 -0.625 0.473 151 151 153 0 0
0.8883 1.7068 1.3009 0.301 -0.607 0.735 56 57 59 0 0
0.8729 1.7060 1.3016 0.146 -0.718 0.681 53 54 56 0 0
0.8563 1.7029 1.3023 0.085 -0.601 0.795 56 57 59 0 0
0.6050 1.7455 1.3154 -0.734 0.026 0.679 49 49 51 0 0
0.6126 1.7575 1.3279 -0.677 -0.127 0.725 40 40 42 0 0
1.0791 1.8647 1.3221 0.503 -0.697 0.511 99 99 98 0 0
0.6204 1.8719 1.3434 -0.335 -0.807 -0.486 36 36 38 0 0
1.0663 1.8674 1.3358 0.477 -0.690 0.545 90 90 90 0 0
1.0448 1.8576 1.3365 0.521 -0.657 0.544 66 66 67 0 0
1.0506 1.8654 1.3495 0.406 -0.784 0.469 88 88 88 0 0
1.0344 1.8642 1.3502 0.504 -0.638 0.582 66 66 67 0 0
1.0077 1.8458 1.3508 0.459 -0.622 0.634 56 56 58 0 0
1.0443 1.8785 1.3633 -0.674 0.143 -0.725 95 95 94 0 0
1.0178 1.8605 1.3638 0.412 -0.685 0.601 70 70 70 0 0
1.0014 1.8587 1.3645 0.295 -0.526 0.798 59 59 60 0 0
0.6604 1.8359 1.3785 0.232 -0.478 0.847 43 43 45 0 0
0.7631 3.2303 1.4211 0.649 -0.738 -0.184 53 51 54 0 0
1.0370 1.8902 1.3770 -0.638 0.234 -0.733 117 117 117 0 0
0.6981 1.8494 1.3900 0.237 -0.489 0.839 47 47 49 0 0
0.6854 1.8528 1.3907 0.175 -0.426 0.888 46 46 48 0 0
0.6745 1.8591 1.3914 0.119 -0.326 0.938 46 46 48 0 0
0.6668 1.8713 1.3921 -0.066 -0.246 0.967 42 42 44 0 0
0.6557 1.9032 1.3937 -0.236 -0.219 0.947 34 34 36 0 0
0.7781 3.6795 1.4509 0.314 -0.949 0.034 45 45 47 0 0
0.7077 1.8902 1.4038 0.103 -0.357 0.928 35 35 37 0 0
0.7024 1.9066 1.4046 0.128 -0.336 0.933 25 25 27 0 0
0.6861 1.9038 1.4052 0.120 -0.394 0.911 22 22 24 0 0
0.6836 1.9252 1.4061 0.486 -0.690 0.537 21 21 23 0 0
0.6709 1.9288 1.4068 0.691 -0.722 -0.029 16 16 18 0 0
0.8049 3.6993 1.4659 0.287 -0.953 0.097 39 39 41 0 0
0.7510 1.9129 1.4157 0.370 -0.496 0.785 22 22 24 0 0
0.7091 1.9156 1.4303 0.233 -0.419 0.878 34 34 36 0 0
0.8091 3.2175 1.4776 0.263 -0.760 -0.595 37 37 40 0 0
0.7567 3.2102 1.4794 0.649 -0.723 -0.236 59 59 61 0 0
0.8064 3.2103 1.4922 0.288 -0.846 -0.448 37 37 39 0 0
0.8323 3.2281 1.5067 0.759 -0.647 0.073 37 37 39 0 0
0.8029 3.2016 1.5067 0.371 -0.824 -0.429 36 36 38 0 0
0.9159 2.6092 1.5053 -0.552 -0.830 -0.083 10 10 12 0 0
0.9013 2.6113 1.5059 0.090 -0.973 -0.211 13 13 15 0 0
0.7385 3.1660 1.5369 0.693 -0.670 -0.265 59 59 61 0 0
0.9345 2.5835 1.5174 -0.687 -0.389 0.614 7 7 9 0 0
0.9326 2.6382 1.5200 -0.112 -0.857 -0.503 13 13 15 0 0
0.9068 2.6200 1.5201 -0.662 -0.555 0.503 19 19 21 0 0
0.8974 2.6319 1.5210 -0.763 -0.271 0.586 26 24 27 0 0
0.7791 3.1482 1.5492 -0.479 -0.863 -0.163 36 36 38 0 0
0.9972 2.6667 1.5332 -0.884 -0.433 0.178 7 7 9 0 0
0.9619 2.6317 1.5327 0.283 -0.949 -0.142 9 9 11 0 0
0.9427 2.6260 1.5331 0.283 -0.949 -0.142 12 12 14 0 0
0.9290 2.6300 1.5338 -0.658 -0.704 -0.268 15 15 17 0 0
0.8492 3.1239 1.5602 -0.006 -0.412 0.911 38 38 40 0 0
1.0225 2.6817 1.5472 -0.888 -0.067 0.455 6 6 8 0 0
1.0187 2.7040 1.5484 -0.931 -0.329 -0.159 8 8 10 0 0
0.7774 3.1414 1.5782 -0.598 -0.768 -0.228 36 36 38 0 0
0.7723 3.7959 1.6106 -0.036 -0.994 -0.105 111 112 110 0 0
1.0679 2.5318 1.5522 0.587 -0.808 -0.053 35 34 37 0 0
0.7727 3.1302 1.5924 -0.580 -0.702 -0.415 38 37 40 0 0
0.7723 3.7943 1.6261 -0.036 -0.994 -0.105 105 106 106 0 0
0.7564 3.7964 1.6267 -0.082 -0.994 -0.078 160 159 158 0 0
0.7455 3.1060 1.6066 -0.096 -0.729 -0.677 43 43 43 0 0
0.7181 3.0828 1.6063 -0.140 -0.877 -0.460 49 49 49 0 0
0.7702 3.7877 1.6414 -0.451 -0.879 -0.155 101 102 104 0 0
1.2629 2.5836 1.5769 0.669 -0.722 -0.178 36 36 38 0 0
1.0218 2.4761 1.5787 -0.868 -0.486 -0.101 27 27 29 0 0
1.0138 2.4901 1.5797 -0.868 -0.486 -0.101 23 23 25 0 0
0.7849 3.0537 1.6172 -0.156 -0.984 -0.081 48 48 48 0 0
0.7367 3.0864 1.6204 -0.263 -0.511 -0.818 46 46 46 0 0
0.7564 3.7926 1.6576 -0.618 -0.779 -0.102 154 154 153 0 0
1.3228 2.6267 1.5917 0.682 -0.715 -0.155 37 37 40 0 0
1.2834 2.5888 1.5908 0.676 -0.724 -0.139 35 35 37 0 0
1.2272 2.5496 1.5904 0.374 -0.874 0.311 35 35 37 0 0
1.1992 2.5300 1.5901 0.059 -0.993 0.101 31 30 33 0 0
1.1819 2.5284 1.5906 0.003 -0.998 -0.055 46 44 47 0 0
1.1642 2.5259 1.5910 -0.288 -0.819 -0.496 33 31 34 0 0
1.1134 2.5222 1.5924 -0.024 -0.879 -0.476 25 25 27 0 0
1.0228 2.4764 1.5926 -0.813 -0.560 0.161 28 28 30 0 0
0.7665 3.8132 1.6740 0.352 -0.919 -0.175 152 152 151 0 0
1.3197 2.6200 1.6057 0.656 -0.754 -0.024 49 49 51 0 0
1.2856 2.5908 1.6051 0.650 -0.760 -0.003 48 48 50 0 0
1.1827 2.5281 1.6047 0.320 -0.922 0.217 52 50 55 0 0
1.1624 2.5214 1.6049 -0.052 -0.982 -0.183 38 37 41 0 0
1.1310 2.5233 1.6059 -0.306 -0.625 -0.718 28 26 29 0 0
0.8444 3.0400 1.6436 0.494 -0.802 -0.335 71 71 71 0 0
0.7498 3.0770 1.6486 -0.222 -0.968 0.118 55 55 56 0 0
0.7395 3.6050 1.6786 -0.354 -0.902 -0.245 46 47 51 0 0
1.0845 2.4972 1.6198 -0.153 -0.898 -0.413 39 37 40 0 0
1.0187 2.4942 1.6216 0.047 -0.991 -0.122 25 23 26 0 0
0.7502 3.0760 1.6630 -0.614 -0.780 0.119 40 40 42 0 0
0.7650 3.8062 1.7048 0.183 -0.963 -0.195 144 144 142 0 0
1.3347 2.6421 1.6353 0.557 -0.667 0.495 59 59 61 0 0
1.2743 2.5966 1.6344 0.455 -0.705 0.544 53 53 55 0 0
1.0825 2.4922 1.6336 -0.335 -0.601 -0.726 45 43 46 0 0
1.0183 2.4920 1.6354 -0.097 -0.934 -0.345 30 28 33 0 0
0.9028 2.5122 1.6398 -0.132 -0.952 0.277 32 32 34 0 0
1.3541 2.6450 1.6494 0.508 -0.756 0.413 57 57 59 0 0
1.3279 2.6293 1.6492 0.313 -0.641 0.700 53 53 55 0 0
1.0750 2.4777 1.6469 -0.180 -0.801 -0.571 42 40 43 0 0
0.9145 2.5320 1.6546 -0.580 -0.786 0.216 34 34 36 0 0
0.9025 2.5389 1.6553 -0.224 -0.966 0.129 35 35 37 0 0
1.0137 2.4809 1.6627 -0.187 -0.844 -0.502 18 18 20 0 0
0.9435 2.5258 1.6673 -0.087 -0.915 -0.394 21 18 22 0 0
0.7104 3.4283 1.7295 -0.049 -0.095 -0.994 50 50 53 0 0
1.0097 2.4723 1.6761 -0.092 -0.815 -0.572 14 14 16 0 0
1.0058 2.5217 1.6794 -0.809 -0.292 -0.510 14 14 16 0 0
0.6849 3.3720 1.7416 -0.251 -0.022 -0.968 66 66 67 0 0
0.7613 3.8281 1.7686 -0.421 -0.658 0.625 168 167 165 0 0
1.0530 2.4908 1.6902 0.529 -0.807 -0.261 43 43 45 0 0
1.0053 2.4897 1.7052 -0.483 -0.845 -0.229 10 10 12 0 0
1.0292 2.4186 1.7137 -0.952 -0.288 -0.105 48 48 50 0 0
0.9608 2.5507 1.7243 -0.556 -0.530 0.640 10 10 12 0 0
1.0284 2.4156 1.7274 -0.943 -0.299 -0.146 48 48 50 0 0
1.0214 2.4311 1.7286 -0.883 -0.412 -0.226 39 39 41 0 0
0.9665 2.5882 1.7407 -0.414 -0.487 -0.769 13 13 15 0 0
0.9552 2.5966 1.7415 -0.414 -0.487 -0.769 14 14 16 0 0
0.9163 2.6128 1.7435 0.243 -0.620 -0.746 25 25 27 0 0
1.0294 2.4159 1.7412 -0.820 -0.529 -0.221 47 47 49 0 0
1.0194 2.4262 1.7422 -0.651 -0.659 -0.376 30 30 32 0 0
1.0205 2.5973 1.7542 0.104 -0.490 -0.865 10 10 12 0 0
0.9246 2.5974 1.7563 0.391 -0.625 -0.676 21 21 23 0 0
0.9001 2.5816 1.7557 0.237 -0.592 -0.770 28 28 31 0 0
0.8715 2.5582 1.7547 0.293 -0.619 -0.729 28 29 33 0 0
1.0275 2.4112 1.7548 -0.090 -0.955 -0.283 46 44 49 0 0
1.0012 2.5613 1.7661 0.089 -0.488 -0.868 11 11 13 0 0
1.0312 2.6437 1.7714 -0.930 0.191 -0.314 11 11 13 0 0
1.0304 2.6681 1.8016 -0.742 0.136 0.656 11 11 13 0 0
0.9852 2.3882 1.7953 -0.175 -0.841 -0.511 33 33 35 0 0
1.0468 2.6961 1.8177 -0.734 0.108 0.670 11 11 13 0 0
0.9304 2.6019 1.8126 0.422 -0.904 0.069 13 13 15 0 0
0.9834 2.3835 1.8088 -0.275 -0.737 -0.617 36 36 38 0 0
1.0755 2.7168 1.8331 -0.753 0.030 0.657 12 12 14 0 0
0.7403 3.8762 1.9289 -0.927 0.004 0.375 151 149 150 0 0
0.9927 2.3708 1.8214 -0.245 -0.898 -0.367 36 36 38 0 0
0.7456 3.8863 1.9453 -0.920 0.011 0.391 138 136 137 0 0
0.9010 3.4209 1.9363 -0.991 -0.085 -0.102 50 50 52 0 0
1.5378 2.6710 1.8801 0.578 -0.671 -0.465 61 61 63 0 0
0.8019 2.4737 1.8739 -0.632 -0.660 -0.406 19 19 21 0 0
0.7886 2.4779 1.8744 -0.905 -0.424 0.022 21 21 24 0 0
1.5307 2.6580 1.8938 0.578 -0.705 -0.411 59 59 62 0 0
0.8826 3.5529 1.9781 -0.915 0.308 -0.260 39 38 43 0 0
0.8808 3.4775 1.9870 -0.793 0.251 -0.555 44 43 48 0 0
0.8635 3.5113 1.9901 -0.865 0.290 -0.408 40 39 44 0 0
1.4217 2.6442 1.9231 0.125 -0.242 -0.962 44 44 47 0 0
1.3165 2.6092 1.9212 -0.083 -0.200 -0.976 34 33 39 0 0
0.8809 2.4994 1.9165 0.414 -0.788 0.455 11 11 13 0 0
0.8480 3.4774 2.0026 -0.867 0.244 -0.434 40 39 44 0 0
1.5810 2.6788 1.9390 0.573 -0.757 -0.314 50 50 52 0 0
1.2902 2.5362 1.9294 -0.274 -0.003 -0.962 36 36 38 0 0
1.2794 2.5457 1.9303 -0.374 0.051 -0.926 32 31 35 0 0
0.8419 2.4839 1.9294 -0.517 -0.720 0.464 33 33 35 0 0
0.7992 2.4627 1.9280 -0.152 -0.968 -0.199 12 12 14 0 0
1.5805 2.6765 1.9535 0.584 -0.775 -0.239 48 48 50 0 0
1.4651 2.6013 1.9478 0.377 -0.910 0.172 75 74 76 0 0
1.3720 2.5596 1.9450 0.498 -0.710 -0.498 73 69 70 0 0
1.2430 2.5110 1.9418 -0.350 0.066 -0.934 31 31 33 0 0
1.2253 2.5365 1.9443 -0.051 -0.158 -0.986 35 35 37 0 0
0.8125 2.4571 1.9411 -0.151 -0.971 -0.187 12 12 14 0 0
0.7985 2.4598 1.9415 -0.143 -0.984 -0.107 12 12 14 0 0
0.7227 3.8579 2.0687 -0.803 0.093 -0.589 167 167 165 0 0
1.4141 2.5721 1.9601 0.423 -0.830 0.363 83 82 80 0 0
1.3851 2.5521 1.9585 0.540 -0.829 0.144 82 81 79 0 0
1.2243 2.4509 1.9506 -0.334 -0.037 -0.942 52 52 54 0 0
1.2039 2.4715 1.9527 -0.354 0.079 -0.932 31 31 33 0 0
0.9990 2.5934 1.9657 -0.006 -0.186 -0.982 11 11 13 0 0
0.8891 2.4812 1.9564 0.091 -0.984 -0.153 11 11 13 0 0
0.8663 2.4684 1.9554 0.070 -0.998 -0.007 11 11 13 0 0
0.8169 2.4637 1.9554 -0.115 -0.976 0.187 16 16 18 0 0
0.7878 2.4673 1.9560 -0.099 -0.981 0.170 11 12 14 0 0
1.6187 2.7065 1.9854 0.660 -0.680 -0.320 55 55 57 0 0
0.9503 2.5332 1.9746 -0.854 -0.239 -0.462 12 12 14 0 0
0.8861 2.4743 1.9696 -0.042 -0.888 -0.457 9 9 11 0 0
0.8663 2.4668 1.9690 0.047 -0.999 0.027 11 11 13 0 0
0.8340 2.4649 1.9691 -0.031 -0.994 0.103 18 18 20 0 0
0.8230 2.4734 1.9700 -0.498 -0.816 0.292 24 24 26 0 0
0.8114 2.4807 1.9708 -0.498 -0.816 0.292 29 29 31 0 0
0.7952 2.4795 1.9708 -0.914 -0.405 -0.013 23 24 26 0 0
0.7881 2.4953 1.9723 -0.914 -0.405 -0.013 28 29 31 0 0
1.6533 2.7320 2.0024 0.687 -0.713 -0.142 57 56 58 0 0
1.6156 2.7001 1.9997 0.684 -0.702 -0.201 58 58 60 0 0
1.4302 2.5678 1.9884 0.326 -0.929 -0.178 61 61 63 0 0
1.2033 2.4401 1.9780 0.416 -0.909 -0.014 63 63 65 0 0
1.1292 2.3972 1.9744 -0.048 -0.464 -0.885 35 35 37 0 0
1.0422 2.3580 1.9713 -0.237 -0.834 0.499 32 32 34 0 0
0.9376 2.5087 1.9863 -0.633 -0.764 -0.128 14 14 16 0 0
0.8269 2.4790 1.9843 -0.621 -0.693 0.365 33 33 35 0 0
0.6996 3.8768 2.1176 -0.916 0.189 -0.354 174 173 171 0 0
1.6627 2.7453 2.0185 0.707 -0.706 -0.046 65 64 66 0 0
1.6128 2.6941 2.0139 0.668 -0.737 -0.105 62 62 64 0 0
1.3382 2.5257 1.9994 0.587 -0.808 0.056 72 68 72 0 0
1.1478 2.3999 1.9885 0.482 -0.874 0.067 59 58 61 0 0
1.1260 2.3903 1.9877 0.281 -0.884 -0.373 52 51 55 0 0
1.0556 2.3795 1.9871 -0.046 -0.997 0.062 30 30 33 0 0
0.9380 2.5079 2.0002 -0.635 -0.691 -0.346 30 30 32 0 0
0.9194 2.5030 1.9998 -0.879 -0.386 -0.280 33 33 36 0 0
0.8711 2.4726 1.9972 -0.429 -0.791 0.435 35 36 39 0 0
0.7105 2.5210 2.0029 -0.594 -0.499 -0.631 39 40 43 0 0
0.6908 2.5425 2.0051 -0.585 -0.762 0.279 32 32 35 0 0
1.8073 2.8591 2.0437 -0.990 0.087 -0.108 155 157 156 0 0
1.6503 2.7242 2.0314 0.703 -0.709 -0.062 67 67 68 0 0
1.6215 2.7063 2.0298 0.596 -0.802 0.036 62 62 64 0 0
1.5201 2.6274 2.0226 0.370 -0.924 -0.095 53 52 56 0 0
1.4894 2.6056 2.0207 0.148 -0.983 0.106 51 50 54 0 0
1.3385 2.5247 2.0136 0.597 -0.799 -0.076 58 56 61 0 0
1.2794 2.4819 2.0097 0.219 -0.791 0.572 70 66 70 0 0
1.2594 2.4761 2.0093 0.219 -0.791 0.572 73 70 71 0 0
1.0545 2.3762 2.0006 0.097 -0.978 -0.182 39 38 43 0 0
1.0354 2.3981 2.0029 -0.608 -0.448 -0.655 29 28 33 0 0
0.9439 2.4886 2.0122 -0.668 -0.579 -0.467 39 39 42 0 0
0.8828 2.4637 2.0101 -0.686 -0.689 0.234 40 41 45 0 0
0.7370 2.5406 2.0184 -0.317 -0.942 -0.107 41 42 46 0 0
0.7169 2.5317 2.0176 -0.604 -0.784 -0.140 41 42 46 0 0
0.7064 2.5412 2.0186 -0.673 -0.739 0.024 38 39 43 0 0
0.6949 2.5488 2.0194 -0.721 -0.693 0.003 38 39 43 0 0
0.6817 2.5531 2.0199 -0.621 -0.775 -0.119 30 31 35 0 0
0.6940 3.8987 2.1511 -0.965 -0.023 -0.260 175 174 172 0 0
1.8129 2.8663 2.0596 -0.958 -0.223 -0.180 166 167 167 0 0
1.7962 2.8681 2.0598 0.033 -0.996 0.083 106 108 106 0 0
1.5438 2.6363 2.0380 0.380 -0.917 0.118 57 57 59 0 0
1.5219 2.6287 2.0374 0.289 -0.859 0.423 53 53 55 0 0
1.3177 2.5163 2.0272 0.204 -0.682 0.702 49 48 51 0 0
1.2703 2.4926 2.0250 0.150 -0.695 0.703 64 63 67 0 0
1.2480 2.4828 2.0242 0.221 -0.782 0.583 68 66 69 0 0
1.2092 2.4729 2.0234 0.341 -0.821 0.458 66 66 68 0 0
0.8422 2.5315 2.0308 -0.654 -0.644 0.397 37 38 42 0 0
0.8138 2.5371 2.0315 -0.304 -0.863 0.402 39 40 44 0 0
0.7055 2.5379 2.0321 -0.721 -0.693 0.003 39 40 44 0 0
1.8113 2.8622 2.0744 -0.982 -0.117 -0.149 176 176 176 0 0
1.8034 2.8778 2.0760 -0.993 0.082 -0.080 115 117 115 0 0
1.5346 2.6201 2.0511 0.442 -0.839 0.318 59 59 61 0 0
1.1952 2.4752 2.0378 0.156 -0.670 0.726 61 61 63 0 0
1.0729 2.3773 2.0284 0.129 -0.990 0.066 54 53 58 0 0
1.0327 2.3905 2.0299 -0.379 -0.919 0.110 45 44 49 0 0
0.9477 2.4924 2.0404 0.044 -0.916 -0.398 39 40 44 0 0
0.9131 2.5156 2.0429 -0.394 -0.919 0.018 35 36 40 0 0
0.7391 3.0366 2.0958 -0.616 0.076 -0.784 27 28 32 0 0
1.8026 2.8470 2.0880 -0.985 -0.048 -0.163 193 193 193 0 0
1.8024 2.8746 2.0908 -0.845 -0.423 0.326 132 132 132 0 0
1.2404 2.4946 2.0537 0.136 -0.579 0.804 51 51 53 0 0
1.0641 2.3882 2.0434 -0.052 -0.921 0.386 55 54 59 0 0
1.0351 2.3930 2.0440 -0.563 -0.812 0.151 46 46 50 0 0
0.9704 2.4467 2.0496 -0.825 -0.324 0.462 29 29 31 0 0
0.9657 2.4663 2.0516 -0.540 -0.668 0.511 29 28 31 0 0
0.9278 2.4836 2.0535 0.049 -0.994 0.093 31 31 34 0 0
0.9106 2.4811 2.0533 -0.624 -0.741 0.247 33 33 35 0 0
0.9038 2.4972 2.0550 -0.129 -0.776 0.618 34 34 36 0 0
0.6886 2.8059 2.0870 -0.758 0.222 -0.613 12 13 16 0 0
0.7228 2.9696 2.1036 -0.669 0.128 -0.733 16 17 21 0 0
0.6641 3.7494 2.1832 -0.946 0.136 -0.293 87 89 84 0 0
1.8123 2.8605 2.1046 -0.406 -0.894 0.189 198 198 198 0 0
1.7992 2.8682 2.1054 -0.481 -0.829 0.286 154 154 154 0 0
1.0317 2.3857 2.0571 -0.342 -0.917 0.206 43 42 46 0 0
0.9498 2.4648 2.0654 0.239 -0.558 0.795 30 30 32 0 0
0.9363 2.4690 2.0659 0.439 -0.669 0.599 31 31 33 0 0
0.9205 2.4689 2.0659 0.334 -0.866 0.372 31 31 33 0 0
0.9124 2.4829 2.0674 -0.279 -0.797 0.535 28 28 30 0 0
0.9051 2.4980 2.0689 -0.093 -0.927 0.362 26 26 28 0 0
1.6250 2.7041 2.1036 0.663 -0.675 0.324 72 71 76 0 0
1.1514 2.4242 2.0748 -0.980 -0.093 -0.176 51 50 55 0 0
1.0267 2.3756 2.0699 -0.345 -0.936 -0.067 41 41 45 0 0
0.9896 2.3662 2.0689 0.371 -0.918 0.140 28 28 30 0 0
0.6465 3.7814 2.2175 -0.892 0.243 -0.380 117 117 115 0 0
1.0458 2.3797 2.0841 0.146 -0.985 -0.096 36 35 40 0 0
1.0300 2.3798 2.0842 -0.307 -0.910 0.278 36 35 39 0 0
0.6453 3.7390 2.2285 -0.781 0.094 -0.617 87 87 88 0 0
0.6373 3.7588 2.2306 -0.871 0.219 -0.439 108 108 106 0 0
1.0500 2.3853 2.0986 0.248 -0.905 -0.344 34 33 38 0 0
1.0313 2.3807 2.0981 -0.287 -0.954 -0.087 35 35 39 0 0
0.8760 2.4980 2.1106 0.527 -0.814 -0.244 23 23 25 0 0
0.6312 3.7430 2.2444 -0.812 0.149 -0.564 103 103 102 0 0
0.6423 3.8446 2.2553 -0.881 0.255 -0.399 197 196 194 0 0
1.2902 2.6260 2.1391 0.660 -0.634 -0.404 52 51 54 0 0
0.9099 2.5008 2.1249 0.151 -0.845 0.512 29 29 31 0 0
0.8910 2.4952 2.1242 0.192 -0.908 0.371 23 23 25 0 0
1.0345 2.3831 2.1261 -0.140 -0.973 -0.181 34 34 38 0 0
0.9032 2.4587 2.1341 0.209 -0.829 0.519 20 20 22 0 0
0.9109 2.5010 2.1388 0.129 -0.661 0.739 20 20 22 0 0
0.9116 2.4724 2.1496 0.221 -0.704 0.675 17 17 19 0 0
0.6672 2.5992 2.1630 -0.447 -0.814 0.371 21 22 24 0 0
0.6283 3.7688 2.2937 -0.935 0.333 0.122 170 169 167 0 0
0.6763 2.6153 2.1787 -0.249 -0.625 0.740 24 25 27 0 0
1.0836 2.6013 2.2214 0.753 -0.651 -0.099 26 26 28 0 0
1.0859 2.6038 2.2359 0.751 -0.658 -0.056 28 28 30 0 0
0.6388 3.7835 2.3730 -0.875 0.355 -0.329 129 129 127 0 0
0.6365 2.9019 2.2824 0.530 -0.784 -0.323 42 41 45 0 0
0.6703 2.9694 2.3052 -0.050 -0.292 0.955 48 47 52 0 0
0.6654 2.9918 2.3079 -0.293 -0.153 0.944 49 48 53 0 0
0.6398 3.8202 2.4085 -0.751 0.126 -0.648 125 125 123 0 0
0.7522 3.1683 2.3449 -0.912 -0.329 0.245 54 53 58 0 0
0.8372 3.1734 2.3612 0.727 -0.677 0.112 55 54 59 0 0
1.0869 2.3459 2.2885 0.321 -0.870 0.375 41 40 45 0 0
1.6955 2.9747 2.5140 -0.880 -0.037 -0.474 39 38 43 0 0
0.6090 3.7258 2.5976 -0.652 -0.092 0.753 189 190 188 0 0
0.6223 3.7543 2.6174 -0.839 0.017 0.544 180 181 179 0 0
0.6193 3.8202 2.6579 -0.784 0.129 -0.607 203 202 200 0 0
1.6157 2.5372 2.5095 0.620 -0.778 -0.105 79 80 80 0 0
1.4855 2.4390 2.5064 0.564 -0.825 0.031 65 65 65 0 0
1.4880 2.5233 2.5189 0.048 -0.999 -0.012 54 54 56 0 0
1.1501 2.3222 2.4950 0.350 -0.935 -0.061 24 24 26 0 0
1.1688 2.3249 2.5098 0.179 -0.811 -0.557 36 36 38 0 0
1.1506 2.3215 2.5088 0.350 -0.935 -0.061 31 31 33 0 0
1.0588 2.2749 2.4994 -0.345 -0.937 0.056 33 33 35 0 0
1.1681 2.3224 2.5234 0.285 -0.953 -0.102 44 44 47 0 0
1.1510 2.3208 2.5226 0.350 -0.935 -0.061 42 42 45 0 0
0.9817 2.4141 2.5323 -0.203 0.011 -0.979 23 23 28 0 0
0.9735 2.4277 2.5341 -0.203 0.011 -0.979 21 21 25 0 0
0.6413 2.5656 2.5461 -0.625 -0.360 0.693 32 31 35 0 0
1.7548 2.6630 2.6058 0.659 -0.751 0.043 60 62 61 0 0
1.3778 2.3688 2.5502 0.340 -0.905 0.255 70 70 70 0 0
1.0529 2.3980 2.5457 -0.102 -0.510 0.854 38 41 46 0 0
0.9508 2.3308 2.5326 -0.442 -0.727 -0.526 34 35 40 0 0
0.9318 2.3252 2.5312 -0.058 -0.808 -0.586 34 33 39 0 0
0.8230 2.3818 2.5368 -0.851 -0.382 0.361 27 27 31 0 0
1.7164 2.6297 2.6145 0.616 -0.785 0.072 57 57 60 0 0
1.6562 2.5907 2.6067 0.581 -0.776 0.245 52 51 53 0 0
0.9278 2.3167 2.5435 0.023 -0.774 -0.633 61 60 65 0 0
0.8432 2.3605 2.5479 -0.798 -0.524 0.297 40 39 44 0 0
0.8263 2.3862 2.5514 -0.816 -0.473 0.334 39 38 43 0 0
0.8084 2.4104 2.5546 -0.861 -0.504 -0.066 40 39 44 0 0
0.7667 2.4193 2.5548 -0.777 -0.501 0.381 41 41 42 0 0
0.7366 2.5373 2.5722 0.172 -0.860 0.480 43 44 46 0 0
0.7222 2.5395 2.5721 -0.155 -0.794 0.587 44 46 46 0 0
0.6731 2.5942 2.5791 -0.375 -0.547 0.748 46 46 49 0 0
0.6651 2.6088 2.5812 -0.342 -0.596 0.727 46 45 50 0 0
1.8773 2.7921 2.6594 0.505 -0.813 -0.289 79 79 83 0 0
1.6596 2.5944 2.6222 0.538 -0.834 0.120 50 49 53 0 0
0.8648 2.3699 2.5637 -0.931 -0.365 -0.029 45 44 49 0 0
0.8447 2.3899 2.5662 -0.485 -0.515 0.707 44 43 48 0 0
0.8271 2.4146 2.5696 -0.766 -0.269 0.584 47 45 50 0 0
0.7304 2.5537 2.5884 -0.202 -0.826 0.525 46 48 48 0 0
0.6068 3.7383 2.7697 -0.966 -0.080 -0.247 142 142 140 0 0
0.7865 2.4530 2.5882 -0.590 -0.415 0.693 45 45 47 0 0
0.7817 2.5606 2.6050 0.107 -0.954 0.281 44 44 46 0 0
0.7398 2.5699 2.6052 -0.032 -0.669 0.743 48 49 50 0 0
0.6104 3.7449 2.7864 -0.352 -0.600 -0.719 149 149 146 0 0
1.8321 2.7476 2.6814 0.247 -0.873 -0.420 80 80 82 0 0
1.5962 2.5738 2.6465 0.542 -0.714 0.443 43 43 47 0 0
1.5644 2.5509 2.6418 0.511 -0.699 0.500 42 41 47 0 0
1.5416 2.5421 2.6397 0.337 -0.618 0.711 46 45 50 0 0
1.3844 2.4267 2.6165 0.132 -0.548 0.826 46 46 46 0 0
1.3058 2.4071 2.6109 -0.131 -0.426 0.895 33 32 36 0 0
1.2784 2.4162 2.6115 -0.190 -0.373 0.908 36 34 39 0 0
0.7937 2.5817 2.6227 0.050 -0.854 0.517 27 27 29 0 0
0.7768 2.5794 2.6218 -0.117 -0.621 0.775 28 28 30 0 0
0.6733 2.6201 2.6250 0.157 -0.804 0.574 16 14 17 0 0
0.6084 3.7383 2.8008 -0.458 -0.756 -0.468 161 162 159 0 0
1.7950 2.7441 2.6948 0.569 -0.811 -0.136 72 71 73 0 0
1.5186 2.5314 2.6518 0.282 -0.602 0.747 40 40 42 0 0
1.2483 2.3922 2.6209 0.187 -0.697 0.693 23 21 26 0 0
1.2266 2.3834 2.6188 0.229 -0.684 0.692 23 21 24 0 0
1.1096 2.4602 2.6273 -0.085 -0.745 0.661 18 19 23 0 0
1.0785 2.4345 2.6222 0.449 -0.851 -0.273 16 15 20 0 0
1.0512 2.4151 2.6182 0.069 -0.760 -0.646 17 16 21 0 0
1.0136 2.4054 2.6155 0.064 -0.762 -0.644 18 19 22 0 0
0.9944 2.3997 2.6139 0.381 -0.924 0.039 16 18 20 0 0
0.8741 2.3540 2.6028 -0.763 0.218 -0.609 17 15 20 0 0
0.7223 2.6533 2.6459 0.314 -0.836 0.450 9 9 11 0 0
1.7783 2.7169 2.7050 0.578 -0.808 -0.114 76 75 77 0 0
1.7478 2.6973 2.7008 0.555 -0.826 -0.102 71 69 71 0 0
1.5270 2.5701 2.6730 0.544 -0.685 0.485 37 36 40 0 0
1.1191 2.4750 2.6442 -0.132 -0.554 0.822 11 12 14 0 0
1.0886 2.4504 2.6392 0.310 -0.822 0.479 11 11 12 0 0
0.6125 3.7439 2.8329 -0.908 0.266 0.325 186 186 183 0 0
1.7343 2.6751 2.7117 0.295 -0.793 -0.533 73 71 72 0 0
1.6674 2.6804 2.7103 0.428 -0.900 -0.087 53 53 56 0 0
1.4743 2.5391 2.6807 0.705 -0.707 -0.066 38 38 40 0 0
1.2771 2.4096 2.6529 0.333 -0.890 -0.313 57 56 61 0 0
1.6311 2.6222 2.7144 -0.071 -0.408 -0.910 60 60 62 0 0
1.6132 2.6214 2.7136 0.001 -0.540 -0.842 56 56 57 0 0
1.9304 2.8617 2.7796 0.594 -0.633 0.497 88 88 86 0 0
1.9316 2.8620 2.7951 0.704 -0.678 0.210 82 79 81 0 0
1.8991 2.8404 2.7903 0.608 -0.630 0.483 83 81 83 0 0
1.5148 2.5447 2.7268 0.182 -0.457 -0.871 56 56 56 0 0
1.8502 2.7918 2.7956 0.568 -0.674 0.472 78 76 79 0 0
1.3736 2.4527 2.7206 0.263 -0.818 0.512 53 52 56 0 0
1.1652 2.3268 2.6916 -0.436 -0.139 -0.889 35 34 39 0 0
1.3878 2.4471 2.7345 0.382 -0.913 0.140 55 55 56 0 0
1.3654 2.4380 2.7321 0.302 -0.937 0.177 55 55 56 0 0
1.1763 2.3707 2.7135 -0.525 -0.846 0.094 41 40 45 0 0
1.1711 2.3891 2.7164 -0.907 -0.276 -0.320 39 38 43 0 0
1.1333 2.5183 2.7370 -0.690 -0.714 0.114 30 30 32 0 0
0.9216 2.6892 2.7581 -0.484 0.190 -0.854 13 13 15 0 0
0.9288 2.7323 2.7657 -0.524 0.223 -0.822 13 13 15 0 0
0.9135 2.7641 2.7705 -0.284 0.030 -0.958 13 13 15 0 0
1.8344 2.7646 2.8208 0.373 -0.927 -0.032 65 63 66 0 0
1.7668 2.7159 2.8098 0.573 -0.793 0.207 62 60 64 0 0
1.1139 2.4834 2.7445 -0.163 -0.978 -0.133 33 33 35 0 0
1.0898 2.4698 2.7412 -0.933 -0.336 -0.127 32 32 35 0 0
1.0355 2.4594 2.7373 -0.049 -0.994 -0.102 31 31 33 0 0
1.1252 2.4733 2.7573 -0.327 -0.941 0.093 36 35 40 0 0
1.1117 2.4780 2.7576 -0.327 -0.941 0.093 34 33 38 0 0
1.0623 2.4486 2.7505 -0.954 -0.289 -0.076 33 32 37 0 0
1.0261 2.4415 2.7479 -0.071 -0.960 0.272 33 33 35 0 0
0.9750 2.5496 2.7646 0.353 -0.674 0.649 26 27 29 0 0
1.5221 2.5488 2.8008 0.133 -0.755 0.642 34 34 36 0 0
1.4562 2.5525 2.7988 0.161 -0.986 0.043 49 49 51 0 0
1.0846 2.5138 2.7769 -0.476 -0.869 0.136 35 35 39 0 0
1.0718 2.5197 2.7774 -0.422 -0.896 0.139 35 35 39 0 0
1.0310 2.4765 2.7682 -0.504 -0.860 -0.085 35 34 39 0 0
0.9863 2.5682 2.7824 0.524 -0.759 0.386 33 34 38 0 0
0.6290 3.9197 3.0041 -0.719 0.135 -0.682 89 89 87 0 0
0.6039 3.9795 3.0136 -0.599 -0.071 -0.798 193 192 190 0 0
1.5314 2.5620 2.8181 0.018 -0.791 0.612 40 40 42 0 0
1.5001 2.5666 2.8176 -0.639 -0.467 -0.611 73 73 75 0 0
1.4617 2.5597 2.8148 -0.033 -0.975 -0.219 34 33 37 0 0
1.4087 2.5289 2.8072 0.454 -0.891 0.013 37 36 42 0 0
0.8489 2.5486 2.7875 0.168 -0.948 0.270 36 34 39 0 0
1.4607 2.5566 2.8288 -0.033 -0.975 -0.219 37 36 41 0 0
1.4307 2.5356 2.8238 0.428 -0.888 -0.167 36 35 40 0 0
0.8554 2.5591 2.8036 -0.509 -0.759 0.406 38 38 42 0 0
0.8456 2.5701 2.8052 -0.853 -0.418 0.314 39 39 43 0 0
1.4604 2.5546 2.8430 0.137 -0.986 0.097 43 42 47 0 0
1.0009 2.4474 2.8040 -0.243 -0.970 -0.032 42 42 47 0 0
0.9866 2.4503 2.8039 0.145 -0.860 -0.490 41 42 45 0 0
0.8934 2.5400 2.8159 -0.113 -0.952 -0.286 40 41 46 0 0
0.8785 2.5419 2.8156 -0.113 -0.952 -0.286 40 41 45 0 0
0.8553 2.5574 2.8174 -0.739 -0.645 -0.196 40 41 45 0 0
1.0155 2.4716 2.8230 -0.264 -0.516 -0.815 42 43 47 0 0
1.0320 2.4709 2.8377 -0.125 -0.964 0.236 30 31 35 0 0
1.2082 2.4652 2.8588 -0.586 -0.797 -0.144 43 42 47 0 0
0.9378 2.5874 2.8689 -0.972 -0.198 0.122 16 16 20 0 0
0.5839 3.9970 3.1430 0.365 -0.754 -0.546 139 140 135 0 0
0.5444 3.9833 3.1386 0.458 -0.771 -0.442 202 202 201 0 0
0.5395 3.9696 3.1516 0.493 -0.731 -0.472 201 201 199 0 0
1.0004 2.6948 2.9490 -0.218 -0.237 0.947 66 64 65 0 0
0.5355 3.9583 3.1651 0.493 -0.731 -0.472 199 198 196 0 0
1.1377 2.4214 2.9182 -0.106 -0.907 -0.407 67 67 69 0 0
0.5535 3.9590 3.1820 0.437 -0.720 -0.540 170 169 167 0 0
1.1348 2.4150 2.9309 -0.488 -0.792 -0.366 66 66 68 0 0
0.5670 3.9492 3.1966 -0.027 -0.671 -0.741 113 113 111 0 0
0.5495 3.9477 3.1955 0.503 -0.697 -0.511 163 163 161 0 0
0.5277 3.9358 3.1921 0.434 -0.722 -0.539 197 196 194 0 0
0.5225 3.9214 3.2048 0.418 -0.707 -0.570 197 195 195 0 0
0.5398 3.8027 3.1983 -0.960 0.081 -0.268 76 76 78 0 0
0.5521 3.9101 3.2199 0.106 -0.740 -0.664 114 113 111 0 0
0.5177 3.9081 3.2177 0.418 -0.707 -0.570 197 195 196 0 0
0.5358 3.7915 3.2115 -0.965 0.043 -0.259 81 81 83 0 0
2.1572 2.8347 3.1259 0.018 -0.844 -0.536 189 189 190 0 0
0.5113 3.6937 3.2065 -0.978 0.123 -0.167 73 72 77 0 0
0.5435 3.8842 3.2616 0.463 -0.675 -0.575 122 122 120 0 0
1.7507 2.8257 3.1325 0.299 -0.218 -0.929 56 56 58 0 0
1.9231 2.7028 3.1328 0.621 -0.726 0.296 69 69 71 0 0
1.8573 2.7669 3.1420 -0.179 0.041 -0.983 38 39 43 0 0
0.7243 2.4929 3.0222 -0.576 -0.327 -0.749 45 44 49 0 0
0.5318 3.8527 3.2861 0.531 -0.645 -0.550 143 143 141 0 0
1.8251 2.8265 3.1675 -0.192 0.083 -0.978 38 38 42 0 0
2.0728 2.7855 3.1889 0.635 -0.699 0.328 108 106 108 0 0
2.0276 2.7431 3.2083 0.766 -0.596 -0.239 102 100 101 0 0
1.7702 2.6284 3.1690 0.065 -0.512 -0.857 58 59 63 0 0
2.0270 2.7407 3.2232 0.761 -0.597 -0.256 107 105 106 0 0
2.0131 2.7473 3.2237 0.681 -0.720 0.136 92 92 92 0 0
1.9578 2.6928 3.2089 0.551 -0.830 0.087 85 85 86 0 0
2.0563 2.7821 3.2491 0.725 -0.571 -0.384 104 102 103 0 0
2.0163 2.7505 3.2400 0.695 -0.716 -0.069 96 95 96 0 0
1.9619 2.6972 3.2254 0.551 -0.830 0.087 87 87 88 0 0
1.9272 2.6728 3.2181 0.561 -0.827 -0.040 83 83 85 0 0
2.0369 2.7522 3.2570 0.725 -0.571 -0.384 90 89 90 0 0
1.9659 2.7016 3.2418 0.551 -0.830 0.087 91 89 91 0 0
1.9282 2.6727 3.2333 0.561 -0.827 -0.040 84 84 86 0 0
2.0648 2.7915 3.2826 0.712 -0.617 -0.336 82 80 80 0 0
2.0098 2.7378 3.2676 0.700 -0.679 -0.220 88 84 85 0 0
1.9643 2.6977 3.2561 0.608 -0.793 -0.037 92 89 91 0 0
1.8868 2.6366 3.2382 0.623 -0.782 0.029 82 81 84 0 0
0.6874 2.5885 3.1515 -0.906 -0.086 0.415 16 16 18 0 0
2.1195 2.8427 3.3126 0.739 -0.656 -0.156 68 67 67 0 0
1.9580 2.6869 3.2687 0.590 -0.806 -0.043 82 81 83 0 0
1.9276 2.6688 3.2628 0.616 -0.784 0.075 83 82 85 0 0
2.0551 2.7741 3.3092 0.594 -0.714 -0.371 65 65 66 0 0
2.0347 2.7713 3.3072 0.632 -0.774 0.043 69 68 73 0 0
1.7567 2.5721 3.2459 -0.260 -0.386 -0.885 69 69 71 0 0
1.7236 2.5486 3.2387 0.348 -0.764 -0.543 67 67 69 0 0
0.6357 2.5150 3.1602 -0.677 -0.439 0.591 17 17 19 0 0
2.0455 2.7586 3.3206 0.624 -0.745 -0.237 64 64 66 0 0
2.0023 2.7222 3.3098 0.593 -0.801 -0.083 62 61 68 0 0
1.9713 2.7035 3.3037 0.550 -0.828 -0.107 65 65 70 0 0
1.8706 2.6346 3.2820 0.659 -0.751 0.033 73 74 76 0 0
1.7087 2.5245 3.2473 0.381 -0.612 -0.693 69 69 71 0 0
1.6851 2.5152 3.2437 0.112 -0.703 -0.702 67 67 69 0 0
1.6300 2.5107 3.2391 -0.279 -0.857 -0.433 61 60 65 0 0
0.6436 2.5289 3.1776 -0.712 -0.481 0.511 19 19 21 0 0
0.6229 2.5485 3.1805 -0.703 -0.588 0.401 23 23 27 0 0
0.6121 2.5575 3.1818 -0.801 -0.398 0.446 23 24 28 0 0
1.9721 2.7031 3.3190 0.542 -0.839 -0.054 61 62 68 0 0
1.9403 2.6830 3.3124 0.542 -0.839 -0.054 62 63 68 0 0
1.8660 2.6262 3.2950 0.673 -0.726 -0.143 68 69 71 0 0
1.7315 2.5576 3.2709 0.618 -0.739 -0.267 68 68 70 0 0
1.5837 2.4646 3.2405 0.432 -0.742 -0.512 61 61 63 0 0
1.1395 2.2863 3.1716 -0.095 -0.990 0.102 41 42 46 0 0
1.1242 2.2877 3.1709 -0.095 -0.990 0.102 38 39 43 0 0
0.8271 2.4340 3.1830 -0.376 -0.630 0.680 24 25 27 0 0
0.8051 2.4224 3.1790 0.065 -0.998 -0.006 24 25 27 0 0
0.6256 2.5524 3.1955 -0.776 -0.631 0.017 32 33 37 0 0
0.6153 2.5623 3.1970 -0.935 -0.355 0.008 35 36 40 0 0
1.9745 2.7050 3.3348 0.553 -0.833 -0.002 58 57 64 0 0
1.8650 2.6233 3.3093 0.658 -0.734 -0.170 59 59 61 0 0
1.1259 2.2890 3.1853 0.035 -0.978 0.204 42 43 47 0 0
1.0387 2.3312 3.1887 -0.880 -0.438 -0.183 39 40 44 0 0
1.0321 2.3473 3.1917 -0.839 -0.488 -0.239 39 40 44 0 0
1.0258 2.3639 3.1950 -0.462 -0.689 -0.558 39 40 44 0 0
1.0157 2.3741 3.1966 -0.472 -0.792 -0.386 41 42 46 0 0
1.0388 2.4984 3.2256 0.811 -0.575 -0.105 39 40 44 0 0
0.8431 2.4331 3.1979 0.096 -0.858 0.504 32 33 36 0 0
0.8259 2.4303 3.1961 0.090 -0.849 0.521 31 32 35 0 0
0.8060 2.4223 3.1930 0.065 -0.998 -0.006 31 32 36 0 0
0.8093 2.4862 3.2073 -0.611 -0.340 0.715 30 31 35 0 0
0.6254 2.5504 3.2090 -0.783 -0.530 -0.325 37 38 42 0 0
1.4201 2.3387 3.2305 0.667 -0.702 -0.251 56 56 60 0 0
1.2504 2.3056 3.2115 -0.499 -0.866 -0.010 51 50 55 0 0
1.1042 2.3051 3.2013 -0.003 -0.863 0.505 43 44 48 0 0
1.0878 2.3044 3.2000 -0.003 -0.863 0.505 42 43 47 0 0
1.0283 2.3392 3.2037 -0.778 -0.408 -0.478 41 42 46 0 0
1.0208 2.4092 3.2187 0.578 -0.729 0.366 41 42 46 0 0
0.8153 2.4958 3.2238 -0.959 0.153 -0.241 36 37 42 0 0
1.0160 2.3717 3.2241 -0.351 -0.936 0.010 43 42 47 0 0
1.0272 2.4188 3.2354 0.574 -0.738 0.354 43 43 47 0 0
0.6785 2.4712 3.2228 -0.884 -0.076 0.462 40 40 45 0 0
0.6775 2.4988 3.2289 -0.903 -0.186 0.388 42 41 46 0 0
1.7327 2.5786 3.3501 0.057 -0.383 0.922 49 48 53 0 0
0.5714 4.0747 3.6062 -0.978 0.205 0.030 194 194 194 0 0
1.7534 2.6085 3.3734 -0.084 -0.461 0.883 49 48 53 0 0
1.6991 2.5526 3.3567 0.179 -0.522 0.834 50 49 54 0 0
1.3661 2.4064 3.2993 0.273 -0.912 0.307 53 52 57 0 0
0.8175 2.4647 3.2729 -0.597 -0.742 0.304 44 45 49 0 0
0.8062 2.4729 3.2740 -0.512 -0.507 0.694 45 44 49 0 0
1.9110 2.6825 3.4169 -0.059 -0.935 -0.350 60 58 61 0 0
0.8042 2.4676 3.2866 -0.478 -0.878 0.016 45 44 49 0 0
1.6972 2.5736 3.3911 0.364 -0.664 0.653 51 50 53 0 0
1.1585 2.3600 3.3019 -0.261 -0.813 0.521 49 48 53 0 0
1.1408 2.3576 3.3001 -0.105 -0.865 0.490 49 48 53 0 0
0.9030 2.4737 3.3093 -0.314 -0.944 0.095 45 44 49 0 0
1.8756 2.6805 3.4442 -0.191 -0.238 -0.952 57 57 59 0 0
1.7044 2.5829 3.4087 0.418 -0.634 0.651 49 49 52 0 0
1.2113 2.3382 3.3149 -0.393 -0.904 0.166 42 41 46 0 0
1.1994 2.3455 3.3157 -0.530 -0.843 0.085 43 42 47 0 0
1.1861 2.3504 3.3159 -0.649 -0.736 0.193 45 44 49 0 0
1.0752 2.4372 3.3277 0.088 -0.996 -0.030 49 47 52 0 0
1.0759 2.4368 3.3419 0.088 -0.996 -0.030 48 47 52 0 0
1.0598 2.4371 3.3407 -0.344 -0.934 0.092 47 45 50 0 0
1.4747 2.3818 3.4025 -0.046 -0.873 -0.486 40 40 42 0 0
1.2315 2.3387 3.3732 -0.545 -0.828 -0.131 44 44 46 0 0
0.8169 2.4819 3.3748 -0.243 -0.815 0.526 39 38 43 0 0
0.8033 2.4859 3.3747 -0.243 -0.815 0.526 39 38 43 0 0
1.0623 2.4075 3.3904 -0.512 -0.650 0.561 44 44 46 0 0
0.8770 2.4179 3.3782 -0.657 -0.527 0.539 40 41 44 0 0
0.8669 2.4280 3.3799 -0.689 -0.516 0.509 41 42 44 0 0
0.8437 2.4719 3.3886 -0.693 -0.518 0.501 39 40 42 0 0
0.8342 2.4834 3.3906 -0.491 -0.756 0.434 40 41 43 0 0
0.8258 2.4969 3.3931 -0.498 -0.866 -0.030 42 42 44 0 0
0.8493 2.4805 3.4051 -0.693 -0.518 0.501 60 61 63 0 0
0.8385 2.4897 3.4065 -0.491 -0.756 0.434 66 67 69 0 0
0.8273 2.4980 3.4076 -0.474 -0.799 -0.370 63 63 65 0 0
1.4638 2.3867 3.4461 0.528 -0.802 -0.280 47 47 49 0 0
0.9802 2.4291 3.4173 0.617 -0.693 0.373 35 34 40 0 0
0.8921 2.4421 3.4133 -0.665 -0.392 0.636 41 42 43 0 0
0.8770 2.5007 3.4263 -0.522 -0.358 0.774 40 41 43 0 0
0.8566 2.4924 3.4226 -0.612 -0.507 0.607 37 38 40 0 0
0.8299 2.5014 3.4226 -0.388 -0.921 0.031 41 41 43 0 0
1.6270 2.4527 3.4900 0.463 -0.716 -0.522 54 54 56 0 0
1.2404 2.3473 3.4327 -0.318 -0.912 -0.260 44 43 48 0 0
1.1326 2.3578 3.4264 -0.423 -0.906 -0.029 37 37 42 0 0
1.0908 2.3144 3.4124 -0.994 -0.108 -0.022 38 38 43 0 0
0.8342 2.5369 3.4457 -0.520 -0.706 0.480 26 27 29 0 0
0.8232 2.5459 3.4470 -0.520 -0.706 0.480 28 28 30 0 0
1.5444 2.4036 3.4858 0.586 -0.747 -0.315 51 51 53 0 0
1.0238 2.3628 3.4328 0.192 -0.956 0.222 36 37 41 0 0
0.7632 2.5204 3.4499 -0.182 -0.488 0.854 24 25 27 0 0
0.7528 2.5302 3.4515 -0.268 -0.415 0.869 24 25 27 0 0
1.0228 2.3596 3.4459 -0.766 -0.606 0.215 37 38 42 0 0
0.8563 2.4872 3.4635 0.114 -0.754 0.647 25 26 28 0 0
0.7369 2.4986 3.4564 -0.830 -0.448 0.332 26 27 29 0 0
0.9173 2.4528 3.4742 -0.399 -0.513 0.760 34 33 38 0 0
0.9072 2.4632 3.4759 -0.399 -0.513 0.760 33 32 37 0 0
1.1375 2.3329 3.4771 0.196 -0.960 -0.199 41 40 45 0 0
0.7403 2.5897 3.5215 -0.957 -0.289 -0.028 37 36 41 0 0
1.1845 2.3527 3.5285 -0.339 -0.938 -0.078 41 40 45 0 0
1.1712 2.3575 3.5286 -0.339 -0.938 -0.078 41 40 44 0 0
1.1718 2.3570 3.5427 -0.256 -0.957 0.137 39 39 41 0 0
1.1577 2.3608 3.5424 -0.256 -0.957 0.137 38 38 40 0 0
1.1997 2.3479 3.5570 -0.249 -0.921 0.300 48 48 50 0 0
1.1466 2.3663 3.5711 -0.219 -0.925 0.311 41 41 43 0 0
1.2012 2.3205 3.5783 -0.052 -0.951 0.304 50 49 53 0 0
1.2051 2.3253 3.5941 -0.052 -0.951 0.304 47 46 51 0 0
0.4237 3.8744 3.9269 -0.793 0.272 -0.545 193 193 191 0 0
1.2080 2.3286 3.6094 0.042 -0.986 0.160 45 44 49 0 0
1.2003 2.3699 3.6195 -0.041 -0.971 0.238 39 38 43 0 0
1.1748 2.3818 3.6203 -0.186 -0.875 0.448 41 41 43 0 0
1.1590 2.3828 3.6191 -0.333 -0.844 0.420 40 40 42 0 0
1.1064 2.3459 3.6327 0.158 -0.942 0.295 42 42 44 0 0
2.1395 2.7347 3.8494 0.366 -0.703 -0.609 176 177 179 0 0
2.1403 2.7343 3.8649 0.496 -0.793 -0.353 178 179 181 0 0
1.2199 2.3693 3.6781 -0.581 -0.812 0.051 43 42 47 0 0
1.1534 2.3644 3.6988 0.169 -0.614 -0.771 41 40 45 0 0
1.1733 2.3689 3.7162 -0.100 -0.950 0.294 39 38 42 0 0
1.1857 2.3609 3.7294 -0.394 -0.902 0.176 40 40 42 0 0
1.1756 2.3714 3.7313 -0.137 -0.956 0.258 40 39 44 0 0
1.7686 2.6896 3.8930 -0.101 -0.830 0.549 59 59 59 0 0
1.2304 2.3793 3.7532 -0.261 -0.913 0.314 41 41 43 0 0
