ply
format ascii 1.0
element vertex 733
property float x
property float y
property float z
property uchar diffuse_red
property uchar diffuse_green
property uchar diffuse_blue
end_header
1.5357168862675035 3.0738455876688784 1.3587075547571046 13 13 15
1.541855267943803 3.0566004863480476 1.358199356776819 14 14 16
1.5718188409083678 3.0312417009057957 1.3499302352493596 17 17 19
1.568528586961721 3.017321448299736 1.35248215212469 25 26 29
1.557461592411073 3.006032748913058 1.357568954300841 38 39 43
1.539058666431423 2.9971834332268754 1.3650511888751231 43 44 48
1.5071254060108228 2.992804514367293 1.3769543727146325 49 50 54
1.5810772402432935 2.9082607390612583 1.3587064356862577 43 46 49
1.5998503287454942 2.8872375430270054 1.3540309210512471 43 42 47
1.6442624899312719 2.858008036542234 1.3409519476599072 43 42 47
1.671732044835212 2.834403282136072 1.3334062094676893 31 31 33
1.6576997977949173 2.824176746412276 1.3394537749632052 17 17 19
1.6483508919339291 2.8124226099443357 1.3439691438521026 19 19 21
1.6373452324950297 2.8011696078396593 1.3490303980228022 20 20 22
1.4078473398370004 2.7527084023594734 1.4362482120653886 14 14 16
1.200569848288689 2.7380161847754976 1.5121600321544548 36 36 38
1.1369094619245 2.7101476592808633 1.537772995095053 42 41 46
1.2149303125739193 2.6725015883684597 1.5134481094609162 43 42 48
1.2714489355069014 2.6412313288209814 1.4962206265296032 48 48 50
1.2037562981285321 2.6144827274006373 1.5231719958570824 53 53 54
1.18274775097006 2.604999193618695 1.5316527315947581 31 31 36
1.1635439449788012 2.5949584375914463 1.5395399359202544 29 30 32
1.1313964002809351 2.5883764545592167 1.5517369028195471 50 52 50
1.0585754013976487 2.592664012766985 1.5774764580239193 83 85 82
1.0462110584779654 2.5804982442013222 1.5831156531721264 124 124 122
1.821877071935521 3.8624550533279636 1.193726558434199 165 165 167
1.795633080944944 3.859110109416066 1.2035295463851046 106 106 108
1.8280611318940831 3.8288833880421413 1.1947825710014497 67 66 71
1.8554251927345105 3.801101415008282 1.187624440864198 52 51 56
1.9182083663201501 3.368212607392063 1.2073634332669856 25 25 27
2.0142918401642 3.2712701525010273 1.1821694751225773 26 26 28
1.9953461290401426 3.2641431625696544 1.1897079389045706 32 32 34
1.999598764729571 3.2479059896510565 1.1897631643301652 32 32 34
2.0083595073346308 3.215420381476545 1.189782481378932 31 31 33
1.9652247585520475 3.2174836457555216 1.2051540253963815 30 30 32
1.5707395177831738 3.0195707090583004 1.3669696324734673 19 20 23
1.5592272678116934 3.008430758690931 1.3722173861494822 33 34 38
1.5498489798259438 2.996541783235217 1.3767680555613544 40 41 45
1.5128079170795676 2.993895367184271 1.3904008631547322 45 46 50
1.6755945724296561 2.8360222225431952 1.3470928240311886 39 39 42
1.6688940587017584 2.8234522140185474 1.3507434068311552 23 23 25
1.6566227200447858 2.8126418116202023 1.3562329439092773 18 18 20
1.6536681768200978 2.798852289912666 1.3586505217957532 20 20 22
1.649886174348566 2.7853245503465347 1.361341206537776 21 21 23
1.2009598402992232 2.7407666504366226 1.5277896308609553 34 34 36
1.3070057534284385 2.633959928318735 1.4999650888057583 48 47 49
1.218462913062333 2.6131832677410998 1.5339685267127854 37 36 40
1.1973821961599904 2.6037432375484504 1.5425044177096001 27 26 32
1.1809064581373938 2.592978421541389 1.5495074742362083 25 26 30
1.1566332872597758 2.584286996858447 1.55912265580761 49 51 50
1.0763080577793325 2.59066129560905 1.5874993884258373 76 78 75
1.0655655449544663 2.5780863792236155 1.5926098030861504 113 114 111
1.0564481881535621 2.565052416528808 1.597178429370868 165 165 163
1.7893757328442372 3.8655500820872235 1.2206633301357879 127 127 129
1.8589599261569616 3.8183014398098427 1.2000229960127058 81 81 84
1.883336329863509 3.7919169498381615 1.1937511978935114 61 61 65
1.914580083351959 3.37287199021079 1.2232780485732988 14 14 16
1.9577530837738735 3.3407857255401248 1.2107421387646915 17 17 19
2.006238372985116 3.262985004543008 1.2007365848876579 32 31 35
2.0066657309631593 3.2482506848156385 1.2020183440410082 32 32 35
2.000502641697742 3.2360917710602815 1.2054402272741203 33 33 35
2.0075851349673357 3.204273659967114 1.2059731799305515 30 30 32
1.527544457775602 3.037302682212437 1.3964324507652357 16 17 19
1.5639744434622924 3.0098201614249374 1.3858942284527187 26 27 30
1.5452982689728971 3.00106825927809 1.3935241003231233 37 38 42
1.5229811670639586 2.9934798867099013 1.4023615775484555 42 43 47
1.5882845690967065 2.881914494938169 1.3895463417560667 43 44 47
1.636982764542126 2.85132567695659 1.3748596567159 38 38 40
1.674652579526263 2.824464071869957 1.3638110283284275 31 31 33
1.66530709647422 2.812727095559723 1.3683464599826605 16 16 18
1.6627120023810664 2.7988309819939396 1.3706431420576424 17 17 19
1.6475599202580038 2.788889617616207 1.3771103296125538 20 20 22
1.6419423685789496 2.7759216896037304 1.3804131622469653 22 22 24
1.6374183171408652 2.7626054772126594 1.383353194356166 20 20 22
1.6189604028331401 2.753592401415653 1.3909293415285795 16 16 18
1.3991242274635882 2.745935358897564 1.4714409631084107 14 14 16
1.225054929084564 2.736587309226916 1.5355115163723019 31 31 33
1.246340238728507 2.715048382781553 1.5298887686381557 37 36 39
1.2000571908570437 2.713113571457438 1.5468706960288126 40 40 44
1.3195086615527922 2.633198331164186 1.511322104626548 47 47 48
1.3010903684772634 2.6232678453035287 1.5189733371802723 51 51 52
1.293041271191022 2.6103835096574355 1.5231502757048327 42 42 46
1.2102374826820752 2.6029718008591103 1.5539174007733907 24 24 29
1.1952847005371803 2.591808228761301 1.560431458595243 32 34 34
1.177395154437548 2.581402664841718 1.5679371689508421 56 57 56
1.1266153855886911 2.579840196926551 1.586514368935972 74 75 74
1.0676168437496343 2.5803133537322673 1.6078751485481757 109 109 108
1.0617742777340196 2.566401999513128 1.6113516234051881 164 164 162
1.7746628594055904 3.875885828397262 1.2405463262641843 146 146 147
1.8470736675769865 3.8272715251720233 1.218861979482219 86 87 89
1.8823826335084308 3.3890386009229134 1.2485256342117652 13 13 15
2.0154320574188906 3.2624889623977964 1.2122955843259977 32 32 36
2.01363344537124 3.248632157760433 1.2142964671425671 33 33 37
2.0097551992864835 3.2355901610344775 1.2169765576586054 33 33 35
2.017093548859207 3.203685821368083 1.2173976576559415 31 31 33
1.5662447016274479 3.012050362795378 1.4003928992916466 20 21 24
1.555565248774334 3.000600076586286 1.4053984179305647 32 33 36
1.5333515712790742 2.9929942538472347 1.4142365004881405 40 41 43
1.5937069133110147 2.883064845889838 1.40289968938519 43 44 46
1.6237655844274748 2.8584700889663934 1.3943267240196267 41 42 44
1.676757026157238 2.826646910646542 1.3780934031308165 45 45 47
1.6721292174874778 2.813403204903457 1.3810663870637547 28 28 30
1.6627804768642647 2.8016511146153134 1.3856159820051197 17 17 19
1.6530807843211046 2.78998741474581 1.3902849650897078 20 20 22
1.6553520064266616 2.77455096231561 1.3909551926089412 23 23 25
1.6310800549105764 2.767399561777889 1.4004996762676325 21 21 23
1.6151283750900103 2.757595588083717 1.4072678091501438 20 20 22
1.2334890591680898 2.736980526249439 1.548426482131319 28 28 29
1.2293829898976267 2.707485366870638 1.5527867201583894 39 39 42
1.1929521852634009 2.7026223115275028 1.566542576112756 43 42 47
1.2853052780340142 2.645677794375513 1.5383952472018094 46 46 47
1.2799007483568912 2.601658732138192 1.5446387510514266 32 31 37
1.218015340265067 2.5883395660149384 1.5684969681366498 43 43 44
1.181136151965375 2.583148020061521 1.582448204710212 61 61 62
1.8205157151905529 3.8737966204740424 1.2395150871678522 171 169 170
1.7899719802263603 3.8724296500375748 1.2508391885263621 156 155 156
1.8444347059049844 3.8320216285120035 1.2347868567066278 87 88 90
2.0251417341641744 3.26178620464698 1.2236674116881727 35 35 39
2.019157944977227 3.249576477438087 1.2270397367334864 35 34 38
2.0152524960979465 3.207469838205077 1.2325391533305134 33 33 35
1.9281826828047954 3.1384995742838266 1.2711077431128437 12 12 14
1.5692613785637626 3.0140288421202 1.4146523111883427 15 16 17
1.563324094847041 3.00097537316329 1.418089118027768 25 27 27
1.5427014850766405 2.992847415650675 1.4264311082354548 36 38 37
1.5210747550226198 2.9849904011384387 1.4351148558003308 40 42 41
1.5963559265070941 2.870210296757293 1.4186199564165656 43 44 46
1.632471121880744 2.843724143158722 1.4079455044512548 42 42 44
1.6785576467469512 2.8142034541860115 1.3939104941286162 36 36 38
1.6709379400620141 2.8019080683099333 1.3978905385475986 20 20 22
1.661425403143936 2.7901939770618283 1.4025080006377646 20 20 22
1.6496432304348887 2.7791687639097025 1.4078905570698388 24 24 26
1.6393423886869494 2.767650616133644 1.412777942564368 20 20 22
1.6301050174227991 2.755777312774125 1.4173099598829757 20 20 22
1.5163780760953376 2.746198360987671 1.4599080104568876 14 14 16
1.4540162170297997 2.7501441174024914 1.4823777880859734 14 14 16
1.441258029102008 2.738963081158081 1.48813303772932 14 14 16
1.4068231659325414 2.734222522943099 1.5012089075464903 15 15 17
1.3140719241313208 2.6554610929939613 1.5428053472969343 47 47 50
1.8208807072389857 3.877208211568331 1.2545539657358704 170 168 169
1.7910730322783301 3.8755059711483812 1.2656935455076523 140 140 141
1.8369786837926074 3.8389869950638063 1.25230213861902 78 79 81
2.0419899491354774 3.2582688636482913 1.2326612101629888 35 34 38
2.0308491846753807 3.2481041877697097 1.2377410550598709 37 36 40
2.025941898231957 3.2354792683367823 1.2407621969775633 33 33 35
2.027144326709352 3.220478246534046 1.2417621162927537 33 33 35
2.0232940665679005 3.2074447694819708 1.244433328693042 32 32 34
1.939758730119591 3.122644137098171 1.283348423766656 12 12 14
1.553759550605795 3.0223083779848 1.435131710551598 14 15 16
1.5714643568820863 3.0012194374566135 1.430640563245232 20 21 21
1.5506631280594616 2.9931642346274963 1.439074740692238 30 32 31
1.5279307549924697 2.9856897417637387 1.4481641617218068 38 40 39
1.4984564447741813 2.980385433869944 1.4595274076496045 42 44 45
1.5915549930976491 2.8746654546418977 1.4354137027056701 44 44 46
1.61002594104834 2.8538176405592846 1.4306172547527187 44 44 46
1.6981319329619071 2.810802133784132 1.4023114973962276 41 41 43
1.6927709754385278 2.797818516551495 1.4055341881947054 29 29 31
1.6881571355562368 2.7845916273959044 1.4085051690858739 20 20 22
1.6740935642353527 2.774326615217494 1.4146709082634532 18 18 20
1.6440082897676207 2.7690214379313356 1.4262592088931503 17 17 19
1.6305772133098073 2.7437018768918904 1.4336398778672759 17 17 19
1.5276841584064718 2.760499141841482 1.4699120377309933 17 17 19
1.5343303937806345 2.743559843807802 1.4690938303966627 15 15 18
1.2807241132994673 2.698297669533727 1.5668304590097377 47 47 46
1.303969503522218 2.661149506696547 1.5618435918467652 53 53 55
1.164760364142923 2.5778107335354226 1.621118471607668 83 84 85
1.0743073654111686 2.586861333856247 1.6535549303462285 115 115 114
1.014750840070332 2.587320882467361 1.6754408171462523 151 151 150
1.8173526962975735 3.882426035016611 1.270878242522326 166 166 166
1.7709637908815952 3.8883619075519102 1.2874749404607462 114 114 115
1.8493015970840947 3.8368866305319638 1.2634156511464898 70 71 73
1.8973270956406378 3.7995879541677575 1.2492155380227796 74 77 78
2.0323829561269457 3.2360642978564003 1.2531844411761885 33 33 35
2.023373538665566 3.2250302726702933 1.2575743373533428 33 33 35
2.0465457418471993 3.2015401092925333 1.2512486821763278 31 31 33
1.5791341248558508 3.001620354402315 1.4433381497333853 19 19 21
1.5397125539039886 2.9847379262717366 1.459541032200694 35 36 38
1.5174908860152556 2.9770410836430585 1.4685003004759858 40 41 44
1.5828013598559745 2.8804068127297398 1.4535841870418653 44 45 47
1.597050564219562 2.860884003191846 1.4501804656112505 43 44 46
1.707634350955428 2.8106118500673247 1.4140742969630031 43 43 44
1.6984067070641244 2.7988675265837433 1.4186129339448994 38 38 38
1.690683730943023 2.7866257051925984 1.4226424335041883 21 21 21
1.6782701353678633 2.775841866404197 1.4282680006619222 17 17 17
1.6653638459970221 2.7651783087751927 1.4340643614646973 16 16 19
1.6631176403479868 2.751168871354722 1.436236539721294 16 15 18
1.2905501993637538 2.7135402310598358 1.577696519589314 48 48 50
1.1874537868652397 2.666522676261607 1.6203451162535458 45 45 46
1.2471757542839885 2.5886135154897194 1.6057044368547189 53 51 54
1.1573922544971182 2.582582139973021 1.6395036234573102 89 91 88
1.1008769579095237 2.5824773676883055 1.660425537836377 99 101 98
1.7905490400915245 3.882926688544698 1.2963398183162635 99 99 100
1.8581926717727693 3.836355850713085 1.2756254256200945 68 69 71
2.0539099763971054 3.245268332324339 1.2591689476077186 32 32 34
2.041641457286702 3.2355471867805625 1.264656832980759 33 33 35
2.0296975787500178 3.225665173518687 1.2700393363632516 33 33 35
2.0216556280991975 3.214240586618139 1.27411798415236 31 31 33
2.0334763870629446 3.1951534995838125 1.2715412758398947 29 29 31
1.546403033735002 3.0157169849050347 1.4697416992782537 17 17 19
1.5665725056967135 2.9937955354403716 1.4643307963506735 22 23 25
1.5432031873211032 2.986560747427518 1.4737093191795612 30 31 33
1.5189553165320913 2.97954385295311 1.4833937476272117 36 37 41
1.5924658189110468 2.8652605366699464 1.4669491943585067 44 45 47
1.7183879888550164 2.8100174017643584 1.4253917944410386 43 44 45
1.7188229457867827 2.7952101714736064 1.426640819211884 40 40 40
1.7062699465679099 2.78452796546853 1.4323260451654005 34 34 34
1.696230550940719 2.773020647044983 1.437155269601124 22 22 22
1.6849686746061276 2.7618708630336046 1.442404975626229 19 19 20
1.6842250967794996 2.747421567084303 1.444058103802703 16 16 17
1.6551377727205938 2.7270307853406353 1.4568161389399283 18 18 18
1.1707066936680373 2.5817338916258974 1.6507814708341209 94 96 91
1.1084939753882443 2.583201629796575 1.6737737043662988 85 87 82
1.7987808894857238 3.882721290730057 1.3088914034215158 92 93 94
1.8636114445809995 3.837418002606155 1.2889649927797253 68 69 71
1.9289366399825048 3.3418631146065763 1.3115488589896398 32 32 34
2.0371932636090486 3.2258427436294337 1.2821031431714052 32 32 34
2.0256080260637512 3.2157976218258923 1.287384201575977 31 31 33
1.5196918474568673 3.027798579662967 1.4942339518520082 14 14 16
1.566210792095249 2.99691475652998 1.4797818849855624 18 18 20
1.5416922991143884 2.9900633301901323 1.489592284272319 26 27 29
1.514162422119542 2.9689846812279486 1.501876906538685 39 40 43
1.6006458136902662 2.8655275118053645 1.4793749017113242 46 47 49
1.7231572136412847 2.811337216370388 1.438740216235288 51 51 52
1.7383936932063528 2.791810937676465 1.4348990704995115 46 46 46
1.7297714294197524 2.7799143288542734 1.4392486560697333 50 50 50
1.716828202418406 2.769359200802941 1.4450854541139821 50 50 50
1.7066425681229824 2.757904885083024 1.4499772130049244 48 48 48
1.7109663909032786 2.74190898659194 1.4498785365938054 46 46 46
1.7114872933835188 2.72711846324438 1.4510864252689892 46 46 46
1.6734689096186552 2.7241945591853085 1.4655682892726705 49 49 49
1.1955223712882812 2.6545020505774555 1.6507494813277157 46 46 49
1.180376560167254 2.5818730520600677 1.663295370900677 88 90 87
1.1171062799083389 2.583654857015008 1.6867657470013624 73 75 73
1.8125459193333382 3.8799547122294955 1.3195936828796466 94 94 95
1.8648153642767247 3.840419696349432 1.3037013363920287 65 67 67
1.880821118314577 3.8177272822568433 1.2998339086819417 49 51 55
1.9651745736192026 3.330587643104457 1.3141389569577926 24 24 26
2.0382689218548715 3.2139797565090276 1.2977020871704013 32 32 34
1.984101839531484 3.0892424805933465 1.329810049542554 11 11 13
1.5566546846377953 2.988035272870052 1.4998374978583318 20 20 22
1.5217851879566193 2.969441030186387 1.5146833459275273 35 36 40
1.493007687286037 2.9638122798439754 1.5260184649282824 41 42 44
1.6267570885858422 2.874889335776455 1.4841971692037796 46 47 49
1.7478631703264815 2.791624218623493 1.4465885842109005 48 47 50
1.7388704544259825 2.77985593767923 1.4510753406612031 59 58 58
1.7291601012479596 2.7682929628160133 1.4558121431506468 71 70 69
1.7317543499371988 2.7528490233890786 1.4562957080455068 79 79 78
1.734011336204277 2.7375325125751044 1.4568938649396053 85 85 84
1.7287546339240552 2.7245644196827943 1.4600912460112618 85 85 84
1.2876596518755088 2.600920770368374 1.6373599212083156 49 53 54
1.2474564551970075 2.581589405652037 1.6542777603594154 90 90 92
1.1907144770826579 2.5818268923708354 1.6755579271644438 74 74 78
1.1311894108842702 2.5826234851964336 1.6978301801188644 69 69 73
1.0652517330484903 2.584940862183865 1.722366389022662 80 81 82
0.9396497759968527 2.571489512961068 1.7707904664889935 173 173 171
1.8109279623236774 3.884298623828549 1.3353950982129648 104 105 105
1.8802520747972027 3.836866651553085 1.3136986340543408 65 67 66
1.887653347805058 3.818134049413705 1.3126660638861805 54 55 58
1.4921337789510525 3.0585031068415534 1.5332178463211308 12 12 14
1.5470610193413719 2.994260225539067 1.518531342876655 17 17 19
1.5317956729144675 2.9691011121456574 1.5266530231889837 31 32 36
1.4985440448971596 2.9649712182188446 1.5395846016155101 38 38 42
1.6951002269411004 2.8260574919626684 1.4784841129238013 46 46 50
1.7539683817102452 2.7925087910299706 1.4594280239334625 47 47 50
1.7557397077566295 2.777326650384502 1.460185792033566 63 62 63
1.7249861048884916 2.743148013095723 1.4749973398520366 84 84 82
1.724360459307354 2.728718825907602 1.4765886089720404 85 85 83
1.702956754333675 2.720704609673926 1.4854155681604806 86 86 84
1.2906917431368026 2.6180579691551302 1.650577420791583 46 48 49
1.2117216417508645 2.578863433573459 1.6840490385518783 64 64 68
1.1581282366673946 2.5780988373171594 1.7043381649776823 68 67 71
1.0989130810753553 2.5786656258756393 1.7266229632684047 77 77 77
1.0257782644823488 2.5827536916196276 1.7538280118370546 90 90 88
0.9757817805274696 2.5804379265910287 1.772905946149199 118 118 116
0.942688281715162 2.5734913046420265 1.786042432361201 163 163 161
1.8407506931481197 3.889538952308915 1.3392213116560574 169 169 169
1.8092278927217456 3.888686557788284 1.3512494880496648 121 122 122
1.8670320069130866 3.8465212142539142 1.3332805802299046 73 75 74
1.501134060054823 3.043216179450382 1.54705942042637 12 12 14
1.5225471092229008 3.0207156604196594 1.5410461544883995 14 14 16
1.5048053933969723 2.965889611546714 1.552895813135514 35 34 40
1.6929672511017602 2.8296113512513137 1.4943127671150034 48 48 51
1.7321602499335333 2.802319698429902 1.4820079780183095 53 53 55
1.765503175553517 2.7770478290497085 1.4717318225602298 71 70 69
1.7338360589054824 2.7578196688773886 1.4855323484725977 83 82 80
1.6988695522435198 2.7541115453814804 1.4991327729945985 84 83 81
1.684072198024535 2.7440235845970586 1.505684565227469 78 77 75
1.1807119338802337 2.5747425230203405 1.7123030977813043 64 64 67
1.1164442299374318 2.5767228482196876 1.7364782197255175 73 73 72
1.0528558302575393 2.5782988477669257 1.760433649815114 83 83 81
0.9493867550533562 2.558800410298775 1.8014754766483922 173 173 172
1.7860681775664766 3.9030314166098097 1.3743769770472545 142 143 142
1.8801370735178247 3.8440382181435178 1.3440382262891228 91 93 92
1.9032258627357255 3.6656809672505615 1.3518359579879196 20 21 23
1.5102520403755582 2.9670770277551752 1.5664868285792335 33 33 39
1.70872077301787 2.7832358174981593 1.5080007104171518 82 81 77
1.7207204109276883 2.7647620746072974 1.5051490786178439 83 79 78
1.7203728818165545 2.750206832547372 1.5066353953518101 87 83 82
1.689128901738351 2.745266287989721 1.5189943390442053 82 78 77
1.3793367229080737 2.583643473577485 1.6520141168210933 83 79 82
1.3319124898526236 2.581746711722378 1.6702522194894762 66 65 67
1.285379523173025 2.5794427651739262 1.6881887578526575 57 57 57
1.0708047611930682 2.5762783778986384 1.7702045597167746 79 79 77
0.939469422797057 2.5642030996707605 1.8213472863994855 160 160 160
1.771102534661521 3.9135989446466737 1.3948316945161883 157 157 157
1.8637000039648148 3.8552007630281544 1.3648038351230418 92 94 93
1.9197407208629145 3.692168656244926 1.35845094340984 25 29 30
1.7612492364576664 3.608352695745413 1.4268589171122472 25 25 27
1.5583427546885102 2.954112486242676 1.5650672446832201 26 27 30
1.7241253075246523 2.81059376909531 1.5149136567389205 72 72 70
1.728752504807837 2.779729039616914 1.5160001460050345 81 81 79
1.7222943286742645 2.7670912346948944 1.519641347044344 79 78 76
1.73461583397323 2.7485629414948614 1.516641508875716 82 81 79
1.446311347018391 2.5975878688024494 1.6409412827147385 72 72 73
1.41974109980162 2.5900997242306376 1.651801960182202 77 77 77
1.3817570683576517 2.585717950116482 1.6667427336895557 65 65 66
1.3386536700052616 2.5826311414562952 1.683522633464159 56 55 58
1.0139891940362675 2.5786736531462306 1.8081266451101234 82 84 83
0.9497120775582129 2.5485777131599003 1.8355092226647796 172 172 170
1.8510222117554653 3.8955661287753447 1.3815198314684198 173 171 172
1.8056500152465509 3.9011795146214236 1.3984473710507868 164 163 164
1.8471052320178263 3.8664560067434146 1.385707388162556 102 104 103
1.5385447645047667 2.993996361086715 1.584711365306299 15 15 17
1.5783221541383494 2.950455010801585 1.57342875165339 23 24 27
1.7603512776262527 2.7871777105811795 1.5184832291490056 81 81 79
1.4831322201053434 2.619752131948782 1.6404908753097036 51 51 53
1.4867850825618525 2.6037747815590513 1.6405582277603037 71 71 73
1.4810139050445466 2.5904968801341495 1.6440002532062057 76 76 77
1.43799796154156 2.587706045297673 1.6607960431107673 64 64 65
1.37975011063242 2.5890335316917548 1.6830688025115303 53 53 55
1.3444808524817584 2.583768537706896 1.697114072942677 52 52 56
0.9360595760926808 2.5549417878951863 1.8567987191887918 159 159 157
1.8547765262817422 3.8974234183049608 1.395516828838884 173 171 172
1.8035553261758994 3.905774633570074 1.4145377581404803 154 154 154
1.8362504238403414 3.875073036777303 1.404722100260114 86 88 87
1.8947966825181677 3.8325968627731735 1.3859996103291472 96 97 98
1.5768916396723454 2.9841093112934995 1.5865810771575586 16 16 18
1.5804653028509978 2.952718540629732 1.588078028707987 20 20 23
1.44571571120647 2.588276784949068 1.6735375601866274 53 53 55
1.3766251878806324 2.5926671215927137 1.6998243764673715 50 49 54
1.341073513049941 2.5874766421026454 1.7140335617202624 51 50 55
0.9438159793559302 2.5399583962934913 1.8718475372354724 172 172 171
1.853870381609508 3.901460832126575 1.4111280464409444 172 170 171
1.8608019828252877 3.8672917144165275 1.411554437327208 75 75 75
1.9077997812482097 3.8301565368961183 1.396701216642182 79 80 79
1.7884187686443593 2.8131241901519357 1.5357996541812193 75 73 71
1.8027368186568737 2.793890875298825 1.5319969588413016 81 78 77
1.782213385005503 2.785865287077117 1.5406943669496267 83 80 79
1.7289624839734705 2.7881788291871095 1.561150630704496 88 85 84
0.9310440916388611 2.5460750288764054 1.8929146286184477 157 156 155
1.8403627570528351 3.8803688842865602 1.4339568981658237 75 73 74
1.8981642214193521 3.838168031671242 1.415248389734633 76 75 74
1.9504963079803512 3.7834820674860015 1.3998056837707065 57 59 62
1.7946619485591357 2.7993300214270276 1.5498899536536836 85 84 82
1.4981619583905859 2.5938565723597002 1.6841527933001879 51 50 55
0.92565948484494 2.550277162886847 1.9113443323552246 138 137 137
1.8002804230909157 3.9181951663584673 1.4619222566964112 121 119 120
1.858762446718923 3.8754292172909675 1.442873728503635 77 75 76
1.8909534725391026 3.8450715217680007 1.4330042411929387 73 72 73
1.9012352124333618 3.8249456993865807 1.4307937853925046 54 58 60
2.1001859615764737 3.2612531584463724 1.403757962903667 19 19 21
1.8207446919150854 2.8083539629731686 1.5541281461491705 86 84 84
1.7896606856963193 2.8037876554502974 1.566717724261011 85 84 82
1.760011867928583 2.7986569335349234 1.5787960330696642 85 84 82
1.725963809983644 2.7801015305879035 1.5938100521556418 82 83 82
1.7112995971343545 2.77000397384588 1.6004666348658407 78 80 80
1.6049833296690894 2.6251814757324508 1.6551942645600008 62 61 66
1.8054246038737278 3.9194345202567784 1.4755717796382213 119 117 118
1.860078906194686 3.8784198951283955 1.457746325821052 78 76 77
1.8873207846408795 3.850329740284543 1.4495484711118354 62 62 64
1.9062901881242413 3.8261760991201745 1.444252765460379 44 47 52
2.1133087253289737 3.273698209816339 1.4124150026283928 19 19 21
2.086923130680134 3.225972573587527 1.4270878200648107 28 28 30
2.0805604602549383 3.2139179693524946 1.4306751037532828 31 31 33
1.952472432982818 2.8836810015220355 1.5107588434663684 15 15 17
1.8351480437045242 2.82111020740591 1.5625567379039518 88 86 87
1.8129440828490146 2.813735593121569 1.5719582680761073 86 85 84
1.7300225906292412 2.766940824877058 1.6087985749885494 67 64 68
1.5192139956616066 2.6231721779712767 1.7046850819299995 55 54 59
1.9073032997000336 3.8908780391045568 1.4536348353734176 171 170 172
1.865487129631349 3.895002290555725 1.4698002762679503 127 125 128
1.8671981225238092 3.878713071827404 1.4705799050025687 75 75 77
1.8970100082251624 3.849422218254479 1.4614107000644698 59 63 65
1.9192075989910515 3.8237784635935745 1.4549261609890551 51 55 58
1.931554208639307 3.8027632644772567 1.4519229378502687 41 45 49
2.1370366095216093 3.3109178934808914 1.4146430917665311 12 11 16
2.0992305869300583 3.3116492174392174 1.4295262261990354 20 19 23
2.0929205416595362 3.29958682890539 1.4330995227622758 30 29 34
2.0954353921060638 3.283983138452072 1.4335000240282239 33 33 36
2.1024246710855516 3.2666213891582654 1.4322884948143462 32 32 34
2.0944837949923256 3.255212917144463 1.4364481661656643 27 27 29
2.1031746141855288 3.2372318373482383 1.4346192118770111 25 25 27
2.1000862306803203 3.2239167202496573 1.4370306488257916 28 28 30
2.0885689010707438 3.2138914158858958 1.442480804083895 30 30 32
2.1016738019732584 3.194274409679495 1.439052762577468 30 30 32
1.967746748988283 2.953710096471925 1.5135125175387645 12 12 14
1.9650539362619368 2.9401531168321338 1.5157891667279815 12 12 14
1.9743262186312087 2.9224600134466323 1.5137045584461 22 22 24
1.9628301141963398 2.9119588171589768 1.519188863069168 27 27 29
1.9466575674619404 2.9030261583214236 1.5263820165070823 18 17 22
1.933804094000744 2.892915543495232 1.5323681095899264 15 14 21
1.9164073511704185 2.8843055520399834 1.5400164659793785 18 17 23
1.8502301897858309 2.8482043696225072 1.5694101544028636 84 80 84
0.9398134618543167 2.5391935588417622 1.9570128056243123 147 147 147
1.8049411928399037 3.926952692607279 1.506697920747187 150 148 151
1.8689528240916706 3.8815034153885257 1.4853129365160564 88 89 91
1.9388906633435599 3.833576975847821 1.461794215674061 73 76 78
2.127875754548046 3.303235203503586 1.4338918280010975 39 38 43
2.123083987490069 3.290610322480997 1.4369180819510956 39 38 43
2.1229474058275173 3.276115766421092 1.43826145520828 36 35 38
2.1143001446124146 3.265024418698548 1.4426828265862592 31 31 33
2.10849509205405 3.252785323182192 1.446077274021663 29 29 31
2.1070142982891227 3.224301392344038 1.4491987942719424 29 29 31
2.1071068707879355 3.209749026953214 1.4504562827237768 29 29 31
2.1143392031442847 3.1924348612915923 1.4491232939601266 29 29 31
2.0992176237877915 3.183806463044895 1.4558973902597718 29 29 31
1.9584944247055307 2.9308516305113863 1.5342938101272656 14 14 17
1.9602131158104508 2.915763883794908 1.534952975905321 14 13 18
1.947431782958224 2.9056609766087425 1.540928602811873 17 16 22
1.930638663126892 2.896888269965451 1.5483795149470503 24 23 29
1.9168577747519893 2.887044248497454 1.5547291676537434 34 33 39
1.8846648075726478 2.854227750307221 1.5704357285869155 84 83 85
1.8479645430581617 2.7789361951173515 1.5917103644255768 62 61 65
0.9447949467500896 2.5406954463502975 1.97166257358047 146 146 146
1.8222603373098147 3.95374149218166 1.5132467342153841 175 175 175
1.871455153351359 3.8839479648587174 1.499790719181113 95 96 98
1.939350017812091 3.8369311456752087 1.4768570075981704 85 87 89
2.1110799349489233 3.313191567880063 1.4546686900452046 38 37 42
2.10660931867874 3.3003960435088633 1.4575848904314341 36 35 40
2.1176806423793515 3.2813667618659776 1.4548505614174265 36 36 39
2.1166700141346446 3.267212560506198 1.4565062512086029 40 40 42
2.117078964280563 3.2525039079679674 1.4576445086455334 41 41 43
2.1096462025931757 3.2118510342982938 1.4642076458939648 27 27 29
2.1108407387979105 3.196877719620204 1.4650558283185895 29 29 31
1.972073424830428 2.929063639385355 1.5441284960604154 15 14 18
1.9530797766080354 2.921131476080259 1.5524098798955486 19 18 24
1.9353080038292603 2.9127206343282213 1.5602460214049354 29 28 33
1.9341164998153535 2.8986020449408065 1.5619707397433527 42 41 46
1.9222413062910269 2.8881136773052676 1.5676376394386977 61 60 64
1.909318645100667 2.877945949336347 1.5736941665763222 79 77 81
1.9041687555980413 2.865136191052757 1.5768826944894463 83 82 84
1.8955390628200957 2.853479477824788 1.5813578351238227 85 83 84
1.8803428226361671 2.8439790340743825 1.5882626050117896 86 84 87
1.8118689346437462 3.9623280352469035 1.532484191379147 175 175 175
1.7842321565275254 3.9439730553852943 1.5451791155326737 153 151 154
1.8736156580093704 3.886554270571496 1.5144007624258304 96 96 98
1.8526574069407196 3.6493864218816356 1.5436794469797148 31 30 34
1.825148828680458 3.6459748902880693 1.555007574260062 33 33 36
2.074724997630048 3.331090414344378 1.4826736204454425 37 36 41
2.084131689908963 3.3126199342280422 1.4805284734070885 47 46 51
2.1093849876735664 3.2878413554629136 1.4725859044771787 46 45 49
2.0956666030739814 3.278734690994101 1.4788870416462798 38 38 41
2.1072386848702696 3.2595391952512474 1.4759376383445892 32 31 34
2.1098679686750192 3.243937454628132 1.4762569428868375 30 30 33
2.1142102652347052 3.227685001260839 1.475946802494415 26 26 28
2.0994876507162132 3.2189253088291534 1.482619979820137 25 25 27
2.1073421186419585 3.2013273406781124 1.4810202958006673 28 28 30
2.1053276802107375 3.1875975470090916 1.4830364283618593 30 30 32
1.9859068922496756 2.9416569405457667 1.5525596694796135 15 14 17
1.9740428408614021 2.931297724516259 1.5582276853210388 20 19 24
1.9387331106711425 2.899928033560373 1.575144219997876 67 68 70
1.931290821463753 2.887938298216489 1.5791831369073106 80 79 81
1.9243091503374146 2.8757774749597145 1.583052458194802 83 80 83
1.9164910720973654 2.863883493029451 1.587233595231389 86 83 85
1.8987677175945505 2.8552778675185144 1.5950961677895523 83 81 83
1.8851263281420065 2.8452632356840115 1.6014463628255495 81 81 82
0.9224516705755698 2.5204412757366246 2.015962509645329 177 177 176
1.838437077700626 3.9066120477279127 1.542530668093544 86 86 88
1.9120941995725549 3.8567610230433296 1.5172328814218925 99 100 99
2.075778096404845 3.304493026308386 1.4996753706777026 27 26 31
2.0900640542424087 3.284122918265905 1.4957059134570971 26 25 30
2.099027200125945 3.2659388088199477 1.4936886320290659 25 24 29
2.109839320636435 3.247070975422611 1.490986605073997 26 26 30
2.1225769577051112 3.2275000524596207 1.4875707034800765 25 25 27
2.1101989102136507 3.2178337329897255 1.493402047612106 26 26 28
2.0985611503007835 3.2078433344222583 1.4989636425838653 28 28 30
2.1061176096367413 3.190373772481454 1.497450289494012 31 31 33
2.1130266293549926 3.1731964456030166 1.4961720824113391 32 32 34
1.995100908878154 3.1599417006078463 1.5448237621232053 26 26 28
2.0068127184667897 2.9517390050415595 1.558339149054029 19 16 23
1.9887515971787555 2.943589098407016 1.566326387939402 29 26 33
1.9662960055504486 2.9369095016953053 1.5759546130287583 47 45 52
1.946977192276949 2.9145373904148757 1.585693763564481 74 73 77
1.9453776758536192 2.90056110986523 1.5875617994116267 78 80 80
1.9342442904950083 2.8898309218692564 1.592985055047973 81 81 82
1.9243321229904051 2.8786584015871948 1.5979552367705765 79 79 81
1.9099315527136809 2.8689688574494556 1.6046031239567955 78 78 80
1.9010609080193093 2.8573898489287486 1.6091894596557867 76 76 78
1.8458716144509402 3.906773875826365 1.5553182886989643 80 80 82
1.9271463787029852 3.8533438034960157 1.527092586069659 85 85 85
2.11458683812089 3.27746636629876 1.501427901889395 18 18 20
2.1204153844126647 3.2605641263197134 1.5005423065996855 21 21 23
2.132567765090097 3.2411922103324726 1.4973135137279339 25 25 27
2.1351277748643316 3.22566241499945 1.4976306634926981 25 25 27
2.1250082447586087 3.2151294618530994 1.5026420939962488 27 27 29
2.1243296895686297 3.2008847719382927 1.5041574718874169 29 29 31
2.111558218502119 3.191346926277032 1.51015507132925 32 32 34
2.1106311194669884 3.177195136100651 1.5117629060775863 35 35 37
2.088970389697205 3.171024295833291 1.5210633889036074 40 40 42
2.0708394678838453 3.1634317303826363 1.5290597211168409 28 28 30
2.0504586213489353 3.1566378414279965 1.5378966962151113 29 29 31
2.0265649634014054 3.1511077887881913 1.5480446997231048 28 28 30
2.045502926701652 2.9554734878991717 1.5574251204579892 21 19 25
2.008753259039322 2.9539881744054584 1.5724217347044482 32 29 36
1.99153387613556 2.9455444665201393 1.580123443801906 54 51 58
1.9773969733165115 2.9359754087974075 1.5866761531170364 72 70 76
1.9692648700350388 2.9242879491267626 1.5909841319480318 74 73 78
1.9396366156628968 2.9054294525401603 1.604613140512031 75 76 77
1.9321453875983021 2.893443475443249 1.6086878547453656 71 72 73
1.924671827402895 2.881435698827807 1.612757320342807 70 70 72
1.9116480472051731 2.871279023732109 1.618910899166044 63 63 65
1.8676823242582947 3.90020154805595 1.5628364858699648 81 81 83
1.9355127947742674 3.853034056112364 1.5393580122048751 76 76 78
2.0653846698833322 3.315023755263336 1.5331993509541288 14 14 16
2.1208323655979013 3.278113595149909 1.513864294813355 16 16 18
2.1265282803528485 3.2612635811586967 1.513009627927458 20 20 22
2.130169453158577 3.2452637801419755 1.5129163155625234 24 24 26
2.127894903490279 3.2316258333452446 1.5150224360348354 26 26 28
2.1143417815252428 3.2224209835697377 1.5213279222087643 27 27 29
2.1175560700591554 3.1921027270082627 1.5226488244259353 31 31 33
2.1018762708609677 3.183659663859314 1.5297525613243497 33 33 35
2.0869583463546695 3.174875111781164 1.536576270463217 33 33 35
2.0763649206490524 3.1643892891747956 1.5417899637145613 30 30 32
2.0685917929133217 3.152800595726764 1.5459530811766744 30 30 32
2.0613995578287545 3.14097437775136 1.549900711479462 29 29 31
2.019664352091964 3.142159823650479 1.5667587838257102 27 27 29
2.0285301075782423 2.9644111847166936 1.578558223838232 46 43 50
2.003621040661014 2.9587292371421636 1.589173390070927 62 59 66
1.9912533009870295 2.9485736009829275 1.5950795362564285 70 67 74
1.8864174245000993 3.8950548014911095 1.5714176927389025 77 78 81
2.108249553935835 3.2863087626515726 1.5333297406447086 24 23 27
2.1142546796719364 3.2692978482950505 1.5323445157256772 26 26 30
2.1320573019202422 3.2476394854461748 1.5269437933870942 27 27 31
2.1278353431934374 3.2347651775442063 1.5297770097284327 28 28 30
2.107753113978639 3.199007167083992 1.5410572904299658 31 31 33
2.089394754216804 3.1915784169088823 1.5491920205182368 33 33 35
2.0987182860123066 3.1734249542061415 1.5469506069673378 33 33 35
2.0883977493850763 3.1483142612134416 1.553328144820266 30 30 32
1.9721187251767396 3.0896848968974693 1.60585012580019 17 16 20
2.0538868366151273 3.016142248288657 1.5788089577455415 22 21 25
2.0604300003803617 2.9993229923446743 1.5775875702537592 29 28 32
2.0458117144332273 2.9901214204760467 1.5843483005857586 45 44 49
2.032999637994571 2.980232826193145 1.5904309011153301 53 52 58
2.0133761059704263 2.9727212567264223 1.5990892497707516 64 63 69
1.9915181711245666 2.9659344719900513 1.608597274271789 68 66 72
1.88733390672151 3.8982554065633876 1.5865329608157628 74 75 79
1.9137650190988638 3.8703816793858565 1.5780841294725292 69 69 74
1.9317209328506353 3.846571175328114 1.5727623564703523 60 59 64
1.9440001129694084 3.8254762882311595 1.5695356142411747 43 44 48
2.1378928637897676 3.2775697989603345 1.5370009850860273 38 37 41
2.136395469856473 3.2636007186848275 1.53881266181578 35 35 38
2.136823038097 3.2488736432032073 1.5398999573453136 30 29 33
2.1284820180036172 3.23762911849956 1.5442844053870763 31 31 33
2.0887548417585475 3.238716426305497 1.560482083313443 35 35 37
2.089812869476623 3.223690568827129 1.5613364628397188 35 35 37
2.09849947669305 3.2057095513835403 1.5593159566316954 35 35 38
2.0938211135935374 3.1929566382013546 1.5623277831272202 34 34 37
2.0800319306561783 3.169135871684228 1.5700245820185137 32 31 35
2.0692041946094637 3.0280218783162036 1.586563135790034 41 39 44
2.0310285982946654 3.027401699597176 1.6022709499304648 47 46 51
2.0198210510921744 3.0169248185291324 1.6077650589097456 54 53 58
2.013886726940577 3.0045266704166096 1.6112615007321511 57 56 61
2.010749815454024 2.99112076707334 1.6136972093401079 57 56 62
1.9999333526798888 2.9804397589627643 1.6190484474359186 59 58 64
1.9085780384836992 3.891912330755951 1.5941049651417998 73 74 78
1.9217713185673138 3.8702483936240135 1.5905179058506733 63 63 68
1.925690357175934 3.852970193455756 1.5903770181886558 54 53 58
2.165171681694586 3.284296587028607 1.5402258881814288 41 40 43
2.1495890382725373 3.2760208158189146 1.5473502827567456 40 40 42
2.1406717931542003 3.2650316653069216 1.5519605072290752 34 34 36
2.1434712929816513 3.249358648639536 1.5521438875582798 42 42 44
2.1348531149251624 3.238229999348754 1.5566428186697694 48 48 50
2.1195138600207315 3.229728307475763 1.5636862242102822 44 44 46
2.0679771287452415 3.23536876945276 1.5844338110168183 43 43 45
2.0614247740277 3.2232748095457433 1.5881641228979306 45 45 48
2.0838578323286585 3.1999194277138607 1.580915330221635 44 43 48
2.092213987059919 3.0514938431331253 1.590130423536515 43 41 46
2.070726826775571 3.0304490609472383 1.6007758434522463 55 53 58
2.0307546687675364 3.0304886250731524 1.6172374678965094 55 54 59
2.0205769715685684 3.0196337317976747 1.622355438412928 51 50 55
2.0103483589854267 3.008770677974161 1.6274950774663868 53 52 58
1.9996207874398175 2.998059176696184 1.6328273197939862 53 52 58
1.925687030328958 3.887497807830614 1.6031566931348655 79 80 82
2.1539111656156202 3.292001399257056 1.5592350545028275 41 41 43
2.163994030886535 3.2733762300882483 1.5566429162663002 49 49 51
2.151505066583083 3.2638383787413594 1.5626192583195364 49 49 51
2.1486152759627073 3.2504410696027732 1.5649512283035634 53 53 55
2.1517178230180862 3.2346703969824135 1.5650051317440532 52 52 54
2.064623650537465 3.2544961109473776 1.5993593270117756 46 46 48
2.069676402520017 3.2378336078841836 1.5986819628930344 51 51 53
2.0747181391761935 3.2212082474955492 1.5980060061487098 55 55 59
2.084773122057052 3.057237303652115 1.607753007351186 50 49 54
2.061251744630013 3.0079230850131697 1.621667735579961 44 43 48
2.0024083614290693 3.0146029426261856 1.6454479752893272 40 40 44
1.9932979635873689 3.003292056534965 1.650176796738678 37 36 42
1.9783156520985414 2.9940464617430917 1.6571599879365895 32 31 36
1.9713499777603525 2.981921447985683 1.6610704682047084 30 29 34
1.9852131662739034 2.962457721126771 1.6569853218081583 24 23 28
1.9941843140661166 2.944771089725429 1.6547735604948663 19 18 23
1.9083915910697453 3.8992631754446134 1.6250914091948874 100 102 99
1.9479666557783442 3.8652011550224414 1.611517241081426 77 79 77
2.1656823673970482 3.3341490770751023 1.5658311703088585 30 30 32
2.1160668764129995 3.3251438452438298 1.587211108535228 43 43 45
2.163185586002032 3.2914107999212328 1.570474035375582 48 48 49
2.163309377110882 3.276799219861455 1.571655150871325 49 49 49
2.159248264051035 3.26387795593056 1.5744329340947258 48 48 49
2.159616795216969 3.2491875005669244 1.575518988666296 45 45 47
2.16009087412945 3.2344695781746418 1.57656349436586 42 42 44
2.150503761261879 3.223738563391133 1.581453135443582 49 49 51
2.1416846814923667 3.2126811669070516 1.5860511123981738 60 60 62
2.140681934400629 3.1985469355062643 1.5876601526184873 68 66 68
2.134647225395656 3.128399605232396 1.5960854848891313 74 71 74
2.1179434030380677 3.1202703514735557 1.6037133728423383 72 68 72
2.099630261898564 3.1126959360799686 1.6119632934564414 69 65 70
2.0961056233379973 3.099513526090605 1.6145401458167319 50 50 55
1.9832648135888966 3.03910322811248 1.6665329427635784 31 31 33
1.9872874636710753 3.023028576414314 1.6662171022377021 27 27 29
1.9932154730452467 3.0063005699815584 1.6651645043801324 24 24 26
1.9858217295318727 2.9943496105817022 1.6692454853791672 20 20 22
1.9720041107025037 2.984656954566702 1.675805742402447 16 16 18
1.9899117753412081 2.963754938850278 1.6701264748172888 16 16 18
1.997201323095123 2.932129010128297 1.669764736620257 17 17 19
2.005799474168059 2.9146409474199326 1.6676665371293686 16 16 18
2.015857247282918 2.8966959907917427 1.665000257122381 15 15 17
2.0673450522899492 2.835950907278451 1.6487259859014953 37 37 39
1.9735497536751938 2.853220648676473 1.6862507110674596 48 48 51
1.943785354944924 2.8487066750388848 1.6990016335084008 53 52 57
1.2014765325899641 2.5475588792056003 2.032910095849245 77 78 78
1.898759188399897 3.9074395172798644 1.6442195842822143 110 112 109
1.97584028236795 3.7025805514093704 1.6292285699712898 35 35 37
2.1648926953769827 3.308463214806723 1.583372810805558 37 37 39
2.1675115136999077 3.2928206006794145 1.5835919108810255 38 37 41
2.178691700393732 3.2737504003491558 1.5805246214304614 32 31 35
2.1684934442392887 3.26331239369681 1.5856575742091534 29 29 30
2.1705751891264247 3.2479457184778524 1.5860777259669094 32 32 32
2.1656207010541673 3.2353948357955393 1.5891989252527947 34 34 36
2.1538627988878725 3.225526245661463 1.5949351816857016 52 52 54
2.150129141390937 3.2124688874201546 1.597589235482908 70 70 72
2.1470620540752265 3.19914900218204 1.599987053979673 76 75 76
2.1590440644050575 3.1799709094793287 1.5965940946906978 77 75 75
2.1170929394578994 3.1381461862034503 1.6176154537924 66 64 67
2.1028269896061555 3.1290539115398595 1.624333566653325 53 51 59
1.9972748068581514 3.00782909521857 1.6785664118271006 18 18 20
1.998805898642016 2.9926986801164572 1.6791966129257556 17 17 19
1.9772588397450532 2.985765278138695 1.6887731087036253 15 15 17
1.9955836932610058 2.9647090777226457 1.6828898911361916 15 15 17
2.007563239885806 2.9459604463975433 1.6794619309595071 15 15 17
2.0269299712615285 2.9246955550919314 1.6731612893040853 15 15 17
2.0257767742103647 2.910631652280719 1.6748225728651223 13 13 15
2.0170808206191597 2.8991764917821867 1.6794137226303587 23 23 25
2.01313812907745 2.886071102136543 1.6821590672810185 33 33 37
2.0655571089470053 2.8250831496786253 1.6653932981004251 54 53 57
1.9450880542292017 2.851149106820591 1.7134963372839873 52 51 56
1.374681812292445 2.5340269199604 1.97821724989926 74 75 76
1.217478461713915 2.546029412632275 2.0428348707436195 73 74 73
1.8848294906150906 3.9488747818711016 1.662434502260796 176 174 177
1.8749982675169048 3.9379145447309085 1.6674711800157782 160 159 160
1.8896786460339796 3.915369387221772 1.6631967019731089 104 106 103
1.9546122342008552 3.8693019279006364 1.6398135772603801 90 92 92
2.1874074023987595 3.346187068034603 1.5858474984060096 37 36 40
2.1769762501270518 3.33589153829371 1.5910802681223966 36 36 38
2.154260862510337 3.3305973497885524 1.6010465436741235 32 32 34
2.189465256360124 3.3016267212701735 1.5887024377870973 25 25 27
2.188536318274835 3.287459553200601 1.5902739492842988 20 20 22
2.183324916916979 3.27502972689012 1.5934961469924527 22 22 25
2.173468101865881 3.2644576496737114 1.5985111701588548 27 26 30
2.180713019427201 3.2470264082372524 1.5969277135224813 32 32 35
2.168068098265199 3.2375448768787036 1.603020802711916 45 45 47
2.1512593877628916 3.215132781950022 1.611938603649413 80 80 82
2.1579456276004123 3.1979855235397445 1.61056570716377 83 81 85
2.157428821845485 3.183684809328327 1.6119755536384206 79 77 82
2.014738845852121 3.004550848871604 1.6867511482774176 14 14 16
2.0077400305312607 2.992485810102537 1.6906923737125363 14 14 16
2.0157611393754253 2.9750781189978492 1.688781495057645 14 14 16
2.034332093640494 2.953991847438426 1.6827539788418915 14 14 16
2.0258969173839714 2.9424666563590454 1.6872524296337392 14 14 16
2.034616900255809 2.9249348782914875 1.6850588659037562 22 22 24
2.037008472299322 2.9096457681987333 1.685331693748425 29 29 31
2.0310634150816833 2.8972559239512146 1.6888581776739775 43 43 45
2.0221209059208194 2.8858847894371173 1.693556499862793 49 48 53
1.955649176580362 2.850487272640324 1.7243814247681406 43 42 47
1.9208337758748653 2.847582537820731 1.7392218790217893 43 42 47
1.236429269143352 2.5436973748420395 2.0515468270008057 75 74 74
1.8758581664261933 3.9255500341019993 1.6840409016748141 97 99 96
2.1929003086330185 3.347115504965885 1.598511190608402 34 34 36
2.184824676758298 3.3358547431772245 1.6028465767585722 30 30 32
2.1801780539542723 3.3231696507854607 1.6058560064087177 24 24 26
2.1855324617869307 3.306399962872232 1.6049923832128778 22 22 24
2.1914300337720882 3.289444003322886 1.6039154603969938 20 20 23
2.1797741246011153 3.25053300202531 1.6120528552303224 51 50 53
2.1669877832344575 3.241100846000124 1.6182204456846074 70 70 71
2.1506819486253814 3.233025276277199 1.6257577210538807 77 77 77
2.148102447568267 3.2194891369069296 1.6279671900996335 69 69 70
2.1502769990709343 3.2040916411434286 1.6283289181659362 71 70 74
2.146432603845217 3.1910640406695108 1.6310289061629568 66 65 70
2.145606015612015 3.176862777200792 1.6325553181706787 67 65 71
2.152997322213067 3.1594970471932005 1.6308833048410194 56 54 60
2.0136954846033768 3.007906970819146 1.7021281506282337 14 13 17
2.0243110479079673 2.989542534873832 1.6991810982102862 13 13 16
2.031279268520329 2.9725273470426097 1.69765818363633 15 15 17
2.0413210680655176 2.9544662196353007 1.6949276072639776 18 18 20
2.0427303228946974 2.9394892302345488 1.695576751860043 32 31 34
2.05465931943031 2.92085512518866 1.692098918901348 41 40 44
2.045917742565134 2.9094616943303713 1.6967257769064052 48 47 51
2.0394968669354387 2.897245523586534 1.700443530089851 52 51 55
2.0920521038917848 2.8504319062026693 1.682193949504308 50 49 55
2.073718966403081 2.842352819467206 1.6905853196778906 42 41 47
2.0532406449828398 2.834940877952956 1.6998247850207528 49 48 54
1.9591594276736168 2.852189663207537 1.7380161448416502 70 69 73
1.9261484598858452 2.848691891596588 1.752208998851986 52 51 56
1.2584520053226564 2.5405265755597255 2.0589795801810107 70 69 72
1.8750212249019464 3.929613378613928 1.6999750592328002 84 86 83
1.9354463033376008 3.8855525287258796 1.6780502808537743 87 90 90
1.9320670260420707 3.8252231340514506 1.6844574281002442 69 70 74
2.2084996613417136 3.343856482003122 1.6072416156204803 27 27 29
2.200496966194242 3.332589540784063 1.6115564236824391 25 25 27
2.198697643065151 3.3187587354457575 1.6134587083624194 23 23 25
2.2020645417461457 3.302824402974305 1.613349208768491 23 23 25
2.2013821199546966 3.2885618128864813 1.6148146633224834 28 27 31
2.1762424929525173 3.255082469676542 1.6282112115882528 68 68 70
2.1595748355573052 3.247184846064744 1.6359133538765012 71 71 71
2.14791586518721 3.237248748800998 1.6416649825946081 70 70 70
2.1336756396510674 3.228298133245805 1.6484271872823988 71 71 71
2.145014305369382 3.2092635933362232 1.6452013753628043 61 60 63
2.139692997046871 3.18224796602098 1.6496813421044092 48 47 52
2.039488920598595 3.0016220634092408 1.7069714626729442 16 15 20
2.0650594074936364 2.9779469146597375 1.6981083937131825 19 19 22
2.068488775211212 2.962255674158401 1.6979524121642466 31 31 33
2.07320152596275 2.9461366423208206 1.6972888482267012 42 42 44
2.0714342719893812 2.9323275181779658 1.6991757785739057 47 47 50
2.0616022156733864 2.921345109546481 1.704240941176763 50 49 54
2.0520046510414467 2.910256018619452 1.7092157145728362 51 50 55
2.048486760378122 2.8970396938227925 1.711794263876038 51 50 55
2.111849359250259 2.860816121994552 1.6879802538146553 44 43 49
