ply
format ascii 1.0
element vertex 732
property float x
property float y
property float z
property uchar diffuse_red
property uchar diffuse_green
property uchar diffuse_blue
end_header
2.6219016798330665 3.983945374010569 3.557088299364745 194 194 194
2.404334163053525 4.109719809726277 3.466667423539646 194 194 194
0.027245393279435648 3.0241388939430385 3.467100561167764 194 194 194
-0.04434669507867972 3.104502943102136 3.4217235463285887 194 194 194
0.11877027204572332 2.980530936295202 3.501636166106916 193 193 193
0.15697229526968426 2.96560134743711 3.5147520936982772 193 193 193
0.1351607348156567 3.0026168658324135 3.4959522875346307 193 193 193
0.21200654869789015 2.954635761243689 3.529461763021529 192 192 192
0.2877465911405407 2.908002064235991 3.562228228686477 191 191 191
0.4336532398684809 2.8018484935711903 3.6318282292952704 191 191 191
0.458677327126655 2.7993573881205833 3.6375262128667494 191 191 191
0.618557697039209 2.682598098552574 3.713966291407119 190 190 190
0.6293915623643569 2.6926759700658094 3.7120040336351194 189 189 189
0.8721067632796757 2.5273241075165727 3.823323349611038 188 188 188
0.9504735481711137 2.4815756035528076 3.8562326868195793 187 187 187
1.0473436569103458 2.4611281847143873 3.8825793094725887 184 184 184
1.1963613881084256 2.3582651441152422 3.9514583942022345 183 183 183
1.1895568904891332 2.384308261420882 3.939838693509028 182 182 182
1.237894460720423 2.3650747530343885 3.956570592369485 177 177 177
1.2069183625470563 2.4108206468293156 3.9325802148025346 153 153 153
1.1762907422516606 2.4560520986251015 3.9088596492506302 117 117 117
1.1886563345945533 2.466191466824258 3.9071612155881597 99 99 99
1.1077432228834156 2.551725108811165 3.8579778292626 90 90 92
1.0349586247040425 2.630205486266635 3.8131242357394126 82 82 84
0.988944902612497 2.6867411687399056 3.7820204997278544 78 78 80
0.9658624358382455 2.724627800176257 3.762635699997437 73 73 75
1.084239297620811 2.649589690737111 3.8147021954075955 71 71 73
1.064564468295876 2.6847990024979116 3.7970215491937407 69 69 71
0.9503718724995828 2.794656395334601 3.731919026984136 66 66 68
1.0117246611753234 2.7653729992304563 3.7550899663048436 64 64 66
0.8955348150548645 2.8759232830223485 3.689336522967427 62 61 65
1.018703720421186 2.798302571262182 3.7433300845745094 59 58 64
0.9666634526207273 2.858061555978458 3.709812614374727 57 56 61
1.0284814342479451 2.828922671923557 3.733013721201106 55 54 59
1.3718606363393957 2.581820889281295 3.895730967385449 54 53 58
1.3882901078454033 2.5890677125382986 3.89594562345852 51 50 55
1.4995415615315668 2.523361377160335 3.942966510408424 50 49 54
1.4954450184284727 2.546676446075109 3.93293943726002 50 49 54
1.5110342381578084 2.5548679792349884 3.932620921533584 48 47 53
1.4928340565517968 2.5888259537821745 3.9157145594622653 46 45 51
1.4591795522577578 2.634363210457319 3.891302992502801 43 42 47
1.4511550737820742 2.660281990807135 3.879503079602755 41 40 45
1.440182054470432 2.6883273785082946 3.8663040407913214 38 37 42
1.4352021652284432 2.7117604616129025 3.8560638884301595 40 39 44
1.4362499457334286 2.7306032347885725 3.8487803901698387 45 44 49
1.4473966741138602 2.741867141409696 3.8464061451581544 52 51 56
1.4452359441064973 2.76302728027782 3.8375988682538353 57 56 61
1.4868443276271357 2.751709616047904 3.8499218498661367 58 57 62
1.4881613358399974 2.7702909094441397 3.8427928232429167 59 58 63
0.456134712280446 3.5487141750423894 3.339549626155951 58 57 62
0.4502971654150312 3.5697670540858404 3.3300930328506477 55 54 58
0.47306984665171137 3.5698545024569444 3.3343436516706584 52 52 55
0.4115871764955179 3.631319805777928 3.29837190495897 50 49 52
0.40096227706321663 3.6555509528608123 3.2867526461534227 49 49 52
0.43865602658015934 3.644775478957051 3.2981237244929758 49 48 53
0.49534307684484014 3.6204763172155205 3.318437906513834 45 44 49
0.5088636190019338 3.627388660238305 3.318237953906049 44 43 48
0.5391002016493176 3.6223775406826264 3.3259172759860043 45 44 49
0.5048968237549749 3.663374562408599 3.3032049169770605 44 43 48
0.4827214358478824 3.6956180403673597 3.286231168382892 46 45 50
0.4559775839288027 3.7309370411913902 3.2671767347886775 45 44 49
0.432942886840177 3.7634645528899355 3.24992851969652 45 44 50
0.4184066184298767 3.7898663741417007 3.2367114563872783 44 43 49
0.4084567977785065 3.8129441027729114 3.2256771455842075 44 43 49
0.44309042363284923 3.8048483287085144 3.2354085202046123 43 42 48
0.4757491432960641 3.7982554589530126 3.244171599330908 43 42 47
0.49338830799211086 3.8021794510368734 3.245933073427536 42 41 46
0.5194380951525597 3.8003483370697366 3.251562052313404 42 41 46
0.5236429337275406 3.8136166483209486 3.247085732750142 40 39 44
0.5268697872014869 3.8275335715488366 3.242167875143461 40 39 44
0.5509003967692576 3.8272304885974724 3.2468102521760387 39 38 43
0.5674960572861885 3.8320584182216937 3.248016493493441 39 38 42
0.570861374517315 3.8458881483913427 3.243159307881453 38 38 40
0.5625244848581685 3.8675911544478274 3.2329742877644927 38 38 40
0.5771357221292268 3.87377943891972 3.2332670354770308 38 38 40
0.5562164818040665 3.9038057076312214 3.217409909605725 38 38 40
0.5618008024620427 3.915994354696393 3.2136218110398627 37 37 39
0.5598004500715479 3.9332148035685304 3.206408789009336 37 37 39
0.5491179401869271 3.956139663156567 3.1952972913319297 37 37 39
0.5548671723464673 3.968120862160636 3.1916225834599916 37 36 41
0.5570485192402603 3.982437109318198 3.186349450208823 38 37 42
0.5757006930867972 3.98592500777249 3.188474682363471 38 37 42
0.5848251689477908 3.9956857812328113 3.1863166431012004 39 38 41
0.6011387303507791 4.000770998356601 3.1873676550100822 39 39 41
0.610672658600868 4.01029028589814 3.1853825370442 39 39 41
0.6220730936242989 4.0186089629038095 3.1842253040680117 38 38 40
0.6472873587812409 4.0180492004646835 3.1891923229571217 38 37 42
0.6385944121819123 4.03931637154725 3.1791133289725124 38 37 42
0.6047902763481692 4.076550011591999 3.1579701788471497 39 38 42
0.5657577585435647 4.116914515169583 3.1346001906387855 39 38 43
0.6931616032121666 4.051477947185693 3.1845535165185623 39 38 43
0.7849680304964919 4.009095520083698 3.218655561613361 39 38 43
0.894333704790587 3.9560442628859978 3.26029746008621 40 39 44
0.4420902173014274 4.285644249225274 3.0443420918426867 40 39 44
0.48040664329552185 4.276738551494541 3.055088034891428 40 39 44
0.5907633150408582 4.223440898082052 3.0970142385331387 38 37 42
0.6819666558483741 4.182407637709335 3.1304671700779005 39 38 43
0.7766069617861087 4.1396450906661 3.1652534004868924 40 39 44
0.8507279561231418 4.109819321386176 3.1910423703186708 40 37 43
0.917990317821991 4.08446937458185 3.21376376848531 40 38 44
1.0089146545562537 4.045029584640001 3.24653158222076 41 38 44
0.852036019194204 4.15575152667103 3.173053221516565 40 38 43
0.8812351858513341 4.153667649357904 3.1793751951331846 38 38 41
0.8629226710220788 4.180181920466382 3.165402879123071 45 45 48
0.7801222189238548 4.245120435116112 3.124040696402684 45 44 47
0.8217116310914212 4.2355796698260395 3.135654670886561 44 43 47
0.850336367540242 4.233878456903139 3.141716629367793 46 44 49
0.8749461205714566 4.234640221956483 3.1460452393351606 45 43 48
0.9095305832319529 4.2296010914206805 3.154553860824148 44 42 47
0.9391152560198293 4.227610551053114 3.160911323328284 45 44 50
1.4293975852830174 3.9565110434092383 3.3607998344314747 46 45 50
1.4481643291299835 3.9620222190317698 3.3621433758121535 47 47 49
1.4700667861208174 3.96575744617116 3.3647820517705322 54 54 56
1.4023630842240205 4.0213164697693955 3.3299844591090055 58 58 60
1.323034599767608 4.0832288001178565 3.2904770363594316 54 54 56
1.3347934587883439 4.09253009824199 3.288997146045138 54 54 56
1.2400698708963196 4.162662220091878 3.243329395578747 51 50 55
1.0262569863761613 4.300102666955151 3.148529844828573 48 47 52
1.0730172209767674 4.288880276317352 3.1617844716276022 42 41 46
1.1292928753302518 4.272450633161118 3.178897002269558 32 31 36
1.1598286554527357 4.270705330974439 3.185336082331942 39 38 43
1.1787978652295963 4.275535438380346 3.1869881107531937 45 44 49
1.0774980009534232 4.347541027403312 3.13933906921436 48 47 52
1.1382545183009218 4.328966422139338 3.1581463632630395 50 49 54
1.1353417837094997 4.345880961886406 3.1508830975704076 52 51 56
1.197571113331541 4.326803877772248 3.1701670301258513 53 52 57
1.2887480220332581 4.292044999920568 3.201124028742315 55 55 58
1.1802411137477515 4.366963185531497 3.150962459827218 57 57 59
1.2170479836928823 4.362133213304231 3.1598062544725676 59 59 61
1.2156907688903646 4.378155519337728 3.153189925577684 59 59 61
1.2451653388997095 4.377450830402976 3.1590161800876233 59 59 61
1.3141033861261224 4.35556111332681 3.180679179522455 60 60 62
1.3683123452695778 4.341833213827753 3.196330197138923 63 63 65
1.4071731924654318 4.336504741490739 3.2057584136506834 66 66 68
1.449563404366881 4.329421578784506 3.2165474020557427 67 67 69
1.5419585836771577 4.29594181438577 3.2472258394206035 68 68 70
1.6120699756119126 4.274588613601123 3.2688966380188287 71 71 73
1.6858774114147663 4.251543063457691 3.2919348243277473 73 73 73
1.7127879872416596 4.253360752841259 3.2962771935511177 75 75 75
1.6446882359889885 4.304883983356168 3.263007301365033 78 78 78
1.7510573228439723 4.265308191024026 3.2987354834963414 81 81 81
2.0631352922112685 4.1195196005579096 3.4153406934605774 86 84 85
2.2259241360023445 4.052039326178795 3.472764087555505 92 91 92
2.2064718743872778 4.078889746250432 3.458443842645188 101 101 101
2.1779810616489663 4.110250039235735 3.4406322934048603 119 119 118
2.2043837429384867 4.113453892645029 3.4443287740864923 163 163 162
2.232467824931099 4.11587160621328 3.4486537599279328 184 184 185
2.286400046547954 4.105283865300242 3.463006043878927 190 190 191
2.298923766968688 4.1157456522885445 3.4612093648162796 191 191 191
2.3400676497025237 4.111851413350627 3.4704978029437115 192 192 192
2.574606922018591 4.011388480585662 3.5545173762177744 193 193 193
2.5408200715313565 4.045448885779313 3.5346372677840754 194 194 194
2.53339775728218 4.066257569385656 3.5249794015475895 194 194 194
2.4170058473717515 4.140825199449978 3.473473214527968 194 194 194
-0.0831416145536037 3.123873983037905 3.4211335879300457 195 195 195
0.026440333281691597 3.0460646092739196 3.4728907079984523 194 194 194
0.04625405464039889 3.046776723600663 3.4763637432302885 194 194 194
0.22020097212153178 2.9142197113671453 3.5621227112809826 193 193 193
0.2723839428711746 2.8876132390433953 3.582610088368172 193 193 193
0.3632565015634901 2.8280207768175973 3.6235666713880175 193 193 193
0.40940536729808863 2.8072036301617684 3.6406049074772513 192 192 192
0.5004098062738908 2.7673202555778422 3.6737390236939564 191 191 191
0.6324727390483249 2.674337458743583 3.735799944103897 190 190 190
0.6340097146082835 2.692308315507806 3.7289359786059397 189 189 189
0.8776555991055215 2.526320912515447 3.841220307876906 188 188 188
0.9433419438857944 2.4912245490141074 3.867648229827883 187 187 187
1.0074721589881197 2.4778201403679305 3.8851441389302126 185 185 185
1.0511934268743952 2.4616654909433717 3.899865671996257 184 184 184
1.2002539052176189 2.3588512422905183 3.9690637758845586 183 183 183
1.196570858934323 2.382331521823252 3.9590164627126523 181 181 181
1.2053642548457915 2.3955180770487305 3.9554332170630193 176 176 176
1.2157482514928952 2.4073998699020263 3.9526710515241823 153 153 153
1.1831413234808754 2.4542442421339663 3.927837160979033 115 115 115
1.2133518261476561 2.449942382039164 3.9352777592173798 101 101 101
1.2019292373458355 2.47937686790756 3.92139231360503 90 90 92
1.0386276253441542 2.6309257772173726 3.8300897274905226 82 82 84
0.9988616486758964 2.6824315731399224 3.802042503912348 77 77 79
0.9632405324922604 2.7303500460489087 3.776209470219958 73 73 75
1.072001446555121 2.663019907895745 3.823638460974187 71 71 73
1.0263168311200426 2.7188246068464306 3.792757422433242 69 69 71
0.943541473718639 2.803662188272121 3.74328429986197 66 66 68
0.8733620094171296 2.87806407161246 3.7003544210595303 64 64 66
0.8502975143900426 2.9150213418019617 3.6812664229863823 61 61 65
0.8021603381180631 2.9714273201551045 3.649680983723925 60 59 65
0.9290509170636075 2.890991852038961 3.7057653456243274 57 56 62
1.152590270736757 2.7360676681358527 3.8098325979229495 55 54 59
1.170892699782945 2.7412827743882895 3.8112261661439732 54 53 58
1.1413293466153998 2.7834925719293993 3.788814646744735 52 51 56
1.0951492328353605 2.8382727027711576 3.7582476116502863 52 51 56
1.499754763112939 2.607387394165869 3.926889098515303 46 45 50
1.487939002225473 2.6362702762508956 3.9131487389724806 44 43 48
1.4625906129187258 2.6752300210423616 3.892830411435704 43 42 47
1.459439212942205 2.6973420991680443 3.883428665557074 42 41 46
1.4667054984915486 2.711592960957256 3.8791321183355483 39 38 43
1.4724163794684462 2.726988692288988 3.8740848277476045 36 35 40
1.4693066924880953 2.7489128649794408 3.8647658078111284 34 33 38
1.4810927091293071 2.759744608233766 3.8626875507620584 35 34 39
1.4892076403664072 2.7732930886777747 3.858831565897461 37 36 41
0.5317035359492549 3.4964311509525965 3.3893656424966863 41 40 45
0.5096251703976066 3.5295652918051497 3.3719868458571334 43 43 47
0.5252496811473928 3.5350290565197797 3.372773688149724 52 52 55
0.534720016695569 3.545003535521824 3.3705977231983177 54 54 57
0.5270629879678095 3.56739148574672 3.3602318918644274 58 58 61
0.5508552281108591 3.566990442390316 3.3649024532428378 60 59 64
0.5784421127865322 3.563937094447937 3.371348513765325 55 54 59
0.5946701440719089 3.5691230014242956 3.37236041353436 55 54 59
0.6044903543279393 3.5789244668504154 3.3703196708987453 54 53 58
0.5686328391681537 3.6212434739298733 3.346671329038203 54 53 58
0.5453021880375466 3.654452326083881 3.329025358401156 51 50 55
0.5235213105160876 3.686404426087415 3.312173611278675 49 48 53
0.506334112162844 3.714968645833272 3.2975417364922013 45 44 48
0.49045471720350897 3.742485829478202 3.2835747073684933 46 45 49
0.47964377275654924 3.7663369985456843 3.2720283080327097 47 46 50
0.46580362456002145 3.7922020103324803 3.259105746205612 47 46 50
0.5098458883913088 3.7777753767847893 3.2732001027733677 46 45 50
0.5307598411078267 3.779523386831096 3.2764692784047393 45 44 49
0.5479621404629853 3.7838911688975183 3.2779916429006835 43 42 47
0.5486262930446417 3.799659287752308 3.2718392482224803 41 40 45
0.532971953122896 3.8265548382147654 3.258162400945442 41 40 45
0.5485978954965942 3.83200452570147 3.2589551197268527 40 39 44
0.5513283565483937 3.846249870029287 3.2538008015988655 38 38 42
0.5435893437539372 3.8675538432919154 3.2438510283110324 38 38 40
0.5514203540501965 3.8782773468204494 3.2410660207518927 37 37 39
0.5761225121344284 3.8776600951365268 3.2459951842529753 38 38 40
0.5740844716050897 3.895026807497364 3.238693964269064 37 37 39
0.5547976469754925 3.923850402484491 3.2235607375429085 35 35 37
0.5667347987751417 3.9317837625377337 3.2226651699003264 35 35 37
0.5613492644569982 3.951207557006087 3.2139102249421856 35 34 37
0.5689550867942961 3.961991504647551 3.2110584562297673 35 34 39
0.5868508696102959 3.9660056149806415 3.212853121171629 35 34 39
0.5785910795088727 3.9872007324130063 3.202847953917079 34 33 38
0.590180241326806 3.9953597540113357 3.2017965587093657 36 35 38
0.5997817006537121 4.004826728300772 3.1998475247744045 36 36 38
0.6042405128933153 4.017631838430334 3.195594343648519 36 36 38
0.6097533788181086 4.029737741542548 3.1918194052172324 36 36 38
0.6517601811685392 4.018354641389138 3.2043160205705883 35 35 37
0.636925596190608 4.043560256056854 3.1914674678249244 36 36 38
0.6813735511851091 4.030800975648201 3.2049748594334773 37 37 39
0.7056237817315196 4.031060824769306 3.2094691090020753 37 36 40
0.9146055157635161 3.9142975095915555 3.295581989827502 37 36 41
0.9715567429159695 3.8944837224599613 3.3142687924235985 37 36 41
1.0457082614368471 3.864071673139371 3.340436535121622 39 38 43
0.31649786720013773 4.3375873356560115 3.013644787604156 40 39 44
0.4031634616174513 4.2981049130752105 3.0457966372947527 41 40 45
0.4489250584483129 4.284439502912419 3.059913877515355 42 41 46
0.5095324264238956 4.261744015811287 3.0804412569348902 42 41 46
0.5632866734488171 4.243522882253976 3.097887790359255 42 41 46
0.6994543696017677 4.174795511452913 3.1510692878709428 42 41 46
0.7744302999266801 4.14416938598562 3.1774785722310224 42 41 46
0.8562194450184728 4.109685541053783 3.206715614428212 42 39 46
0.9382005381106839 4.075418613886373 3.2359026798465464 44 41 47
0.7097109427761708 4.229712285647016 3.1311479364523445 45 42 48
0.7138331411144991 4.2424347055148015 3.1268638595285205 48 46 51
0.7404882466712963 4.241579083463164 3.132258202054931 52 51 53
0.7618030471167152 4.244007459753578 3.1353324781608274 58 57 59
0.7888050342529818 4.2430974475479575 3.140814243817005 63 62 64
0.8157793278318499 4.242287432025629 3.1462509437365593 65 63 68
0.8428391324937747 4.241509815089079 3.1516909561087716 68 66 71
0.8696151402889363 4.240982950862567 3.1569773211570253 72 70 75
0.9047699648691387 4.235608353223964 3.165782462697897 64 62 68
0.9299778262587663 4.236182042656202 3.170333313634873 61 60 66
1.4047607670694142 3.9743345282634976 3.3646081269373123 62 61 66
1.4246901760988933 3.979119287612861 3.3664815108664023 53 53 55
1.4581314531064735 3.9761222058609764 3.3740151292456564 44 44 46
1.3755329844814876 4.040217643730781 3.3328343412171817 41 41 43
1.3039247846606712 4.097590617852758 3.296413899012055 39 39 41
1.3230137813022473 4.10265192857857 3.298017832199748 39 39 41
1.2570554208482654 4.156294263919131 3.264153979063384 43 42 47
1.043248785687283 4.293665965104715 3.168920783304021 44 43 48
1.113415322614411 4.2692415613061705 3.191948923668518 42 41 46
1.1911143255211236 4.240834282127603 3.2179910207218416 38 37 42
1.192320831444885 4.2557162233072745 3.2122942983117997 42 41 46
1.2517853477879308 4.237948777595427 3.230642825222095 47 46 51
1.1407360444047652 4.315498546772547 3.178710867969193 49 48 53
1.1478592601626272 4.326880493090208 3.1755294974674433 50 49 54
1.1835092766448394 4.322468232882049 3.184045355545394 51 50 55
1.239107649217185 4.307173795402553 3.20067621699138 53 52 57
1.2751882917937447 4.302797806662016 3.209259277413278 56 55 59
1.3087435011452362 4.2999195850615175 3.216767170785598 57 57 59
1.247259011106606 4.3489360265724475 3.1855934086756514 58 58 60
1.2134343573010777 4.382641214940471 3.165760208196159 59 59 61
1.261917413835471 4.371663082805124 3.1793234421531307 60 60 62
1.323245809962523 4.3539341286683895 3.1980100245777474 61 61 63
1.3671798248766565 4.345758189347845 3.2095950495276337 64 64 66
1.4088724447566343 4.338927378952643 3.2202195347391034 66 66 68
1.4591096733009266 4.3276855847965745 3.2342203312231015 67 67 69
1.534838127038359 4.303100159072719 3.2583670942104654 69 69 71
1.7912281538859531 4.183376350457929 3.354647095802832 71 71 73
1.6873998195693978 4.25418100568552 3.3067698640702354 72 72 73
1.576818213256863 4.328056270421805 3.25638963902921 75 75 75
1.6445626880637751 4.308361535827644 3.277075380380092 78 78 78
1.752444698741477 4.268042112018533 3.3135830123908163 82 82 82
2.0666016007468726 4.121314383347776 3.4315673189246683 87 85 86
2.227447580409692 4.054911198962847 3.488502275491097 92 91 92
2.2103017010787585 4.0805667714037686 3.4750363563740647 100 100 100
2.177504425585815 4.114121374633997 3.455457899004681 117 117 115
2.206167948223846 4.116179265604891 3.46007296737037 163 163 161
2.235452405223403 4.117999244925812 3.4649004896419044 183 183 184
2.3066871945680787 4.098688796294588 3.486094966478177 189 189 191
2.298103959930045 4.119821605926574 3.476053284681417 191 191 191
2.32752880013657 4.121817170962634 3.480837510747431 192 192 192
2.549961268351892 4.027475620712456 3.5605730139716223 192 192 192
2.5331564435378815 4.053017906775969 3.5472168636247585 193 193 193
2.5184163609544714 4.077429664833754 3.5347023140074114 193 193 193
2.542284312178236 4.082688103518362 3.537133821638941 194 194 194
-0.0008190644240264611 3.0551715218529147 3.4787006937104317 195 195 195
0.15309472142222424 2.9390725394023143 3.5544612822146964 195 195 195
0.2312016405558429 2.889597569527456 3.58913721396131 194 194 194
0.23750025550972664 2.9026133178526616 3.58514279092826 193 193 193
0.2226694247598361 2.933818686688677 3.569848819945531 193 193 193
0.16486338323981164 3.001784901836852 3.531666543194729 193 193 193
0.1408203504832819 3.04046908228982 3.5116264551082277 192 192 192
0.5542440928680196 2.7250426973179858 3.7165529485116235 191 191 191
0.629736497052025 2.680194460797319 3.7488819035975767 190 190 190
0.6727325869388967 2.6631592314727275 3.7638972436907503 189 189 189
0.7779084049777936 2.5940154665850104 3.811597897577353 189 189 189
0.878616757670196 2.529169272375914 3.856729084050531 188 188 188
0.9012972795148664 2.5300323176774353 3.8607166778388864 187 187 187
1.1054346640500878 2.4205419643993458 3.943431530545829 184 184 184
1.252958746005184 2.3192210454263034 4.012070348455899 183 183 183
1.2311921401554307 2.3576925397415542 3.9925500141918233 180 180 180
1.2097562284306618 2.39571321009588 3.9732728719367554 176 176 176
1.2202818555273487 2.4074918583647658 3.9705798612824093 152 152 152
1.1863929039299748 2.4553683115789404 3.944988379407552 115 115 115
1.2161630821528249 2.451442546687492 3.952242472835706 100 100 100
1.0576398357256704 2.59959525399358 3.8628015372985707 89 89 91
1.0395927220033663 2.6338245292923705 3.845685695933758 83 83 85
1.1444955380783315 2.569353989932187 3.8914680624767692 77 77 79
0.9682648533262697 2.7299621931173657 3.793671005874449 74 74 76
1.0753208503139535 2.6640542872391055 3.840438631740254 71 71 73
1.0334418846086972 2.716820536815581 3.8113683455359073 69 69 71
0.9615189803921854 2.7930512839174613 3.7671893486473262 66 66 68
0.8926710660409887 2.866412210442844 3.724743703079055 64 64 66
0.8367300128246336 2.9292126198996984 3.6889805007739014 61 61 65
0.7066040230091191 3.0496871222943365 3.6160163848428164 60 59 65
1.19454144762048 2.687607216723622 3.8538057836836384 58 57 62
1.205095893376088 2.698962245933488 3.8512874398608123 56 55 60
1.2024189590829635 2.720563849171404 3.842150031727965 55 54 59
1.1465777233590924 2.7831092355371396 3.8065077330448016 53 52 57
1.522970753092356 2.5332629925470314 3.9781730883988375 52 51 56
1.5122041523233578 2.5616520144547246 3.9647800711065897 51 50 56
1.4655286236353888 2.6172443260272806 3.9336650680354532 50 49 54
1.5358528362910793 2.583846528929511 3.960434382042514 49 48 53
1.5272857715694248 2.6103600056697944 3.9482104545897285 47 46 51
1.4905111371614503 2.658006420411893 3.9221596357765063 45 44 49
1.4853010691446036 2.6817295056571173 3.911691207960964 43 42 47
1.4927217294086597 2.6959315216928017 3.9074374003162236 41 40 45
1.498437236102964 2.7113897885412164 3.9023562357515305 40 39 44
1.5036501361365704 2.727198444286682 3.8970391483267046 38 37 42
1.496271568441358 2.7522941852174103 3.885608375859623 36 35 40
1.505116497082427 2.765343100049716 3.8820870826272267 35 34 39
0.6438234002767633 3.417382323797378 3.4571942991796067 33 32 37
0.6256736040730884 3.4479167700548325 3.441534286018958 32 30 37
0.6518436533979863 3.445994352614894 3.4473007261072355 31 29 36
0.6544105323467373 3.461311663631925 3.4416744261918715 32 30 37
0.6582229152069723 3.475694983181495 3.436658998462867 33 31 38
0.6575241605635005 3.4933072398339453 3.4294924947401753 35 34 39
0.6503256572196672 3.515543526364023 3.4192379713446797 39 38 43
0.6546082372102289 3.529473637013041 3.4144933346089608 43 42 47
0.662555064941429 3.540765290761041 3.4115022144038827 49 48 53
0.6365798893912821 3.576180417057499 3.392398484358385 52 51 56
0.6145750332770892 3.608605658570485 3.3752470682474223 55 54 59
0.5932869894294389 3.6403694516935516 3.3584967048103995 56 55 60
0.5717163512920234 3.672181096758883 3.3416732542114067 56 56 59
0.5641340574689531 3.6940325660130062 3.331499090177494 58 58 60
0.551001703417088 3.719680580757502 3.3187487435815664 57 57 59
0.5204902639925795 3.757318905732508 3.297890755736403 57 56 59
0.5459574391192636 3.755931123717719 3.303309445203207 55 54 59
0.563277095601576 3.760259208686192 3.304889373669301 53 52 57
0.5679673008691397 3.7733289909748287 3.3005661494399243 52 51 56
0.5546327754327478 3.7987490491666467 3.2878682148779 51 50 55
0.5412415699421449 3.8240999566380993 3.2751870674870487 49 48 53
0.5432621600422669 3.8388428284061487 3.269685808953063 46 45 50
0.5424675294127603 3.855465141331421 3.262896302231116 43 43 47
0.5483763927041558 3.8675077762500396 3.259216021910698 43 43 45
0.5620763230606864 3.8742870216365537 3.2591257303417684 46 46 48
0.5535338086823332 3.8960283783386958 3.2488121243872827 49 49 51
0.5563905608913242 3.9100598187167 3.243754675182818 47 47 49
0.5745873943660456 3.913837250819786 3.24572204421228 43 43 45
0.5850874915386746 3.9227745548859985 3.2441587799761185 43 43 45
0.6016974927589969 3.927677900262596 3.245373439946371 44 44 47
0.60589917383161 3.9408031679802225 3.240934745416941 44 43 48
0.6295540535759725 3.9411262596802414 3.2453240699004873 41 40 45
0.6393721238074332 3.950580487912739 3.2434241096673575 43 42 47
0.6518183492937941 3.9583268647447944 3.2427081457799365 43 43 46
0.6687724696480617 3.9631624999728996 3.2440155747374506 41 41 43
0.687556314580219 3.966853594388312 3.2461295463347692 40 40 42
0.7006372495291207 3.9742726852379513 3.2456655128055263 41 41 43
0.7262462305585922 3.9736605050883957 3.2508015706942905 42 42 44
0.7251603525711394 3.990225193391342 3.2439794435245246 43 43 45
0.7513314330329843 3.9893524647528094 3.2493269124299444 46 46 48
0.8084238887611395 3.9689045540305603 3.268397586946386 47 46 50
0.9072247804331522 3.922265508446079 3.3058938375272002 43 42 47
0.9683315014284609 3.899834838806482 3.3265230484673567 44 43 48
1.0252829981243914 3.880260509884937 3.3452179542323424 45 44 49
0.3323311272342975 4.330665813519885 3.0329978933452435 45 44 49
0.4199972449478495 4.290632698925902 3.065729358355164 49 48 53
0.44493633520936293 4.2899712259234875 3.07075714362747 53 52 57
0.5106777152910629 4.264110683612615 3.093641263366659 54 53 58
0.5637640992723993 4.246325718384878 3.1108833502552105 55 54 59
0.538464437457524 4.276946746826736 3.0938230592253344 55 54 59
0.6415859884034238 4.2287411749238135 3.1327701583281695 54 53 58
0.6661219385498005 4.228932558672614 3.1373803714182054 61 59 62
0.6726267483628614 4.240161972214484 3.134138663994609 62 60 62
0.6861020793842534 4.247160496833754 3.1339179075485823 68 66 68
0.6935640341222107 4.25781169850463 3.1310899204775473 67 65 68
0.7279437004351479 4.252274127972329 3.139868113138869 66 63 69
0.7531471155586031 4.252350769276537 3.144651639069049 64 61 67
0.7703400654864943 4.257283627175652 3.1459658635637435 62 59 64
0.7971902086527609 4.25651452662327 3.1514016595497214 58 56 61
0.8220282430923838 4.257019808114887 3.1559442265147375 54 52 57
0.8449832233139034 4.258709554163406 3.159654121696031 49 47 52
0.8829502897709824 4.251639210578918 3.1697296237222004 42 40 46
1.3901165032336054 3.9863053919953053 3.3725586955532565 34 33 38
1.3955849059431407 3.99946743633979 3.3683472729874384 35 35 37
1.4291713696660606 3.9963332300176204 3.376014229117683 35 35 37
1.340363763466092 4.063904069395734 3.3320681947908968 36 36 38
1.2973809853807585 4.104714218015875 3.307561451459982 38 38 40
1.337403494030354 4.09778287515509 3.3179740590412714 41 41 43
1.2518203121509672 4.16261299423463 3.2757383665558586 43 42 47
1.2118487322319806 4.201121236545537 3.25272600663301 45 44 49
1.1441008525598715 4.255136054387991 3.218215886088089 43 42 47
1.061307667361975 4.317300915748711 3.177577420786146 39 38 43
1.084808483536284 4.319379023713951 3.1812364936144264 45 44 49
1.1099473517985012 4.320605119526272 3.1855486831882587 48 47 52
1.1005434961906346 4.3411518062404015 3.175547614454596 49 48 53
1.1315814667438522 4.3391711465111005 3.182267138957983 50 49 54
1.118777161886819 4.361530464206759 3.170892715969236 51 50 55
1.1694389105340863 4.3488383117936875 3.185637977606035 53 52 57
1.2326555458721329 4.329436240724767 3.2054608070282877 56 56 59
1.2817471150358204 4.317986676112483 3.219409949284502 57 57 59
1.346323303648402 4.298277297812696 3.239615184205993 58 58 60
1.37714149929252 4.2971128938185545 3.245966777048986 59 59 61
1.3506297537737906 4.327013795792791 3.228962529935338 60 60 62
1.414808313785378 4.307961215482988 3.248829536816304 61 61 63
1.405752886141129 4.328397989070735 3.2389389128548003 63 63 65
1.426659225342211 4.332761476465766 3.2411898002423674 65 65 67
1.622839398951508 4.243953289149499 3.314125808935919 67 67 69
1.7957289913333783 4.168264701876899 3.3773740604424023 69 69 71
1.7967023259022108 4.183977772559252 3.3712853387747055 71 71 73
1.7426538842690666 4.228577365805392 3.3431517072571353 72 72 73
1.5638948883473751 4.338208260925956 3.2652282851974475 75 75 75
1.6367231515336145 4.315861714355839 3.2880628476894684 78 78 78
1.7538321006146154 4.27077718639805 3.3284353800817623 81 81 81
2.070172276022792 4.1230581804153745 3.4478479047798385 87 85 86
2.222565621084603 4.061085258953195 3.5017041231334223 90 89 90
2.150283822843046 4.1150193014051455 3.4663602297609395 100 100 100
2.1782588883769773 4.117362820839676 3.4707679479319795 116 116 115
2.205743228838809 4.120030955983475 3.474952304664321 161 161 160
2.2456712254316726 4.1164603796760035 3.4840048175779823 183 183 183
2.3097291992751354 4.100823045619068 3.5024849941816347 188 188 190
2.3261744761616017 4.109361041433396 3.502216779178417 190 190 190
2.3335867455180006 4.122452615250264 3.4984047973445884 191 191 191
2.5131195473857293 4.049628151312595 3.561778256056947 191 191 191
2.481138413921358 4.0826287087625515 3.542491522054601 192 192 192
2.5135498557262874 4.083580675919244 3.548302320270606 193 193 193
2.551282514975064 4.081998630525778 3.5561414271853216 194 194 194
2.609997910115793 4.0702225721358305 3.572059204041894 194 194 194
0.11019856551585394 2.979711613461609 3.5448958454646426 195 195 195
0.18366577550567176 2.934168938680901 3.57727229028786 194 194 194
0.20929350611536646 2.9303423049533963 3.5837363084121825 193 193 193
0.1941349005302655 2.9617337871766303 3.568247462630472 193 193 193
0.5789262048971869 2.7267394196382506 3.736404518525304 190 190 190
0.7069015542577279 2.6378925972487397 3.796612645506858 189 189 189
0.8103261310999672 2.5703704512295884 3.843556240695777 189 189 189
0.8800887083071992 2.5315906512725106 3.8725113614948015 187 187 187
0.9126435011226182 2.5242208442542653 3.881727339127996 186 186 186
1.1448279639371024 2.3713453445707433 3.987630937034416 184 184 184
1.1054818047388761 2.424255893635326 3.958869602032908 183 183 183
1.2572769943444586 2.319490307889116 4.030036607166491 182 182 182
1.2356208854719855 2.3578663757890324 4.010500217812126 180 180 180
1.214153241097544 2.395908747333747 3.9911337356288645 174 174 174
1.2278374820933566 2.405125659347471 3.99007570980643 152 152 152
1.1912768268048575 2.4551699809341843 3.9629982731837514 116 116 114
1.221618547595632 2.450805465860943 3.9705848108745907 101 101 99
1.0506635098110588 2.6089121552182024 3.874368454692369 89 89 89
1.0440511801321342 2.6339163528660405 3.8630821823945793 83 82 86
1.1416887810028928 2.5753268918303855 3.905334769708657 78 78 80
1.1124122647343182 2.618529654599551 3.8823989670693972 74 74 73
1.077933354088621 2.6656543300961837 3.856891399184563 71 71 71
1.0473814999929087 2.7094219456651985 3.833483968969979 69 69 70
0.9790762711352485 2.7827908546262616 3.790956770524671 66 66 68
0.9134533329288359 2.853620528204877 3.7499626530043058 64 64 66
0.8267566180873767 2.94057038182911 3.6984574125387106 61 61 63
0.7257898510300161 3.038150927103675 3.6399487502195558 60 59 63
1.217987995348743 2.673050331086792 3.880879856089814 58 57 62
1.2257969683628704 2.686600451677922 3.8769558662292027 57 56 61
1.22701432238401 2.7052388725517553 3.86972566124801 55 54 59
1.1940579588681377 2.7501750504305122 3.8453875407556835 53 52 57
1.205900554620227 2.760466491723256 3.843544794674849 53 52 58
1.100406184313714 2.8605923385270215 3.7831455318084415 52 51 57
1.0820255642306236 2.8936474717541407 3.7663704077773343 52 51 57
1.0842642067195207 2.9108791004384784 3.759900130473934 50 49 55
1.3807057692630644 2.7052115028506143 3.899311192913713 49 48 54
1.411119051968109 2.701878944241124 3.906498215268892 48 47 52
1.451878425045121 2.690872501293484 3.918749413564053 47 47 49
1.5666906726839827 2.624521669079733 3.9674152211240434 45 45 49
1.5040536198080061 2.6912644427800876 3.9286324252988196 43 42 47
1.5450526735114658 2.6804885882731257 3.940837397075141 42 41 46
1.5590167757722873 2.6899261591180124 3.9397448533087718 40 39 44
1.547783048314986 2.718006809674162 3.9263372121578604 38 37 42
1.5870274258181538 2.708801238282907 3.9375756556613526 37 36 41
1.58356601595225 2.731087393326316 3.9279842518529713 35 34 39
0.7249028571505718 3.378683979177469 3.503398770009328 34 34 38
0.7302250053751957 3.392218117385174 3.4990026456469825 32 33 37
0.7942216235181778 3.3631299330710744 3.522966860425541 31 32 36
0.7947499804002354 3.380246236600151 3.516213662225297 30 31 35
0.8024028854497887 3.392182506772998 3.5129059677215024 32 31 36
0.76977090664927 3.4330528758058474 3.4902585744187764 32 31 36
0.7737725701574303 3.447486436754816 3.485248143800772 32 31 36
0.7497162031806167 3.4819089774478873 3.4668332160728728 31 31 36
0.6883807769790489 3.5426609957798636 3.4307001137592716 32 33 37
0.6519031572800863 3.5854521585703134 3.4065434563844126 35 36 40
0.6318171850520804 3.616446859981286 3.3902653520795356 38 39 43
0.6106225336860281 3.648076023369682 3.3735198124138446 40 41 46
0.6098476335113221 3.665247198363451 3.3664938554409276 42 42 46
0.6051653278109608 3.685099188183288 3.357642370052149 43 42 45
0.5656986900647063 3.729083404996966 3.332432737819179 45 43 47
0.5902230647428661 3.7284699926952802 3.3373975834868164 47 46 51
0.5928633083588462 3.7430513771701994 3.3320659757687867 49 48 53
0.5748811828101537 3.7717961041903783 3.3170937979809634 52 51 56
0.5273987433131591 3.820639367978509 3.28839571081402 55 55 57
0.5198930171055856 3.841890757369006 3.2784404773528557 57 57 59
0.5245256970170322 3.8547994048348206 3.2741621811815826 56 56 58
0.5335928759786472 3.8646810792732684 3.2719494731916625 57 57 59
0.5477798874921789 3.871105178392874 3.2721066818037343 58 58 60
0.5427155765857863 3.8905227468583896 3.2633556682433467 61 61 63
0.5412842573551864 3.9074365754234064 3.2563064618031135 64 64 66
0.5555453875532912 3.91381019407973 3.2564981497456396 66 65 68
0.5650656530622948 3.9233704462544394 3.254501354052219 64 62 65
0.5689138996988634 3.9367009426257917 3.2499031654914496 64 62 65
0.5895498011682936 3.938906468755115 3.2529908090507753 69 67 70
0.6047525626208892 3.944750955816845 3.2535756041060644 70 67 70
0.6154620410605265 3.9535780170116936 3.252101280497984 72 69 72
0.6239103043630327 3.9638951201351498 3.249595091842948 69 66 70
0.6271259499775534 3.977622781451778 3.244716113324111 68 65 70
0.6493955833065226 3.978951596473931 3.2484692449969668 66 64 70
0.6635372941527373 3.9856051168565743 3.248525856089458 67 65 70
0.6796465606981041 3.991017086567296 3.2494583061771403 69 67 72
0.7039111187007754 3.9912268865908027 3.2540434693785305 69 65 69
0.716423025006961 3.999032220174935 3.2533251730805453 69 64 68
0.7630124012392772 3.9851283669913578 3.2678586056140126 68 63 67
0.8152081555363873 3.967841479023684 3.2848257272658885 68 63 67
0.8770188335808449 3.9446730850543377 3.305998502299949 70 65 69
0.9368603852918372 3.92299450672573 3.326195709039015 72 68 72
1.0064170362418765 3.895450239469355 3.3506115112076036 75 71 77
0.369109716678917 4.310648533597859 3.061693794381962 67 65 70
0.4650672247674148 4.265567290017918 3.098213209553783 68 66 71
0.4774481980435199 4.272820357238284 3.0976908939306393 66 64 69
0.5277090826503461 4.256644515476304 3.1138407317306385 64 61 67
0.5801098801677527 4.239342505739546 3.130853365565395 60 57 63
0.5590924356845055 4.267353910252844 3.1155907934213625 56 54 59
0.6465916126556994 4.228803191097138 3.1478671923707173 51 49 52
0.6647080732618693 4.232928511190657 3.1497011705653817 49 49 51
0.6755718127823189 4.241505237811071 3.148356787058415 46 46 48
0.6714984820048877 4.259135397694391 3.140512301178668 44 44 46
0.6723512475978644 4.27373877030572 3.1348279262812535 40 40 42
0.7181153021922833 4.261325507623667 3.1486055804908117 36 36 38
0.7393677097594917 4.2637526260359175 3.1517231122337575 33 33 36
0.7672058116979954 4.262310678888206 3.1576574305274745 32 31 34
0.7817599556339399 4.268847673673003 3.15784007245055 29 29 31
0.8079027053254964 4.2685537749150075 3.162988377886494 27 27 29
0.8426281770110111 4.263278674703731 3.171783151071409 29 29 31
0.8855685410027219 4.253295401037743 3.184044266841692 32 32 34
1.3636796673195781 4.00513712128153 3.3754306741673923 34 34 36
1.369866075028122 4.017821994711625 3.3715409778072805 35 35 37
1.4020301955050947 4.015465167727468 3.3786741422348125 36 36 38
1.329264505549467 4.073685489281218 3.3413554481064356 36 36 38
1.3086222141997719 4.101620436414942 3.3261956862492132 37 37 39
1.3266458110848793 4.107310400280604 3.3273851742640583 40 39 42
1.258605494594906 4.162077883208993 3.2923585946932437 41 40 45
1.206360434794195 4.207544895689646 3.264096192121774 43 42 47
0.9949432699210108 4.3427487287255016 3.1692660933085066 43 42 47
1.0287600782109967 4.338865416166968 3.177328620189349 40 39 44
1.0871246579165745 4.321317361504676 3.195587391937208 46 45 50
1.1056478168940973 4.326253744374792 3.1971748097095865 49 48 53
1.0927289571161103 4.348740020179696 3.1856833798147304 50 49 54
1.099340261558178 4.36030128185922 3.1823254382552535 51 50 55
1.1164838196788471 4.366034770400419 3.1833281508864695 51 50 55
1.1475851704023026 4.364122547993299 3.19007874976692 53 52 57
1.2301224850842483 4.334105696046868 3.2179826376042873 55 55 59
1.29426396277885 4.314449508617258 3.2381973287430137 57 57 59
1.3443473444473173 4.302676115800618 3.2525498833333164 58 58 60
1.3866794192548557 4.295277840037583 3.263658687247779 59 59 61
1.4078416819531179 4.299448333657017 3.2660606722540697 60 60 62
1.458464449357209 4.287829763480778 3.280455015314858 62 62 64
1.802014072092194 4.119495291181866 3.413979540237854 63 63 65
1.7935821262449618 4.140345651557904 3.404006683172999 65 65 67
1.7819283352903417 4.162833988786627 3.3927578626359454 67 67 69
1.7826002372720615 4.178710602345443 3.3865287671430826 70 70 70
1.802453098164404 4.184438184689624 3.388055191423675 71 71 71
1.6744632369771113 4.267853899437056 3.3300193637455555 72 72 72
1.5651694570383876 4.340921548835361 3.279725462421006 75 75 75
1.6701162337551398 4.301870615502615 3.3155596014295448 77 77 77
1.7552203552692593 4.273512985058292 3.343292917520941 81 81 81
1.8791683571478057 4.225387782538626 3.386417561490252 85 85 85
2.1408731436364894 4.1068036772353285 3.4842684209802632 90 90 90
2.1528685587034593 4.117313193036803 3.4823677454894253 100 100 100
2.180100772482846 4.120049405133895 3.486512172436538 115 115 114
2.2092216407279808 4.121896406308791 3.491376147820805 161 161 159
2.248047308007593 4.11890469801866 3.500045443945385 182 182 183
2.3168386387583313 4.100907016470217 3.5204906867974657 186 186 188
2.334456528269086 4.108872694380723 3.520690709791946 189 189 189
2.3406433560826496 4.12259331278217 3.5163862911542867 190 190 190
2.4963821622009577 4.078787431747156 3.563898547653911 193 193 193
2.4942822014527506 4.096851009028667 3.5562602155066028 193 193 193
2.5182387840129756 4.10202946073199 3.5587962316787136 194 194 194
2.5652071615409873 4.095972654217743 3.570259949110222 194 194 194
2.6511772171472097 4.071003628097181 3.5968028010117785 195 195 195
0.14243330387851671 2.9549873373619437 3.575938685260466 195 195 195
0.18842781542161535 2.933377549166316 3.593534109056384 194 194 194
0.1873189919333761 2.9526596310976974 3.585574522493446 193 193 193
0.18089313368634252 2.9764586567718627 3.574770019808807 193 193 193
0.8554878198733614 2.4362731383294634 3.922502987447568 192 192 192
0.8623347579575888 2.450510090678718 3.9181119696033297 191 191 191
0.893189699695222 2.444352576193653 3.926566243699574 191 191 191
0.5713715112503235 2.7366406830541736 3.746785574969546 190 190 190
0.8061750030868096 2.577481301678518 3.8562276527226236 189 189 189
0.8649516914305946 2.5479188275589193 3.8794950464675457 187 187 187
0.9161748631421215 2.524941581685654 3.898653264684629 186 186 186
0.9468620651713934 2.519278031560867 3.9068766223816582 186 186 186
1.0468424732781252 2.45631697993376 3.951545729314035 184 184 184
1.108572818471198 2.425456252884754 3.9759071209444405 182 182 182
1.2542262629077712 2.325828148786542 4.044157083035041 181 181 181
1.2400553686714468 2.358040076046876 4.028472194808563 178 178 178
1.2185552930185162 2.3961046964030532 4.009015840194464 173 173 173
1.1990323244083092 2.4323811397646837 3.9906609610528267 152 152 152
1.1950648860060489 2.4558661173758263 3.9804591507598035 115 115 114
1.2092273600943753 2.46460890837601 3.979692949968104 101 101 99
1.0543918421559793 2.6095933665136637 3.8914457057972665 90 90 89
1.039304178429905 2.6414069899040045 3.87574308409895 82 81 86
1.1062905355556156 2.6073851517645985 3.902392992822522 78 78 79
1.120431312498398 2.615835540082323 3.90174002962049 74 74 73
1.0953361894870854 2.655499756628253 3.8809443116118225 71 71 71
0.8703831617726956 2.8532930630852484 3.757894397088174 69 69 70
0.8342554560650024 2.900733052784055 3.731836918065607 66 66 68
0.9385491335027165 2.8374568903228097 3.7774686995394373 64 64 66
0.8450372686235177 2.9297682219364463 3.7222649584948497 61 61 63
0.7913102280068313 2.9904371968870667 3.6874824974635056 59 58 62
1.2564151918232647 2.7058285402028175 3.891954294761007 54 53 58
1.2047225322511077 2.7650638323644476 3.8581420289948305 53 52 58
1.1482781426332698 2.8276039790725194 3.822081264659887 53 52 58
1.0901989359291409 2.891036056240554 3.785345353710237 52 51 57
1.1530084074845304 2.862272429081179 3.8090736298731955 51 50 56
0.9960555841188043 3.0001514578046793 3.723269849081737 49 48 54
1.4902496762827908 2.6459588461750365 3.9613288453386266 49 48 52
1.4671147812446652 2.6832062435690163 3.9418838248948256 47 47 49
1.070615842407118 2.9999477645788706 3.737804875670523 46 46 50
1.3815503765078494 2.7865059089894126 3.8838072050634804 46 45 50
1.3846354660207503 2.803623862402729 3.8775298139778522 44 43 48
1.3953060833598927 2.815083997651531 3.874995309535906 42 41 46
1.4019884189126035 2.82949387378564 3.8705029293236444 41 40 45
0.85064903673423 3.3079057336486337 3.5714738995256536 36 37 41
0.9024799530974149 3.2879828351433593 3.589523148467534 35 36 40
0.9369824506226049 3.280808712030624 3.5990928076391357 34 35 39
0.957419400153389 3.2838983919548825 3.6018134605342165 34 33 38
0.8863704510256736 3.3527241842813975 3.5603970310227995 33 32 37
0.8628372833409511 3.38714979454598 3.542008177392691 32 31 36
0.8391832778557183 3.4214955414884716 3.523627976921585 31 31 36
0.725895201750186 3.5193402625130874 3.4623682099264665 31 32 36
0.704809074932553 3.5513104880595354 3.445439910482959 31 32 36
0.6814022930721534 3.5847661906380077 3.427465119533668 31 32 36
0.6578304137613767 3.618175717906129 3.4094768713989243 30 31 36
0.6536038721473117 3.6378774095994073 3.4007443912205413 29 29 34
0.6452478260980574 3.6603953595822833 3.390080273081753 31 29 32
0.6036592417041922 3.7059309980380677 3.36372910658132 32 30 33
0.6255178571784805 3.7072663996409276 3.367429949475992 33 33 36
0.6238693984094894 3.7248925130205146 3.3600308762682674 34 34 37
0.5692127170670322 3.7789232402695383 3.327734459285269 34 34 37
0.5183972907389323 3.830008847266145 3.297365561633718 36 36 38
0.4942153089968391 3.8626165394611705 3.2795811044827143 38 38 40
0.4973206926828653 3.876499072496075 3.2746071534809142 39 39 41
0.5107114539710167 3.8833832543171036 3.274437869308135 40 40 42
0.5149902885494202 3.896446342843477 3.270020516924215 38 38 40
0.5248040177220208 3.905764269759399 3.268180325750985 39 39 41
0.5249035578672805 3.9216029964175125 3.2618379988917723 41 41 43
0.5380046778590988 3.9287145479377923 3.2615212458836718 42 40 43
0.5533833837466844 3.934332638804024 3.262245842217023 43 41 44
0.561707557546484 3.9446636568819544 3.259709998662865 44 42 45
0.5810220643300117 3.9477308442119807 3.262222104587085 46 44 47
0.6043191105539245 3.94822796404339 3.266538477388245 45 44 46
0.6276058731133816 3.9488030981586446 3.270821522315352 44 43 46
0.6279014235708804 3.964478469728955 3.2645828028332815 44 43 45
0.6190543219752418 3.9860695798843038 3.254195760591284 42 40 45
0.6297344732606815 3.994906466084213 3.2527167318774035 40 37 44
0.6421954286429241 4.0026026004051705 3.2520410878746517 43 40 47
0.6576314216454731 4.008401267728653 3.25270426058169 45 42 49
0.6820773727890619 4.008450050353764 3.2574234186647937 43 41 44
0.7025471029465566 4.011116858240693 3.260320272449689 41 40 42
0.7365615536551431 4.005210268732546 3.269286220969422 40 39 41
0.7543314514693147 4.009735119769757 3.270913440089258 40 38 41
0.8186451424315881 3.9848665613133343 3.2933688494819457 39 37 40
0.8972624590600705 3.9512450701718653 3.322112574709297 40 39 42
0.9555754169869631 3.930696129602482 3.341669791656688 39 37 42
0.3825635185553795 4.305255099545065 3.080152128271969 34 32 37
0.4812219493737733 4.258563325151556 3.118030422195806 32 30 35
0.5086121912687847 4.256536975801704 3.1241537959420427 34 32 37
0.5411951577313805 4.25138730111738 3.1325382421307575 34 32 37
0.5931493767316915 4.234412148758249 3.1494274309812664 36 34 38
0.5867636638483196 4.253456131190948 3.1405405727641122 33 31 35
0.6534855057596132 4.227714831416553 3.163813329187356 29 27 30
0.6625712856682886 4.237363620386105 3.161699137211224 28 28 30
0.6710406498602222 4.24739022133456 3.159313707341407 28 28 30
0.6766597194751673 4.25914161012399 3.1556829982696417 26 26 28
0.6724246141543433 4.276818959894482 3.1477619346977392 26 26 28
0.7091497993110651 4.269849611131928 3.157680205548266 25 25 27
0.7270333065959631 4.274277322923767 3.159368463381986 25 25 27
0.7612335425934025 4.269025760679659 3.168107334042195 24 24 26
0.7942112977078795 4.2646157611755005 3.176271218028889 24 24 26
0.8090817218687798 4.271023895950895 3.176579964921257 25 25 27
0.8448361848173342 4.265157261186794 3.1858671601624975 26 26 28
1.3707828539072149 4.0044077035034915 3.392549879326898 32 32 34
1.4086967240158141 3.9986959516479876 3.4021934584666664 34 34 36
1.4061209466717823 4.016517502986962 3.3945361305664314 36 36 38
1.3824688950146526 4.046425291956246 3.3779388140304234 36 36 38
0.9677830748128313 4.300522352453642 3.1954955480006664 37 37 39
1.076416758202621 4.253687212448911 3.2353650882351146 38 38 41
1.1746870055888647 4.213188828178268 3.2706805600570257 41 40 45
1.1617221914780358 4.23616736412882 3.258938056041589 45 44 49
1.1282571024662063 4.270633958278742 3.2386074772981353 44 43 48
1.0962320105853687 4.304107497552774 3.2189548966935826 41 40 45
1.0798038025350125 4.328660815814342 3.2059085162726433 46 45 50
1.0942251906485918 4.335876651508426 3.205805806330904 49 48 53
1.1014190241235322 4.34713864601729 3.202676924192181 50 49 54
1.1028846495251192 4.361569275948165 3.1971649694462387 51 50 55
1.1391201535007585 4.356773947230622 3.2061151226789835 52 51 56
1.1682128703195505 4.356024697465713 3.21205556763478 54 53 58
1.2275918111511204 4.338771482811444 3.2304956933332196 55 55 59
1.291690825198378 4.319158020471791 3.250798779835922 57 57 59
1.3473743167346535 4.304353638807414 3.267538983777807 58 58 60
1.3910934911639683 4.296225671178573 3.2792783710839175 59 59 61
1.4121891772605208 4.300446764892813 3.2816722852861178 59 59 61
