ply
format ascii 1.0
element vertex 730
property float x
property float y
property float z
property uchar diffuse_red
property uchar diffuse_green
property uchar diffuse_blue
end_header
0.6563117522290127 1.898577952491391 0.9409552272883661 83 80 77
0.6580845022329246 1.9181832354364552 0.939645448134098 80 77 76
0.6955512738325703 1.971725931067946 0.9342105437412179 68 65 64
0.6652231712988268 3.1813053598849574 0.8613568891366241 43 43 45
0.6431151700077262 3.1776562153097423 0.862840831888055 47 47 49
0.7022216785038715 3.4738943237227797 0.8412094477211608 19 19 21
0.7106013582097448 3.5072016253019243 0.8386785921751425 19 19 21
0.7287985475180299 3.694460953805467 0.8260962470308332 62 64 65
0.8267541060786874 3.889066042088342 0.8085191256148448 123 122 122
1.0353579390518213 1.7616748559894706 0.9411128826379692 110 110 112
0.9880702578722222 1.7383595367048446 0.945160713107306 63 62 64
0.9608019957224437 1.7322030660528358 0.947053739283489 53 51 54
0.9593239374239799 1.7484032405111476 0.9461555900065777 61 59 62
0.8867972564959931 1.7025648443925598 0.9529739363488537 45 43 46
0.8768031010489554 1.7111813862707899 0.9530096372247802 39 38 43
0.7806284164327162 1.7303791277356513 0.9572100239938791 53 53 53
0.6862208847934567 1.7148952871521987 0.9634110800407221 61 59 60
0.6614900791031897 1.7097785738900435 0.9650996917680249 68 66 67
0.67518672500591 1.7396180856073804 0.9625298918357826 76 74 75
0.7298775592544298 1.8247692479144122 0.9543264982920304 87 83 87
0.6929075034731764 1.8084257435306843 0.9573770633020993 90 85 88
0.7291238990286525 1.8595551083971518 0.9522630082500517 94 90 91
0.6682099976994113 1.8208903032570292 0.9579996625355333 87 83 82
0.7027790308890827 1.9605522011475807 0.9476187794086979 73 73 71
0.5834037089377819 1.9550329605796701 0.9546088219301085 68 66 67
0.6209164852482763 2.009434435607062 0.9492244313201998 69 67 68
0.538396635728351 2.075249853601015 0.9498418039621072 18 16 19
0.6836038096762946 3.1806979350310476 0.8748351879455313 40 40 42
0.6544657065468402 3.1689501915246465 0.8771708977531073 49 49 51
0.7087194963375945 3.4819045371728077 0.8552034465259979 21 21 23
0.7204712146422989 3.5193198817689915 0.8522835408467593 20 20 22
0.7315416109279924 3.698042089611267 0.8408486296830756 63 65 67
1.1252683403805839 1.8037371851487811 0.9470102612262696 167 167 167
1.0653332528792974 1.769973307932087 0.9522862925510088 152 152 153
1.011938940948163 1.7415606321047647 0.9568875590062368 77 77 79
0.9725816757113577 1.7250396445252476 0.9600165158138299 56 55 58
0.9554737484514706 1.7276587759646942 0.9607944963662542 58 56 59
0.9579482152886301 1.7472867024242875 0.9594936257272056 55 53 56
0.7663141185080821 1.717663278233768 0.9717103095584095 52 52 52
0.6749257838349593 1.7047467962774885 0.9774644130311477 57 55 57
0.6982844881719303 1.7607751456211886 0.9728618440319577 67 65 66
0.7018798172187728 1.7815765084970345 0.9714301111051568 74 73 71
0.6863875802879292 1.7849272317384268 0.9720764717887926 80 77 77
0.6642564725557222 1.7821221941510326 0.9734507387820625 81 77 78
0.6735242554922053 1.9149957848450923 0.9650526965889779 74 74 70
0.659220769595235 3.1525847667783955 0.8923239268032493 49 49 51
0.6371927645565121 3.149015195327246 0.8937379788131303 46 46 48
0.715890806207881 3.4907275072035295 0.8691468198146891 20 20 22
0.7488899723601508 3.553886049736648 0.8635946744274888 20 20 22
0.7338928329638135 3.701138135320514 0.8556666845061148 64 66 68
0.7844904492145934 3.8122368730082092 0.8463067105673596 87 87 87
1.0896366674060627 1.7732940231584242 0.9641432770133208 166 166 166
1.043043012081129 1.7508954036183837 0.9679355216309575 123 123 123
1.0020102833920224 1.7330789443811656 0.9711639392372504 69 69 71
0.9529133796566649 1.7255170454732278 0.9742253230675129 52 51 54
0.948787121024349 1.7393895151995915 0.9736372816041738 49 48 50
0.712795630667864 1.7391503068891034 0.9862483773471282 53 53 52
0.6865727981934558 1.7327574402279646 0.9880206344362662 51 50 51
0.6631485360740643 1.7288132997812804 0.9895008259903088 58 56 57
0.6610601730408531 1.7443079385456723 0.9887094841678652 71 69 69
0.6445345855455525 1.7465869794425788 0.9894588235898433 76 73 74
0.6326125148255851 1.7530605302860298 0.9897180292848726 79 75 76
0.6120493280152741 1.7515285139124128 0.9909049514852345 80 77 78
0.6117818165675996 1.7687459819067615 0.9899160299358017 76 74 75
0.6265099543331515 1.8352589078793702 0.9852543721855744 80 78 79
0.6627636924185271 1.8870520554394263 0.9803013537346175 78 77 76
0.6870098883907809 1.9278051005116703 0.9766325623273471 75 76 73
0.536775544763073 2.3186396912368323 0.9618794730151337 23 23 25
0.5023544631813743 2.321294011472239 0.9635622025615819 26 26 28
0.637263076760874 3.1272824147575573 0.90939871334925 48 48 51
0.7004494158246888 3.636156744697339 0.876375529384328 46 48 50
0.7217937725782273 3.6863378439078636 0.8723122978039639 64 67 67
0.7838120842657958 3.811579714902848 0.8617043753346688 92 92 92
1.0747781859304646 1.7606452138260664 0.9790226370097559 166 166 166
1.0373246758813162 1.7460603254257554 0.9818106955115661 104 104 105
0.9961426832855255 1.7280990326980805 0.9849862609643271 69 69 71
0.9564894509948318 1.7112771985423116 0.988016934927647 47 47 49
0.9392470392052341 1.7137344097380525 0.9887764410610606 43 43 45
0.8210198341636308 1.6797617584362206 0.9968879024425106 44 44 46
0.6581605026228502 1.7243511702212826 1.0028400640682353 41 40 40
0.6321062706555476 1.7178977476507178 1.0045685843925105 68 66 67
0.6201067317053169 1.7242457422709532 1.004832156439015 69 65 67
0.6077811642827435 1.730274087228271 1.005131007688445 74 71 73
0.6557467183485881 1.8805535051802376 0.9940413091106671 65 66 66
0.6803719869442365 1.9216433874252887 0.9904083888755955 65 65 65
0.517851366081006 2.337589809159962 0.9751251222633407 25 25 27
0.5096892440972158 2.34836436613174 0.9749355004142661 26 26 28
0.6424528522384345 3.111539016779818 0.9244018859085097 50 50 52
0.7101986220175867 3.461085686795254 0.9008945577125362 19 19 21
0.7839373751894028 3.5966525107371585 0.8893003418486269 21 21 23
0.653796294287706 3.5318853957969023 0.899793065560738 38 38 40
0.6983725374847969 3.6337748583283593 0.8916450538876229 47 49 51
0.7833460201353093 3.8111872118081793 0.8770736104796404 90 90 90
0.8336100207304791 3.8984069811163837 0.8694669119165251 116 115 114
1.1199159373593084 1.7993923047189946 0.9879004497808023 167 167 167
1.0367209602612277 1.745621139835355 0.9951550458164546 100 100 100
0.993870091961223 1.7262191558318236 0.9984271510919571 69 69 71
0.9617805424135335 1.715935278148205 1.0006397441585 43 43 45
0.95157122268853 1.7245135476865054 1.0006800193208958 38 38 40
0.6908979199234629 1.7543024356544508 1.0123066718297145 34 33 35
0.6490783283632098 1.7335192019773489 1.0156035362171842 43 41 43
0.6128238546965152 1.7176470700950508 1.0183415202162112 51 49 53
0.6009146182298651 1.7414169078862098 1.0176176930429444 52 52 56
0.5974938753352974 1.7731543176739204 1.016014708864135 60 62 66
0.6110683090654254 1.8209837279981191 1.0126436982313352 60 63 66
0.6629174595503938 1.887386489418171 1.0062803847498 60 62 65
0.681960828525349 1.9232373682568555 1.0033013014879275 57 58 60
0.6754563907642909 2.062630534641049 0.9958263434976999 57 56 58
0.5360515377184311 2.356708075604626 0.9864665490243854 25 25 27
0.53196382242836 2.3718128931619282 0.9858290887203792 26 26 28
0.5054964630148071 2.363438408735904 0.9876480009585634 27 27 29
0.6510326678520477 3.0997345952170647 0.9389891047716498 51 51 53
0.7180022178971925 3.4706398434655377 0.9148009828471206 19 19 21
0.7433875702666022 3.5244160001814677 0.910494539536316 19 19 21
0.7625542016741416 3.5944464874726183 0.9055949440635844 26 26 28
0.6869442970926949 3.596239456231471 0.9093508191416553 42 41 44
0.7936899319750776 3.8242721939840902 0.8911355801238402 84 84 84
0.8465657390880823 3.914804757907217 0.8833685174862606 110 110 109
1.065812430338383 1.7707054504222384 1.0056179184686977 124 124 124
0.998967640603576 1.7306950167930484 1.0111432386385997 67 67 69
0.9650243507869931 1.7188221262640335 1.0134855930563642 42 42 44
0.9493671378234116 1.7226809715380758 1.0140537866304289 36 36 38
0.8592197134188684 1.6788725610015447 1.0209483077704518 35 35 37
0.701625674529211 1.764176930638635 1.0241176587738048 32 31 35
0.5901415808002362 1.7489500817645327 1.0305066536319745 33 35 39
0.6172431976556959 1.8268604463500808 1.0248813671324428 41 44 49
0.6570921489012048 1.8820075137941727 1.019870202049901 40 42 47
0.660618697646022 3.089093746649069 0.9534568659417497 54 54 56
0.6356761085119089 3.0821991029022326 0.9550776856678936 44 44 46
0.6974179231783877 3.42306982405066 0.9332971523031077 20 20 22
0.726167919543069 3.480629846727031 0.9287064588274907 19 19 21
0.7666497129166912 3.5526513448032433 0.9227378018035993 19 19 21
0.748260586413078 3.577267201242511 0.9223030616320338 27 27 29
0.7627842227751891 3.6421507931191526 0.9180191623271999 34 34 36
0.7898540328528545 3.8196785089859735 0.9069290564129112 78 78 78
0.8340609248741848 3.8993541364179434 0.9003548256035123 106 105 104
0.978651610208065 1.7132547622015075 1.0262958932073931 70 70 72
0.9381591686412116 1.6956573760945317 1.0292105719677431 41 41 43
0.9243626317477418 1.7184418477621193 1.0286569200503686 32 32 34
0.8916565422591232 1.7072996709089758 1.0308460654248317 31 31 33
0.8711948300090695 1.7067561357495709 1.0318702255911885 31 31 33
0.7300656557723437 1.7902095715981374 1.0342475758033332 29 29 31
0.7021381222661325 1.782259403186318 1.0360328160125776 31 31 33
0.6743912469846299 1.7743604232710304 1.037806520705284 29 29 31
0.641455615737978 1.7615668511824603 1.040095578564566 29 29 31
0.6176837837739707 1.7570976179178097 1.0414916720438383 23 23 25
0.6009646923599147 1.7590781238932771 1.0421981979072552 27 27 29
0.6003713179525034 1.776014774285459 1.0413168232231895 28 28 30
0.603747001357277 1.8143131812021012 1.039094407242082 30 30 32
0.6647964359685058 1.8893421440522797 1.0320935977182082 33 32 36
0.6648882935744691 3.0723693140466137 0.968509627956924 53 54 54
0.6446521209947067 3.070914625918191 0.9695717894280538 49 49 51
0.6997714354806908 3.426060549711223 0.9478049881103924 20 20 22
0.7244824906296472 3.4787757172759024 0.9437703407232296 19 19 21
0.7913726124470717 3.821760713473138 0.9220847504476076 74 74 74
0.8260380426265821 3.889509436375903 0.9167581231628539 106 106 105
0.9981052290413021 1.7301111964455538 1.0376706090971557 77 77 79
0.873745015464354 1.6917282845487307 1.0455891688647414 29 29 31
0.8737189271880885 1.7090511958329335 1.0446790125520797 29 29 31
0.6717699338349948 1.7545536369803476 1.051864696638816 29 29 31
0.6501926754785945 1.7522287092766224 1.0530105555550926 26 26 28
0.6160047895458584 1.738208281763289 1.0553699369116416 22 22 24
0.5982983322562501 1.7392686660043097 1.056154072156425 17 17 19
0.5860995478002682 1.7453827498443004 1.0564110597226484 20 20 22
0.5856491200019505 1.7624076808013236 1.055536709752115 24 24 26
0.60290198932719 1.813614951315087 1.05202418257213 25 25 27
0.6511031757399961 1.8765693640219676 1.046425548551673 28 28 30
0.5708652069300237 2.4718297266579388 1.0189138534415778 26 26 28
0.599387113185898 2.521862817077942 1.0149285437847382 27 27 29
0.6865863342312057 3.0322116285433154 0.9839416618900872 40 41 43
0.6666150799357717 3.0527846575644313 0.9838066299375018 53 54 55
0.6531279698216463 3.05906280410919 0.9841160988973939 49 50 51
0.634895721343977 3.059865344116857 0.9849387413075902 42 42 44
0.672585117191288 3.125026846055593 0.9797226255294942 33 33 35
0.7003226061314234 3.426891439027262 0.9625251544647935 19 19 21
0.7213406740544912 3.4751703538574095 0.9589880879596508 18 18 20
0.7860472732314037 3.8153096163638454 0.9380232399271797 72 72 72
0.8289970020596864 3.8934024175293462 0.9318772526454003 113 113 112
1.0109347244547437 1.7412554364178199 1.0497308801916658 81 81 83
0.8686815216313494 1.6873844765399557 1.059083008043875 28 28 30
0.8647264913535779 1.701248519328233 1.0585521823848247 29 29 31
0.7311195580927459 1.7913489702435719 1.060092657594976 23 23 25
0.6953768021098833 1.7762495123891622 1.0625229912624832 26 26 28
0.6571453997319426 1.7587027511242366 1.065194407168941 24 24 26
0.6215141714646409 1.7433738363778368 1.0676313956657153 16 16 18
0.6011156303466093 1.7419629564963293 1.0686474025784838 16 16 18
0.5861876742551425 1.7455550893751086 1.0691528508332806 14 14 16
0.5769781400580727 1.754430752075328 1.0691218374026503 14 14 16
0.5926496928673944 1.8041054099718685 1.0658397739560848 18 18 20
0.6440283376029806 1.8700157029343543 1.0600705346976957 20 20 22
0.5931935679797748 2.5154168823093954 1.0291956175506756 27 27 29
0.6720655629553993 3.0159058109278485 0.999782361259402 57 58 58
0.665053179549858 3.0295198893675837 0.9994057977348088 55 57 57
0.6593116821408949 3.044605062898789 0.9988947260129541 49 50 52
0.6475292045817693 3.052807472512196 0.9990173634823922 41 42 45
0.6742492857411877 3.105206118840571 0.9950841040341704 31 31 33
0.6917221688784565 3.147228538712576 0.9921126789042998 31 31 33
0.6972511984121346 3.219994409690858 0.9881109197634064 33 33 35
0.7084896286632343 3.436849697504014 0.9764272545935817 20 20 22
0.7280929781547909 3.483461722181273 0.9731210242629149 18 18 20
0.8318172717120023 3.8971221014945234 0.947028438981037 124 124 123
1.0013118046388216 1.733036541140461 1.0638342167210348 77 77 79
0.830273591490591 1.6711212637391237 1.074658296931793 29 29 31
0.840408803332729 1.6973107359302004 1.0728829881927768 31 31 33
0.7345341010218797 1.7769805439889965 1.0736421401008895 20 20 22
0.71999538579883 1.7812895427542497 1.0740802696386946 20 20 22
0.7191062961809449 1.7980583589550907 1.0732760233557057 20 20 22
0.6349818216629329 1.7384388163260311 1.080068345855653 18 18 20
0.6200738237382947 1.7421363893642994 1.080553899748818 15 15 17
0.6046799381027513 1.7453478772629236 1.0810858211207166 14 14 16
0.5873705628607516 1.7467427759202043 1.0817955157649968 13 13 15
0.579851493705583 1.757195685723932 1.0816080085439468 13 12 15
0.5821475685780546 1.7768197353881683 1.0805164842961401 15 13 16
0.5205743558057068 1.9853988598325065 1.072788933691094 34 34 36
0.5635256201265296 2.50386671859856 1.0447488650889907 27 27 29
0.6847323320448135 2.965944463781872 1.0160219871431833 47 47 49
0.6802154693052835 2.9822746946879577 1.0154032841148357 58 59 61
0.671559211167144 2.99396868370495 1.015204528345952 59 59 61
0.667707686021038 3.0111166049500575 1.014514675904288 53 53 54
0.6615962376067483 3.0257397334078595 1.0140537741861668 50 51 52
0.6530808524353884 3.0376486298934164 1.013837850395595 45 45 47
0.6771597994724587 3.0868721259003693 1.010274504369551 30 30 33
0.6966449678914333 3.1310766451390695 1.0071708498816103 29 29 31
0.6945678316671424 3.150662603376545 1.0062782921103386 29 29 31
0.7034214836965302 3.1829429534502003 1.0042540533814646 31 31 33
0.7072482635828559 3.2095373641104725 1.0027426020146126 32 32 34
0.7265803781397067 3.4587019671364514 0.9893261393685986 21 21 23
0.7450277266864798 3.5039973937819457 0.9862143200738307 20 20 22
0.8011395684489924 3.7136682262901495 0.9731291372852604 36 35 40
0.7870495733456155 3.8169368367814562 0.9685644491552464 81 80 79
0.8366346201403516 3.9033404391465307 0.961979834882646 126 125 124
1.0014358034062916 1.7332234928182229 1.0770555153230343 70 70 72
0.8841992154899664 1.6837822385645165 1.084632000593326 28 28 30
0.830555437297039 1.6714497946744862 1.08759228680197 28 28 30
0.8332796758894532 1.6911212058197802 1.0865045774332012 33 33 35
0.7708056614389562 1.6877742139734218 1.0894099859838715 26 26 28
0.7363241309338407 1.6743444837484538 1.0915836499450953 27 27 29
0.7191042569290967 1.763038531736217 1.0879736705931973 21 21 23
0.7138894948787817 1.7758079687404495 1.0875739430884601 20 20 22
0.6365520932462868 1.7225847857032592 1.093586231179963 20 20 22
0.6214499003093611 1.7261009922228276 1.0940756868665116 17 17 19
0.6084859970912164 1.7315492970019333 1.0943762426569925 19 19 21
0.5944072227500875 1.735941770120606 1.0947776733342927 28 28 30
0.5812090789987795 1.7411188486461078 1.095101854410472 27 26 28
0.5766794498915764 1.7543353101067052 1.0946500688640561 22 20 23
0.5729515629006569 1.7683264786699648 1.0941249816579603 15 13 16
0.5737140347254325 1.7865549313162696 1.0931943535120652 12 10 13
0.5279842978051885 1.992769971224231 1.0850508532951728 34 34 36
0.5813884193777742 2.2697021299779645 1.0690778482835712 24 24 26
0.5749708884096625 2.5161798543096925 1.0572280861487802 28 28 30
0.7098563534490263 2.8878230334141697 1.033019028329717 40 38 41
0.707708041685178 2.9065924979508475 1.0321894655705555 41 41 42
0.6969620116816935 2.915864141813346 1.0322045459546487 47 47 47
0.6797762564295218 2.917949734239306 1.032855818341685 53 53 55
0.6701859547890496 2.9284767084811625 1.0327584124203346 58 58 60
0.6706304292258198 2.9502660339499696 1.031666473271068 60 61 63
0.6681344660328099 2.9688204484885032 1.0308627461056215 58 59 61
0.6713172893100501 2.993843758696446 1.029491505996972 49 50 52
0.6675784287076652 3.011119482215166 1.0288052389366722 48 48 50
0.6647019464938928 3.029421354545613 1.0280306345489707 43 43 45
0.6614678874266622 3.0473676008395647 1.0272892201320327 30 30 32
0.6969594104101644 3.1096864624477676 1.0226649932982965 26 26 28
0.7041647880778754 3.273063209630765 1.0143077226694694 36 36 38
0.6909706364168662 3.2800288063117042 1.0145437002245377 37 37 39
0.7284875866354901 3.461158974842883 1.0039828915312552 20 20 22
0.7493059503636159 3.509314855399168 1.0006994442746 20 20 22
0.8000654003393943 3.712533200462185 0.9884705504752247 34 35 39
0.7933714033648567 3.8250086558968253 0.9832283231277502 84 83 81
0.8412812393593736 3.909345506375729 0.9769756219983668 118 117 115
0.9833348797818554 1.717692386344977 1.0918119613655557 72 72 74
0.8996133228335113 1.6972895847421505 1.0963663045795837 27 27 29
0.8291382382969791 1.670288529796751 1.100672582334791 27 27 29
0.8138776792669452 1.674134334959048 1.1011389667124738 33 33 35
0.7942361189932878 1.6740763249027912 1.1019800558442918 28 28 30
0.7738747444722922 1.6733182374311968 1.1028855314322485 25 25 27
0.7238815611451819 1.6633360715626586 1.1054992507370982 25 25 27
0.7366056121820675 1.7615142760549392 1.1002350603582607 24 24 26
0.7038320355084564 1.7492393880237556 1.102224099713374 23 23 25
0.635595015674272 1.7044673546735178 1.1072894163104845 21 21 23
0.6211578350786516 1.7085822778729742 1.107707717817012 24 24 26
0.6093313873156134 1.7150607657720887 1.10790093598597 28 28 30
0.5949911300884004 1.7192047247685744 1.1083137045596156 35 35 37
0.5844248537582506 1.7268037506315446 1.1083992550565875 37 37 39
0.5775143512172312 1.7377826044157403 1.1081662505841607 39 39 41
0.5606330006658081 1.7394946457195635 1.1088044172030371 41 39 42
0.5393084423094481 1.7370087579555855 1.1098340866995873 40 38 41
0.5627561675362106 1.7763835284465648 1.1069399122039036 32 30 33
0.5672338960114901 1.7981296207617996 1.1057030913859816 21 20 22
0.5780259340238872 1.825911735590704 1.103906520243067 14 14 16
0.5454192532473633 2.2331185400584657 1.0857166751123215 26 26 28
0.5986705949457186 2.541541577902678 1.068612668432534 40 40 42
0.584856657594393 2.546782957721576 1.0689502016780494 42 41 44
0.5921137756624923 2.574577038217898 1.0673039251233707 44 42 47
0.5969246110305724 2.5998582429955324 1.0658828931637794 45 42 48
0.606713140135716 2.6306104675580917 1.0639863269729708 48 46 52
0.6766083367082609 2.8512614255625746 1.0503926888334283 56 52 56
0.6692034493404841 2.864089212019433 1.0500918743841718 57 56 57
0.6703244822374077 2.886408026538655 1.048970776264874 59 59 59
0.6668657908191331 2.90370057752079 1.0482868399389709 63 63 65
0.6662801509081973 2.9242529757340803 1.04732352469556 60 61 63
0.6645466024022026 2.9435848403289 1.0464678942845143 50 51 53
0.6671364322924622 2.9678439198889857 1.045190805878015 46 47 49
0.6738902384773215 2.996898531360749 1.0435053950284139 46 47 49
0.6680985694464356 3.0118583446896983 1.0430332050876918 40 40 42
0.6687842662003509 3.0342136128314814 1.0419289341080178 29 29 31
0.6611828741762049 3.04719392646375 1.0416291718282873 26 26 28
0.6915882382443619 3.280917331440558 1.0290923360123887 37 37 39
0.6726051601498269 3.281037165711859 1.0298967691371472 37 37 39
0.7385453328242169 3.4733849495935365 1.017832955506189 20 20 22
0.7726443422389355 3.537552627560548 1.0132919602739332 20 20 22
0.8015724069158736 3.643074141747121 1.0069830641406194 31 31 33
0.8026437103801118 3.7158780908269193 1.0034363923224194 35 36 40
0.7523003940857333 3.6779290788858297 1.0074099066731899 41 42 44
0.8030781142865426 3.837301804322026 0.9975789078602194 82 81 79
0.8452715481019899 3.914529766473058 0.9920644090979044 109 108 106
0.9991376614252467 1.731401473901871 1.1037112757588565 73 73 75
0.8864647797665729 1.6859170606584566 1.1105219168255698 27 27 29
0.8569007419138313 1.6774132206063865 1.1121478552645707 27 27 29
0.8362147943989655 1.676575106765694 1.1130454837791754 27 27 29
0.8132708046744181 1.6736823442625237 1.1141332781043283 35 35 37
0.7167877747258504 1.726225750712448 1.1156691959180418 22 22 24
0.7077926355907839 1.7354877645777123 1.1156075031423138 24 24 26
0.6131009791170462 1.6668230599118967 1.1227605449441787 24 24 26
0.6316473227161643 1.700953315011557 1.1203884239295139 28 28 30
0.6186785444234442 1.70640097506131 1.1206707069815978 34 34 36
0.6040703026747876 1.7103178298381345 1.1210928929954902 38 38 40
0.5918533451471994 1.7164027903071184 1.121314057407719 37 37 39
0.5699732792298742 1.7135338829215532 1.1223565886693037 34 34 36
0.5653811279111252 1.7266195605814252 1.1219326689384075 29 29 31
0.5674097660981663 1.7458918323397583 1.1209435503724772 27 25 28
0.5606202841133788 1.756997576876181 1.1207037691452817 33 31 34
0.5455399510270781 1.7603495117007804 1.1211720689368747 39 37 40
0.5556643468539582 1.787350009363199 1.1194841652261154 38 37 40
0.5577721911770546 1.8069089055516856 1.118478301604083 31 31 33
0.5684143142127899 1.8346092159927743 1.1167360566233622 19 19 21
0.5847021120988578 1.8677894569608442 1.114502253079732 13 13 15
0.5841923142816554 1.8851314216499597 1.1137090954684943 12 12 14
0.5935770147705239 1.9119792054514435 1.1120590530540364 12 12 14
0.5592089966139145 2.228329798791525 1.098630443841792 27 27 29
0.5078557906699493 2.194906848444082 1.1023305316807097 27 27 29
0.6866254521658188 2.8205394719285217 1.0655360450299196 54 54 56
0.6721828216197405 2.846516735362289 1.0649154909502412 58 58 60
0.669908484788468 2.865011832513705 1.0641413987633375 57 57 58
0.6693919297937363 2.8855145959537296 1.0632001030138587 53 53 53
0.6666562447955919 2.903610802237656 1.0624638827998103 45 45 47
0.6653633971047153 2.923372460966835 1.0615895952826175 45 46 48
0.6675124849011629 2.947059222242643 1.0603881923660117 44 45 47
0.6681689684635301 2.9691536236229514 1.059323489481688 45 46 48
0.6675746565873764 2.9899126725843748 1.0583733857725717 35 36 38
0.6728903539692928 3.017438522538235 1.0568603297835761 25 25 27
0.6910259592581312 3.2804194043302193 1.0437593382380246 37 37 39
0.6695814469753005 3.277635711475764 1.0447797967486727 36 36 38
0.6538714762806135 3.281546977555929 1.04524795666881 29 29 31
0.7349952386476795 3.446232124477218 1.0341491191638796 21 21 23
0.7419838916744106 3.4776778957790344 1.032382587240783 20 20 22
0.7848099797265993 3.5523561133596218 1.027099112577524 21 21 23
0.8521912038216362 3.7047291871563077 1.0171485881631674 32 32 34
0.8016765712731231 3.714874356067285 1.0187680979727505 37 38 42
0.7525346640004404 3.6783996961805077 1.0225197336297192 42 44 45
0.8019764791970398 3.836117357020379 1.0130625670093556 79 78 76
0.8450801937371055 3.914482404595846 1.0075944546077302 108 107 105
0.9792217841563868 1.7143045222862487 1.1185311357965155 69 69 71
0.9120803270148037 1.690954526869593 1.1223070353004796 31 32 34
0.8794532244451829 1.6798900648857369 1.1241289780372432 28 28 30
0.8527241109977356 1.6738439700483716 1.1254832588080435 28 28 30
0.8350187625141902 1.6756078288415366 1.1261159810926902 28 28 30
0.7278900706784963 1.7363416181778075 1.1276503157307758 25 25 27
0.6454269598126198 1.6790500608034042 1.1335990582409097 34 33 36
0.6217051087413915 1.6747336297417543 1.1347528809443708 37 35 38
0.6260941384833315 1.6959743958703775 1.1336026470602032 41 39 42
0.6225330175390573 1.7100172889323684 1.1331026551450893 40 38 41
0.6083249377348364 1.7143138407061151 1.1334783729198785 38 37 39
0.5578798016519425 1.7024435369063349 1.136055334833807 35 35 37
0.5553123522909751 1.7173709415892389 1.1354747641576626 32 32 34
0.5489877459051807 1.7288398696187786 1.1352040955323977 31 31 33
0.5650635872918053 1.761237839338492 1.1330715922154144 30 30 32
0.5580930311826227 1.772200646118483 1.132850149080485 37 37 39
0.5471059450714432 1.7793999521500012 1.1329630387020226 40 40 42
0.5576468692769488 1.8068848390363617 1.131278740428992 40 40 42
0.547422960593663 1.8148459181203749 1.1313259649748713 26 26 28
0.5604866062533878 1.8449015716798172 1.1294221931025976 16 16 18
0.5796897926728574 1.8809407374073115 1.1269967969999928 12 12 14
0.5935269045293258 1.9120292548945856 1.1250145227666617 13 13 15
0.6005753789569579 2.232472688393126 1.11004626407031 29 29 31
0.5578702965640762 2.208174092039036 1.112880812598909 28 28 30
0.546476477295911 2.2154947883522063 1.1130045314759816 27 27 29
0.5257435415681166 2.2132715504725438 1.1139419769301504 28 28 30
0.5390215184906724 2.2457865956866114 1.111916866544105 30 30 32
0.6463582447202354 2.612742419624135 1.0907754382257526 56 56 59
0.6554939096388062 2.6427683495058645 1.0890313315733133 55 54 59
0.665185909663865 2.6735241236579776 1.0872313590054252 53 52 57
0.6874672063700986 2.8216016283811807 1.0795477975764296 50 50 52
0.682346900860751 2.836896967749719 1.0790532501272574 43 43 45
0.6772175436285737 2.852215674735281 1.0785579966633063 40 40 42
0.6701116318204863 2.865378605189369 1.078241188744598 35 35 37
0.668287745967902 2.884430405520697 1.0774416525932824 34 34 36
0.6669755989620001 2.904110701881625 1.0765926920620372 36 36 38
0.6429885661199373 2.91968314300183 1.076845802158381 43 43 45
0.6688005354498767 2.9700119199185027 1.0734992469615503 32 32 34
0.6732499091651822 2.9964720480344758 1.0721074059044906 21 21 23
0.6905588393385069 3.0810106139000952 1.067535884908518 24 24 26
0.7066784412656875 3.276493312472666 1.0579283239322257 36 36 38
0.6861777351978888 3.2748848437670137 1.0588282386472858 36 36 38
0.6665300107226575 3.274201413621355 1.05965138747449 35 35 37
0.6582362998393665 3.286874367127619 1.0594049025301373 28 28 30
0.7432420740039334 3.456254543908366 1.0482172698795087 21 21 23
0.7382449869709888 3.4733680756148857 1.0476344385983265 20 20 22
0.8102080965595191 3.6302207480285933 1.0375465116572749 30 30 32
0.8600863351626176 3.7144981582283183 1.0316743691180261 33 33 36
0.8004607481477111 3.7135655368403473 1.0341201010783412 35 39 42
0.753014159997563 3.6791721370313586 1.0376083293805878 40 45 46
0.7270678075733346 3.671025313204641 1.0390273288681562 57 61 62
0.8022094467376466 3.83659717527102 1.0284117492556264 76 77 74
0.8545693829550778 3.92654718860831 1.0221796459901893 110 110 109
1.0561300269076883 1.7631031528326873 1.1265336133169184 86 86 88
0.9551960159955956 1.693662322083598 1.133584879811309 61 61 63
0.9095242010467435 1.6888155608173487 1.1355878157118597 29 30 32
0.833206710229339 1.6741003404549253 1.1392304196860752 28 28 30
0.700699120375166 1.7118647321542149 1.1427252554347576 31 31 33
0.6693726645993464 1.7008397144108165 1.1444432404582392 30 29 31
0.6463372630062469 1.6972196597440563 1.1455059941611017 31 29 32
0.6434536611463747 1.7119000079595437 1.1449626668471065 34 32 35
0.6314505108884158 1.7182683016326123 1.1451475157419406 38 36 39
0.6250366401145199 1.729750578818811 1.1448851963797466 37 36 38
0.6527804827780873 1.7727215675231844 1.1418795688337562 37 37 39
0.6564966155322133 1.7937020136070925 1.1407965410973424 35 35 37
0.6512694943006433 1.806464220197551 1.140430601442036 34 34 36
0.6266555989169553 1.8188358706185084 1.1408403736992638 32 32 34
0.5567055675944389 1.7709934847342024 1.1457144904090135 34 34 36
0.5499944433686689 1.7822078019173806 1.1454757732177743 36 36 38
0.5585361183809462 1.807817448281843 1.1439971150500077 37 37 39
0.5503538869403559 1.8177134316160535 1.1438748563824535 25 25 27
0.5600562503622056 1.8445888441860236 1.142294230224132 16 16 18
0.5739108565662479 1.8755343886149833 1.1403692942918948 12 12 14
0.5884320381197538 1.9072593977170966 1.1383834504950532 14 14 16
0.5995251658533058 1.93584581445745 1.1366719585181182 16 16 18
0.6645963585378152 2.652655765036049 1.1020903988954975 30 30 33
0.6749984692636561 2.684208492079491 1.1002733602827623 28 27 30
0.6918879398376421 2.784906232428204 1.095112279539591 23 23 27
0.6906384978604942 2.80434694017415 1.0942922814229061 24 24 28
0.6844909188374722 2.8184763326753304 1.0939012389324632 25 25 27
0.680993016059741 2.835547124750459 1.0932751017405864 25 25 27
0.6170654968736418 2.7859489385138576 1.0979921378168656 27 27 29
0.6294775610792049 2.8205129287878394 1.095961902953175 31 31 33
0.6550071291369759 2.8698148249847595 1.0927599320883021 35 35 37
0.6542225370832317 2.8900357913834145 1.0918868805191113 41 41 43
0.65579285207787 2.912956676225586 1.0908010558310142 41 41 43
0.6725709440273266 2.9530283750677095 1.0883538997982678 25 25 27
0.7004547717757088 3.0058010679752885 1.0849047281598303 18 18 20
0.7055025321919621 3.0982118671723944 1.0805771705908935 23 23 25
0.7288072458581676 3.2800837301167127 1.0715372496268734 36 36 38
0.6792921452135678 3.266955763047292 1.0740606174906697 36 36 38
0.6685869818020163 3.2767900332280058 1.0740397940518374 33 33 35
0.8311333996793069 3.655729597823933 1.0507462674409285 30 30 32
0.8598449383308213 3.714385323170291 1.0470017910999163 33 33 36
0.8003871145286059 3.713657722451237 1.049359828005607 35 39 42
0.759007609932641 3.686730680909422 1.0521817199614503 41 47 47
0.8079785721339154 3.8439810831347225 1.0432383495852469 78 80 77
0.8555424249659958 3.927957058448851 1.0376248787444453 122 122 121
1.0300267922809179 1.7407436197237676 1.141836458701328 85 85 87
0.7088965058028439 1.7193564416509233 1.1549462310908905 20 20 22
0.679489156168152 1.7100956328325605 1.1564648515974778 25 25 27
0.656168584016166 1.7062469773775641 1.157516883208745 25 23 26
0.6443141857924751 1.712772837209573 1.157682156436782 24 22 25
0.6342071296634951 1.7208799751595505 1.157712282787184 31 29 32
0.6168613685691697 1.7223312222989002 1.1583068613918814 29 28 31
0.6299369247669206 1.8219924450005804 1.1534695977057974 22 22 24
0.5720379314340791 1.7854487455011845 1.1572571837294143 24 24 26
0.5657534452882271 1.7971120976850545 1.156987433646915 26 26 28
0.5749597984273347 1.8233982873734567 1.1554932354134264 27 27 29
0.5633098016319464 1.8300652886198425 1.155644608848982 25 25 27
0.5733368513933418 1.857290264254914 1.1540783925895781 16 16 18
0.5833761418164695 1.8846450495545777 1.152506057413054 16 16 18
0.5858244325013147 1.9048658195427237 1.151532362319061 13 13 15
0.6627946396555573 2.650855784314868 1.116116919530441 14 14 16
0.6695807643803804 2.6785148104502463 1.1146546998046962 14 14 16
0.6797052113999376 2.7098913818741615 1.1129039397615548 15 15 17
0.6944683950650357 2.767107544200962 1.1098516521840334 16 16 18
0.6911115573885671 2.784197284877828 1.1092344956536317 17 16 20
0.6871851042856734 2.8007097364945035 1.108664088095598 17 17 21
0.6836855808875295 2.817731983957431 1.1080552826997416 21 21 23
0.6859016386182502 2.8410884889726984 1.1069537968104592 24 24 26
0.6789867201101294 2.854450657919256 1.1066339511921512 28 28 30
0.6434855435338729 2.836169711697477 1.1087765975433468 35 35 37
0.7263501260565461 3.2773765605467275 1.0864144694481959 37 37 39
0.6786687847388002 3.2663857005672012 1.0887014520205893 36 36 38
0.793825529610179 3.5871907616386163 1.0703596159039828 28 28 30
0.7967948500414852 3.709433688446193 1.0649219119660467 35 39 42
0.7616235478641209 3.690132782466094 1.0670964797002278 42 47 48
0.8171929262635642 3.855661979212413 1.0577784221606321 88 89 87
0.8678321430318741 3.9435269818301735 1.0520305072264453 136 136 135
1.1203577157103195 1.800731709788894 1.1492563521983918 140 140 141
1.0051628037271385 1.71944874446503 1.1569366651285953 80 80 81
0.7504373120618071 1.739506176690057 1.165442503917252 16 16 18
0.7203688390783385 1.7298069977730708 1.166958550781462 19 19 21
0.6941632998724648 1.7234828724068874 1.1681894962243125 21 21 23
0.6697582421361102 1.7186923814284283 1.1692892321243147 17 15 18
0.6645221044252795 1.731298124945263 1.1689467101053985 17 16 18
0.6586673647160376 1.743359405419565 1.168650012881218 20 19 21
0.6443278269368041 1.7476461408789135 1.1689948633510763 17 16 19
0.6037215133991736 1.727695702770542 1.1713329597169047 15 14 16
0.6665677313582735 1.8031948428444289 1.1658209883673791 13 12 15
0.6547321382679926 1.82752061217372 1.1652236043384223 20 20 22
0.5923199267563933 1.7869625687516506 1.1692370817323385 21 21 23
0.563610358513032 1.777646774310667 1.1706869446987835 22 22 24
0.570192446993399 1.8013776293810837 1.1694382629729492 23 23 25
0.5699276632899715 1.8187475590918036 1.1687109828088251 23 23 25
0.5630381451526442 1.8299032916129516 1.1684907187019695 24 24 26
0.5723295467465692 1.856430115750649 1.1670238822723693 25 25 27
0.5827282120295448 1.884124968591856 1.1654668130474881 19 19 21
0.5789323086017066 1.8983784540862134 1.1650014729210965 14 14 16
0.5849596671941595 1.9220808629492765 1.1637743751585972 17 17 19
0.6754962481302276 2.664601702538779 1.1289435030685326 14 14 16
0.6835780099213427 2.693700024309713 1.1274119918469274 13 13 15
0.6844362561094404 2.715129572562465 1.1264712095226344 14 14 16
0.6874811916905079 2.73900062450265 1.125346510097302 16 15 18
0.6848380870062394 2.756784468630798 1.1246890308161563 17 16 19
0.6956558056704816 2.789285852835917 1.1229126271956178 17 16 20
0.6919194539415874 2.8060233737800973 1.1223397018659533 18 18 21
0.6879689901677908 2.8225690233295877 1.121782782659142 24 24 26
0.6893613205854505 2.8450356525189138 1.1207783783577372 29 29 31
0.6843643678497997 2.860528769230546 1.1203045590053191 38 38 40
0.6637662454380724 2.8587753437936225 1.1211355913238146 37 37 39
0.7442552893423833 3.275967333441401 1.100477507628021 35 35 36
0.7227200827043987 3.27329986000304 1.1013817451028591 37 37 39
0.669986605788115 3.256344642239249 1.1040382234177852 35 35 37
0.7859120239088233 3.5543783785731486 1.0871343365641484 22 22 24
0.8461650364040254 3.6981301837014655 1.0788216597639384 34 34 38
0.793910086941608 3.7060773468893533 1.080403951659412 37 38 42
0.8170641434658599 3.8556911984714968 1.0732053105418857 95 95 92
1.0940603760529897 1.7782795972236949 1.1645777155229833 131 131 131
0.8094682518017717 1.6707463507332059 1.1791340998979676 34 34 36
0.7804737037329762 1.6969502372945184 1.1790824937117272 27 27 29
0.7656914157553715 1.7533278478472578 1.1772796067487181 16 16 18
0.7302522195735374 1.738822412729712 1.1791382951725393 17 17 19
0.7022424288078608 1.730892801159033 1.180461344799741 18 18 20
0.6850644018419824 1.7326991925971638 1.1809973132186768 15 15 17
0.6833653270820549 1.7485788750825528 1.1804018995806076 12 12 14
0.6690306482280016 1.7529349140502657 1.1807315088126222 11 11 13
0.6301016209419252 1.7346693743749437 1.1828695246716352 12 11 13
0.6128290908409133 1.736177570826971 1.1834211670403836 17 15 18
0.5868531401799929 1.7469881427635978 1.183897987670249 30 28 31
0.5937172559329967 1.7708302862644882 1.1826693705375504 31 31 33
0.5875616548679788 1.7826120443750124 1.1824015955971448 31 31 33
0.5594092645158271 1.7738038679496873 1.1837659970232526 32 32 34
0.5655267051407575 1.7970859202310647 1.1825870502864964 30 30 32
0.571115690405859 1.8199621798794179 1.181443645343682 29 29 31
0.572456351547814 1.838908806578997 1.180613528676515 23 23 25
0.5807983175376612 1.8645647538505097 1.1792574762519998 18 18 20
0.5879986728014432 1.8892412069504967 1.1779824523242985 15 15 17
0.5781889584299202 1.8977658996646338 1.1779790693100052 15 15 17
0.6224909216904241 2.293259145770367 1.1600711923183045 49 48 53
0.6265225092493412 2.3165618652026887 1.1589655308512745 56 56 59
0.6307988057684415 2.3402043490088977 1.1578371398264407 55 55 57
0.6269454216550041 2.3555879765352 1.1573387844213125 37 37 39
0.7122466557918543 2.6632547240858733 1.1416007353107251 22 20 23
0.7238911824106247 2.6960977483690782 1.139830483364434 17 16 19
0.7190602098951542 2.7114299547512575 1.1393689986087743 15 15 17
0.7148808450160962 2.7274969798317574 1.1388540065417216 14 14 16
0.7080672670875738 2.740760588769109 1.1385484204711611 17 17 19
0.7106786195394905 2.7642472449051754 1.137485643029936 26 24 27
0.7061400701712435 2.780056053267722 1.1369940816116613 31 30 32
0.7091329687187502 2.804108466660339 1.1358943777876016 30 30 32
0.7068035581374823 2.8224333904655645 1.1352203841042472 35 35 37
0.7028120827979532 2.8389885541239424 1.1346785544358213 37 37 39
0.6964760191050559 2.8530051501106204 1.1343248986420715 35 35 37
0.691089281568225 2.868094628075071 1.133893192079383 32 32 34
0.7033113960365689 2.902721253117691 1.1320287507693014 14 14 16
0.7383787576247711 2.984301151563618 1.1274132130320098 16 16 18
0.7118247302206557 3.2607403982963277 1.1169405506576449 38 38 39
0.6670716924750495 3.253081141840432 1.1188475508335436 34 34 36
0.7955709044049264 3.70829709112727 1.095480548010894 39 38 43
0.8210437305968359 3.8608443060396556 1.0882752007539895 88 87 85
1.0847315794944548 1.770366111062497 1.178619552069176 129 129 129
0.8251885069300111 1.6846597796183236 1.1909784347940806 33 33 35
0.7339506032241562 1.7422504002537669 1.1917996013873402 18 18 20
0.710019541452426 1.7380292244642659 1.1927912799495854 17 17 19
0.7025715176344679 1.7487080600120328 1.1926182165114523 14 14 16
0.6886185063679227 1.7534603319170103 1.1929066756880655 11 11 13
0.6665130951779622 1.7507191299244642 1.1937761902402249 15 15 17
0.6464327649050565 1.7497579832023653 1.1945046362837806 22 21 24
0.6318955938481506 1.7538368548877612 1.1948402119219081 30 28 31
0.6175736177968246 1.7580801191953466 1.19516179164741 36 34 37
0.6073613312463554 1.7661020947072021 1.1951904088864387 39 37 40
0.5972619605372238 1.7742207599533337 1.1952112633107086 35 35 37
0.5878308152007701 1.7829556241686144 1.195184410865227 38 38 40
0.5708537371857217 1.7846177337034423 1.1957008803307165 41 41 43
0.5763059283891776 1.8073107789347738 1.1946020722165567 37 37 39
0.5826260535872263 1.8309108089995334 1.1934370165472807 30 30 32
0.5816089345588997 1.8476633349131357 1.192799065944769 16 16 18
0.5879203983559363 1.871421366649785 1.1916279614326704 13 13 15
0.5667284659568882 1.9227447513275235 1.190294501370083 21 21 23
0.5637136432548959 1.9378359564252876 1.1897919095934477 23 23 25
0.7119482490081721 2.6427325698607564 1.156386124849593 19 17 20
0.7353806664582008 2.688020877314182 1.1537620479083996 27 25 28
0.7730143523108697 2.748713573789228 1.1500313577582817 26 24 27
0.7463349188903807 2.761458030360858 1.150436001429277 25 25 27
0.743230202288967 2.778835633205566 1.1498446609472477 30 30 32
0.7561854702311341 2.813645964954987 1.1480013812866419 36 34 37
0.7379656269708015 2.8147583897316437 1.148582623721835 52 50 53
0.7219963544665433 2.8182629058690045 1.1489904677315668 47 47 49
0.712108347891413 2.8283713844058025 1.148924136828818 28 28 30
0.7044415575835816 2.8409152761737273 1.1486836758511116 17 17 19
0.7229294170646945 2.8822567036357736 1.1463879972575117 14 14 16
0.7330005581188554 2.914509854191349 1.1447465123248377 13 13 15
0.7370652731257559 3.2679215691351278 1.130411510869025 37 37 37
0.6638652293380307 3.2494748363720696 1.133667169741733 34 34 36
0.6821960535817209 3.2934911156356153 1.1312694461220913 29 29 31
0.7977678611129106 3.7111746735917572 1.1105221439509534 40 39 44
0.755523620230363 3.683172847286153 1.1130981426769297 47 48 51
0.7404726976394382 3.712424890090927 1.1124402459677516 90 89 90
0.8292444622760455 3.871262350465245 1.10301061170412 81 80 78
1.072854731843686 1.7602690902945761 1.1927917795782699 133 133 133
0.8270945673734824 1.686418978953011 1.2038249808598818 32 32 34
0.8231877972315053 1.7002936640697974 1.203412949954949 29 29 31
0.7292343055160588 1.7380762823693017 1.2050540160740213 19 19 21
0.7035220282435783 1.7322268624539863 1.2061350779554 25 25 27
0.6887283830766235 1.7362065299311764 1.2064703536312424 19 19 21
0.6743580418171506 1.7405369520647094 1.2067778990561677 13 13 15
0.6533560827873018 1.7387633372145888 1.2075436478923418 18 18 20
0.6524252731609294 1.7553512853053914 1.2069270094005142 29 28 30
0.6375417517847385 1.7591297180344778 1.2072731209307368 40 38 41
0.6173478092772747 1.7579617503236609 1.2079884310858802 46 44 47
0.6129931995551257 1.7714172880602237 1.2076076138413383 56 54 57
0.6019759610800116 1.7786995848497478 1.2076887298334944 54 54 56
0.5912121065344428 1.7862051519075415 1.2077527271928563 49 49 51
0.5765400644010076 1.7900376052848332 1.2080897164660678 40 40 42
0.5827797752689688 1.8134893075148129 1.2069673467615143 33 33 35
0.5833189762779515 1.8316588022509233 1.206240220895887 19 19 21
0.5874425806293939 1.8532780416693242 1.2052595603828717 11 11 13
0.5975691517394216 1.880676662639259 1.2038542181305005 12 12 14
0.5835315191943887 1.8851809063100429 1.204143944392905 12 12 14
0.5692886805178512 1.8894569441617879 1.204449384161917 15 15 17
0.5676466305861971 1.9057793497788071 1.203866698895243 21 21 23
0.5564373485147871 1.912945644553138 1.203958712007865 24 24 26
0.5620512853034226 2.082288116725553 1.1971622703978402 34 34 36
0.5595235984554705 2.0982824508254105 1.1966217629164415 33 33 35
0.6354168709640122 2.2493049886234733 1.1882096697847446 34 34 39
0.6060091980909528 2.2576516993741143 1.1888591430838638 60 61 65
0.7640947023836342 2.7187304756409256 1.1656181983117773 26 24 27
0.7694610876225676 2.807274437377548 1.1619839248549746 27 27 29
0.7503449733881531 2.8074596738645567 1.162610667418819 26 24 27
0.733621418583466 2.810177090339528 1.1630592190540476 25 23 26
0.7520141644108684 2.8511112258917595 1.1608513777313636 24 24 26
0.719929691210615 2.83706096478837 1.1624638879222176 11 11 13
0.7742930449507381 2.917673938721972 1.1575142474901532 12 12 14
0.7263916381036191 3.2556605703274615 1.145909606156164 39 39 39
0.6586372357613732 3.2434924285840703 1.1486316176178728 33 33 35
0.6839618523474573 3.295737187663494 1.145752376833593 28 28 30
0.8684259794913276 3.677915902640902 1.1247164551190207 30 30 32
0.8792404770105706 3.7148643310440415 1.1229155228798322 34 33 37
0.7857228718347498 3.6965803531564623 1.1267306846546574 41 40 45
0.7541005883676914 3.6816038137381906 1.1283640237709245 47 47 50
0.8245460881832771 3.8655925919039604 1.118845769939362 79 78 76
1.0993340404580132 1.7830377776897322 1.204441518925927 140 140 140
0.9275149307636974 1.7049188403482871 1.2128963067645686 32 31 37
0.9045541168649309 1.7023220576795257 1.2137288952044716 30 29 34
0.8677135625091581 1.6875129522343806 1.2154681663739204 30 30 33
0.8402180795008952 1.6980482706154159 1.2159480028871497 32 32 34
0.7057216049541308 1.734307791539309 1.2188741274476336 20 20 22
0.6859159563794659 1.7337364374630986 1.2195290609433278 17 17 19
0.6656563253446816 1.7326852453409787 1.2202166976455853 15 15 17
0.6558320941913311 1.7411187038621954 1.2202111699632172 17 17 19
0.650255550701129 1.7534478157766857 1.2199221672428877 38 38 42
0.6396531335051608 1.7611653664524856 1.2199686567981705 55 55 58
0.6256351193862926 1.765714375069483 1.2202444559273387 64 64 65
0.6075030613860266 1.7664156118223437 1.2207976420356865 68 68 69
0.5983449703687285 1.775411985797413 1.2207494786089284 60 60 62
0.589217867680682 1.7844353417996328 1.2206993016431646 43 43 45
0.583992063703156 1.7971118238623605 1.220385917798524 36 35 39
0.5867044300525911 1.8172719878763646 1.219535060184366 27 25 29
0.5906452388955274 1.8386622846432945 1.2185982978981844 13 11 14
0.5977928709031392 1.8631663443137327 1.2174409777877295 12 11 14
0.5914309871122354 1.8749463449406356 1.2171978989685812 13 12 16
0.5785904225446148 1.8805720284516156 1.217395240418202 14 12 15
0.5702587952792795 1.8904814800994292 1.2172860427647723 20 19 21
0.5616521345015332 1.9001308769169187 1.217195496054449 28 26 28
0.550678379365323 1.9075053968966338 1.2172668608820025 28 27 29
0.5438963878752644 1.918911915616098 1.2170513709205322 29 29 31
0.591591084413762 2.1116607537668113 1.2082205922735407 34 33 37
0.6019875092515901 2.1405986962675216 1.2067913358625781 34 33 37
0.5858948199041619 2.1432475690514785 1.2072054927378022 32 32 35
0.5907309073735517 2.1667909070612383 1.2061584975510766 30 31 34
0.632034218026621 2.2460106662931367 1.2018351741917521 42 43 45
0.6223365644844401 2.25525011027754 1.201795049970563 57 57 59
0.8009927631760321 2.8414342512093125 1.1738644505839266 10 10 12
0.7812945141142356 2.841101796775903 1.1745068950098294 13 13 15
0.7808933660749573 2.8616587639167173 1.173740550705063 17 17 19
0.790957940345759 2.893687855159934 1.1722047412501246 12 12 14
0.6749612356977805 3.240472001432952 1.1627695265579874 36 36 38
0.6805851739723439 3.291919254196467 1.1606396979187845 29 29 31
0.8843901898370496 3.721278991406047 1.137849091767122 35 35 37
0.86415995357135 3.720709355192331 1.1385175361672726 37 37 39
0.8105878009900371 3.7033046362608424 1.1408901748546558 37 37 40
0.7737627766890809 3.6820894551585477 1.142871758980841 42 40 43
0.7531747201783705 3.6806466622483454 1.1435847397994774 48 49 52
0.8262240991120111 3.8678756666064933 1.1341524739151705 75 76 73
0.8967786612914049 1.6956290872759678 1.2273086962903796 29 29 32
0.8274822638236483 1.6869244165505322 1.229762050360426 36 36 38
0.8282910657305405 1.704964571365577 1.2290737954040338 34 34 36
0.8097179109254953 1.7058945448267404 1.2296113696105497 35 35 37
0.7828842490908446 1.7516442710557074 1.2287551704407247 29 29 31
0.7037615978934197 1.7152357722148293 1.2325297234800083 19 19 21
0.703148359591176 1.732062395492835 1.231929868586473 20 20 22
0.6615006950061548 1.7116192961525507 1.233963697531218 18 18 20
0.6511649392932107 1.7195503848530382 1.2339902466353974 18 18 20
0.642789773705735 1.7292673539725127 1.2338907706472655 17 17 19
0.6361056681782163 1.740540388603884 1.2336820175334249 46 45 48
0.6261338035940156 1.7487966929070313 1.2336854057994837 56 56 58
0.6150473381503647 1.7560155824020993 1.2337612536737015 57 57 59
0.604803138366755 1.7640020862824353 1.233782946572806 62 62 62
0.6009498503718526 1.7779280260668355 1.233389497168541 30 30 32
0.5939698974030054 1.788964977557319 1.2331985326855244 25 24 26
0.5925379584137015 1.8052111168172362 1.2326452263370162 16 15 20
0.592824034650189 1.8231179449255042 1.2319779659399295 18 17 20
0.5976275177892026 1.8453416235119962 1.231012902897457 14 12 15
0.5896364527387635 1.855544688909121 1.2308837281712344 15 13 17
0.5768720293500161 1.861222132497368 1.2310679122467079 20 18 23
0.5639275260443358 1.8667038453273617 1.231264837274972 26 24 29
0.5564567063001081 1.877390472713845 1.2311018658134567 33 31 36
0.551642042445359 1.890632451981152 1.2307631621207118 36 34 39
0.5438165981964727 1.901004205223808 1.2306226859596796 35 34 38
0.5427080206240414 1.9178646880766155 1.2300368349193815 32 32 34
0.5870489793003077 2.051851788589796 1.2237449567333258 31 31 33
0.6276530873155574 2.110230010481661 1.2203483375981306 32 32 35
0.5907202369647657 2.0923623995309506 1.2221423185414555 34 33 38
0.5939165690322117 2.114071948800567 1.2212456363749697 34 33 38
0.5779789077047011 2.1168421882484214 1.2216344089263653 34 33 38
0.6419705469985683 2.2561305684523445 1.2145426551703309 54 55 57
0.6388232975012534 2.2720226670758112 1.2140551727260234 22 22 24
