ply
format ascii 1.0
element vertex 733
property float x
property float y
property float z
property uchar diffuse_red
property uchar diffuse_green
property uchar diffuse_blue
end_header
0.9139511807979396 2.6039038443695484 1.4772179670554695 8 8 10
0.8658847990431768 2.5809497406326516 1.4768217350440505 9 9 11
0.8562430005092362 2.590915946592834 1.4765084689421921 10 10 12
0.8467045506062502 2.6009714538476607 1.476195413839872 15 15 17
0.8487772119620413 2.621108119298964 1.4759052901407896 15 15 17
0.8632001731708957 2.670566191837573 1.4753411472737454 18 18 20
0.8121894619018644 2.644388806384833 1.4749498009425146 22 22 25
0.7757867794195352 3.148357543783769 1.4662846637649825 36 35 40
0.7314950249614174 3.125638136705179 1.4659447040688838 36 37 41
0.6881939544655784 3.103659590247193 1.465608614836714 36 37 41
0.6563450818786829 3.112420013606285 1.464961476865868 35 36 40
0.7577392786677724 3.8028061445117163 1.4554970438356594 51 51 51
0.8264604035439092 3.898627336465993 1.455052658374425 69 69 69
0.882681965383896 3.9815641690318935 1.4546161871658865 85 85 85
0.8970069428051968 4.019764700345792 1.4542311119214306 121 121 121
1.1120710945410643 2.587873702937629 1.49479700366079 66 65 68
1.0807491958770044 2.580200112817172 1.4943760484502149 43 40 47
1.0636772867478352 2.584296827652275 1.4940232214897189 44 42 47
1.0479018459797778 2.5894383963714187 1.4936769805211818 23 21 24
1.0292629221281517 2.592141471192739 1.4933181417530492 13 11 14
1.0231889361611368 2.605383608532928 1.4930169818328716 10 8 11
0.9441415099393183 2.5934627948030027 1.4918436562534916 7 7 9
0.9108824077822172 2.601701523854997 1.4911524477363631 16 16 18
0.8626368361620755 2.5968558552399785 1.49040010815859 16 16 18
0.8544009182210324 2.6080571547524136 1.4900924141529563 16 16 18
0.8559186328456452 2.6277351526554837 1.489825087407587 15 15 17
0.8495906160877709 2.6591002424590244 1.4892494953839626 21 21 23
0.7987747201079081 2.6330517485817624 1.4887692174546423 26 25 28
0.7216536148840083 3.1165907022494923 1.4802448638284391 36 37 41
0.6941979968055803 3.1099200856788327 1.479875038923286 36 37 41
0.645496677987577 3.0824999908659243 1.4794513421042195 36 37 41
0.6438834280708583 3.100722400040506 1.4791521976247248 35 36 40
0.7339495767124515 3.7558756506475612 1.4709276016743977 43 44 44
0.7573101031229592 3.8028333107022996 1.4706270311248932 49 49 49
0.8254564677029099 3.8980433003668646 1.4703727711078287 63 63 63
0.871998500512225 3.970570654874092 1.4700873201640012 81 81 81
0.88861463694338 4.011208202137348 1.4697656726451196 117 117 117
1.1230725759538926 2.5607776548022496 1.5095409936513913 54 54 56
1.1338414733484172 2.5879699661253595 1.5093635950080757 53 53 56
1.1007714921142924 2.5789386176646634 1.5088834975661005 50 49 54
1.065517990822468 2.567962993956672 1.5083902507008577 41 40 45
1.0461639480145566 2.5701130492715034 1.508006950169946 37 36 41
1.0238149757193509 2.569702497442533 1.507604152702978 15 14 19
1.016862621671799 2.582154613674005 1.5073057311710056 10 9 13
1.0108302607598838 2.5953976711735023 1.507013238710544 8 8 10
0.9032256882635518 2.577287257941457 1.5052958979034903 9 9 11
0.8825594517837336 2.5778588290074214 1.5049103383422002 10 10 12
0.868537883558575 2.5840802998406236 1.5045684643142294 12 12 14
0.8691266748094159 2.602879438353216 1.5043205187061208 13 13 15
0.8561538687608394 2.610000138790376 1.5039854368971064 14 14 16
0.8650480030079097 2.6360893434075217 1.503788955809309 16 16 18
0.8608591184138037 2.6508872894969993 1.5035087567555538 20 20 22
0.8346780008157111 2.646493478239149 1.5030907394666344 24 24 26
0.8194585000833614 2.651617252845995 1.5027420782184 26 26 28
0.785514927591818 2.64023317587088 1.5022783924373553 26 26 28
0.7183042869159342 3.113807213329851 1.4945329201323283 36 37 41
0.6837806004485143 3.10028129690828 1.4940881073984478 36 37 41
0.6400001329697291 3.077605826186801 1.4936000313088256 36 37 41
0.6478617513641713 3.124912693523065 1.4930926910143105 32 33 37
0.6142829104927294 3.111898962654691 1.4926580976783599 31 32 36
0.7346715275519462 3.7571274026923405 1.485978928594478 46 47 47
0.7599747505797347 3.806166630706154 1.485766509054979 53 54 56
0.8215437178348193 3.8943403930804745 1.4856783242548048 67 69 68
0.8924469841551197 4.015843763339621 1.4853020632105636 123 123 123
1.4479436642034926 2.63989150754153 1.529016454135404 173 173 171
1.2539083178396233 2.594864532384494 1.525808588502239 64 64 66
1.111696585029279 2.5518400247675435 1.5235839870796906 53 53 55
1.0902684781799796 2.5524019241224405 1.5231598851410786 49 49 52
1.0725226402302923 2.5559521187194987 1.5227697312020805 47 46 51
1.0569966117112153 2.56130451665787 1.5224000329575436 42 41 46
1.041043445625121 2.566268560736663 1.5220269232560275 38 37 42
1.020919725275431 2.5677063379768237 1.521617152284597 14 13 18
1.0194783816142867 2.5847803463957306 1.5213736280242944 9 8 13
0.9408202924098353 2.573211920672364 1.5199888627398106 7 7 9
0.8843287296079747 2.579800032733418 1.5188063426110976 11 11 13
0.8731715616869056 2.5884893400075195 1.5184795545570144 12 12 14
0.8851856766175666 2.672510612836768 1.5176530099268692 23 22 24
0.855346552913511 2.664988587819862 1.5171672411422044 26 26 28
0.8176733700552159 2.6504788401937343 1.516617199549772 28 28 30
0.7274966643421921 3.1032588159855905 1.5091481837818483 35 36 40
0.7097824567794402 3.1060310374298874 1.5087684634385796 36 37 41
0.6543846799824595 3.0722635843615698 1.5081165175611306 36 37 41
0.6203622188327753 3.098467626327569 1.5071237134197741 33 34 38
0.744183024468221 3.637066348992063 1.5027362523554564 38 39 42
0.6701816196742445 3.581123507709828 1.502002116602164 45 46 50
0.7322540045786872 3.755035065254452 1.5010153346805941 53 54 54
0.8263874494882757 3.90002597915824 1.5010174697980119 79 81 80
0.8997158847372566 4.024189074053945 1.5008775677641153 143 143 143
1.4517148053329145 2.643336577511013 1.5436810765396272 172 172 170
1.196593592971671 2.5853459026768615 1.5390795115219886 48 48 52
1.0975425879170704 2.5406132382472664 1.5375479764653728 48 48 52
1.079610183495647 2.544024100236629 1.5371385940716435 47 46 51
1.065829100843235 2.5508314933801572 1.536775932463115 46 45 50
1.0498768955256437 2.5558108087209166 1.5363894296144518 46 45 50
0.9853312139054362 2.5747620789243 1.5348392931831387 8 7 12
0.8781578684406172 2.593202221705237 1.5324149366961737 11 11 13
0.9154697177677904 2.680733705454868 1.5321805448074164 27 24 28
0.910744890918134 2.695211271737397 1.5319168158762961 32 29 32
0.8832419382314491 2.689804422886211 1.5314110547654394 32 28 32
0.8448333637369859 2.6747289222867323 1.5307911186405352 31 29 32
0.8295950347267624 2.6798773190753495 1.530417413620436 27 27 29
0.761276836279192 3.1162911316186914 1.523997551419649 35 36 40
0.6967622399810802 3.0741391705019745 1.5231494294709567 36 37 41
0.6968487761280564 3.0939952561078563 1.5229232982514869 36 37 41
0.6215582405027815 3.040919544452877 1.5219780853381195 36 37 41
0.7426418070108394 3.6359332015911323 1.5176481090505247 39 40 42
0.6704839673749201 3.581912496234753 1.516778420603723 46 47 51
0.7289267041234124 3.7519731924535016 1.516032984609668 56 57 57
0.8237855360451316 3.8977282092251677 1.5163183845827737 84 86 85
0.8957559205866505 4.020415134203933 1.5163960184810177 162 162 162
1.3315573959598819 2.6032102104652353 1.5561068545092214 82 82 82
1.2941097387851168 2.5914682775105597 1.5554107164821185 80 80 81
1.184197752172296 2.5573334343342826 1.553364095672655 47 47 49
1.1768192413072138 2.5696013087454173 1.5530762034848982 45 44 48
1.1732653292537654 2.5850220906049914 1.5528392139608924 45 44 49
0.969938917996277 2.598774087982071 1.5482582702639598 9 9 11
0.9150408235723962 2.625344766031737 1.546785136906028 18 18 20
0.8801977166768666 2.613709329779268 1.5461447575813492 19 19 21
0.9195687843071074 2.6847247842848487 1.546270175047012 36 31 36
0.8997417328250987 2.686054558531607 1.5458235876945414 44 39 45
0.881809337359378 2.6889825386258894 1.5454018416520257 43 38 43
0.8491416127162826 2.678937114800081 1.5447925168263332 52 48 53
0.8117892914641037 2.6646352370614848 1.544124922207226 38 35 39
0.7463634716538872 3.1024395641899654 1.5381710383246627 35 36 40
0.6667079097832551 3.0456694707205285 1.5370189216562027 36 37 41
0.6655076033103307 3.064189071491794 1.5368012808695997 37 36 41
0.7407038865882767 3.6343854554324473 1.5325487612950353 40 41 43
0.6680287828867333 3.57981164985682 1.5315263309714007 46 47 51
0.7280185623756437 3.751488121974295 1.5310613398319883 57 56 57
0.7500756968786539 3.797043723062994 1.531071957786075 66 65 67
0.8223569572987401 3.8966883355932467 1.5316198933467569 79 80 79
0.8588763024753023 3.9584402828899226 1.5317788121266644 105 106 105
1.3193822980058787 2.5938507019234027 1.5703580775341763 82 82 82
1.2249076300835084 2.5725988721082995 1.5683790945372993 50 50 51
1.1986449138945559 2.5695452806073225 1.5678027178944607 43 43 45
1.1933100449034528 2.5835249661796986 1.5675513809495718 44 43 47
1.1754449147889297 2.587243482814657 1.5671060077694796 43 42 47
1.101154468074899 2.580976991673847 1.565453781286275 46 45 50
1.0720376566039866 2.5751020347641242 1.5648376595148157 37 36 42
1.0223931052601385 2.551986069331233 1.5639076170209714 28 27 33
0.9982323052984867 2.586492722867284 1.5630342303442954 10 8 13
1.0163909082317435 2.6201851670898164 1.5631423435601044 11 9 14
0.941442427569956 2.630030619686697 1.5613268137048497 14 13 16
0.9170905194840179 2.62753562965823 1.5607892790939215 21 21 24
0.9538614972332677 2.6962918071547834 1.561003339664942 36 36 39
0.9249173740322114 2.689801752676825 1.5603968486055813 44 39 45
0.903364327773216 2.6896423879078823 1.5599022545330232 52 48 52
0.8754824072586734 2.6838810322145026 1.5593135100768516 71 66 70
0.844486231949395 2.675282399568004 1.558679179041255 60 56 60
0.8225374883694141 2.6745232606509397 1.5581809929529418 62 59 63
0.7916524944281206 2.665800965162548 1.5575503579880674 61 58 62
0.7742943984974062 2.668939526738613 1.5571219875871738 50 47 51
0.7909567598568725 3.1058236392355485 1.5534880934569415 30 30 34
0.7195357679302472 3.0771597129953947 1.5521078664214036 35 36 40
0.7027894892411588 3.5738651816821045 1.5471549569593093 36 37 39
0.7391093001834808 3.633196090633684 1.547445304141389 40 41 43
0.6658122536731876 3.5779605748265224 1.5462662387545436 46 47 51
0.7226005407593143 3.7461978911047886 1.5460262286565316 58 56 57
0.7587075793909581 3.8067560811386794 1.5463003931965071 68 66 67
0.8269359370976508 3.9020912188526298 1.5469940607245833 80 80 80
0.8595367835837049 3.959647040208691 1.547215136062788 98 98 98
0.8960066219396055 4.021686078026334 1.5474840334966355 154 154 154
1.3176792643190867 2.5929163906198 1.584744084657535 84 84 84
1.2736231305664374 2.575798599865686 1.5838157691747832 77 77 77
1.226451954200753 2.555973470889298 1.5828338731135163 77 77 77
1.199432871470431 2.570619875130959 1.5820620307749194 46 46 48
1.2026573166802477 2.591605729275038 1.5819710410017163 44 43 48
1.1488896946843687 2.5841923795618476 1.5807295406445796 42 41 46
1.1150604839224747 2.574605719222236 1.5799880659394554 43 42 47
1.0905163357348213 2.5725860936166542 1.5794103492477176 40 39 44
1.0541314708099243 2.560633973185382 1.5786260779604162 37 36 42
1.007461455776379 2.5399490045860524 1.577663235582807 37 36 42
1.0149767400142595 2.5644400010314112 1.5776478557286084 24 24 30
1.0120601767827138 2.5802610621112643 1.5774498479109138 15 15 20
1.0002892591039496 2.5886550688062604 1.5770973780509747 13 11 17
1.0505548886165852 2.6495150933601654 1.5778236604103981 13 10 17
1.0126533005700562 2.6358830350582627 1.577016213992752 12 10 16
0.9490643399087683 2.600218457615914 1.5757645710707975 13 10 16
0.9575075462161567 2.644230895849743 1.5756144188108065 15 14 19
0.9731087662026835 2.7133884310095944 1.5754349723102161 43 42 47
0.936995640357153 2.700725257645638 1.5746630042001117 51 49 52
0.9086600702187096 2.6946889364286672 1.5740258839098389 71 69 72
0.8780168726343759 2.6865274020853454 1.573350034446512 86 84 84
0.8548110743553955 2.6847697401108945 1.5728025967278632 85 84 84
0.8095785264424942 2.6820598434393186 1.571729767938563 77 77 77
0.7964382786620825 2.688988007811513 1.571355965589259 76 76 77
0.7622640523253519 3.0987296902699617 1.5672288067592584 35 36 40
0.6964883880928172 3.0555017459453375 1.5659851608155748 36 37 41
0.6939754215218192 3.5651596274728226 1.5618194830737522 36 37 39
0.739299752740912 3.6338713539500764 1.56236294425235 40 41 43
0.6629782738364158 3.5754619954418847 1.560986356715993 46 47 51
0.722601684787122 3.7466810916975777 1.5610502541575735 52 50 51
0.7568193964818632 3.8052234951864605 1.5614068337823979 60 58 59
0.8209057021005861 3.89611587998393 1.5622256995511268 74 74 74
1.3305133459849419 2.6036806269494064 1.5994115141940506 96 96 96
1.2909789635263786 2.590246545067778 1.5985007851964683 92 92 92
1.2258229729535517 2.5558959036641 1.5970842333927269 84 84 84
1.1206957789418102 2.543157883171977 1.5945035929383695 44 43 48
1.1332752539008024 2.5717613314852077 1.5946251980745012 42 41 46
1.102901106340758 2.5649861312122457 1.5939009737955931 38 37 42
1.0573754998069886 2.545533077365028 1.5928797631189568 37 36 41
1.0262886019026927 2.537895964758193 1.5921434036137048 35 34 40
1.0035767097507409 2.537132008672496 1.5915721342323674 34 33 39
1.0045938018666922 2.5561708107368566 1.5914663421286912 28 29 34
1.0024690093150408 2.572629015960063 1.591298631172329 21 21 27
0.9917354489836987 2.5818710046118523 1.5909622674544408 19 17 24
0.9835707917339657 2.593280558610266 1.5906761324260785 16 13 20
0.9930190547806753 2.7123531336345095 1.5900928556962433 26 25 30
0.9945421391953164 2.73238048094675 1.5899930747955688 36 35 41
0.8270209556968553 2.6978940241211173 1.5859788805400818 92 92 92
0.812805856118672 2.703920799591878 1.5855763626769073 92 92 92
0.8125045367444235 3.1073646151316083 1.5827797879519163 27 27 29
0.7534591996018687 3.090760871907347 1.5813956768039195 36 37 41
0.6870551866716441 3.0468988054308532 1.5800131940145457 37 38 42
0.669001858098593 3.0492089291783757 1.5795389336377021 37 38 42
0.6594154982848293 3.5721990555705023 1.5756802549500053 46 47 51
0.716532302816052 3.7406955516650857 1.575965405604788 48 46 47
0.8150196290285014 3.890294256968866 1.5774314000904779 65 65 65
1.3326570419747235 2.6058427352717306 1.6138989568056352 106 106 106
1.2900965965537519 2.589969250611292 1.6128597328454057 93 93 93
1.2484800354769805 2.5746847786434857 1.61184218855772 84 84 84
1.1266293145032054 2.5484586690280344 1.6087559598135435 52 50 53
1.059765621314455 2.547942734735922 1.6069823588917724 36 37 41
1.0255205877048006 2.537683242336404 1.606131675613474 33 34 38
1.0040387976395688 2.537943557406463 1.6055593987360692 30 31 35
1.010388431183686 2.5614514201837193 1.6055924341206151 21 21 26
0.9984979816203702 2.5697191153069614 1.6052287861371937 23 22 27
0.9819182468419773 2.5740204936889075 1.6047634346740938 22 21 26
0.9420911024517449 2.55861506098857 1.6037941335869508 20 19 24
0.9805582726820089 2.6278965003676205 1.6044163552040793 20 18 24
0.9658562419159535 2.67076870398 1.6037782835559053 24 23 26
0.9842864366778138 2.705250676267412 1.604068964367783 23 23 26
0.9923180505312155 2.7308899136087117 1.60413438902476 29 28 31
0.9646640541073509 2.7256282518208943 1.6034299856987013 38 35 39
0.8287242028803579 2.718457701541393 1.5998594276533395 82 82 82
0.6971388121784907 3.037361782336623 1.5945226323476147 37 38 42
0.7506258651839333 3.646658282119759 1.5924272439129317 39 40 44
0.6554501778150936 3.568513599310398 1.5903494223641974 46 47 51
0.7153283464927522 3.739894068948908 1.5909512741413785 45 45 47
0.8162301011944257 3.8920842602907983 1.592753885388619 58 59 61
0.8444844633313844 3.9449355973769715 1.5931995772657208 79 79 80
1.3276278504669334 2.602231831549277 1.6282234906425173 111 111 111
1.2909709448290092 2.591110527502724 1.6272575774186941 92 92 92
1.246537006533925 2.5735438295366015 1.6261056573447745 86 86 86
1.095863140796259 2.5417989119058615 1.6220707110943802 52 50 53
1.0850435607117324 2.5510833701154976 1.6217274260239598 50 49 52
1.0538739333610172 2.5434838088621827 1.6208975049932983 48 49 53
1.0317891612623689 2.5433260097632537 1.6202852758401745 43 44 48
1.0116246556317958 2.544703058964866 1.619719236726318 43 44 48
0.9943125023677428 2.5484114955993595 1.6192215694125531 36 36 41
0.9846972307755835 2.5585467792695744 1.618907770245587 29 29 34
0.9645254183083337 2.559780165103771 1.6183421935250415 25 24 29
0.9272691388063325 2.546499456046488 1.6173696432910651 23 23 28
0.9674535132599945 2.617164323572424 1.6181577608953956 23 21 26
0.9659906351098337 2.6343288412886685 1.618037683354757 25 24 27
0.9671782656700791 2.6538129008720057 1.6179804303190435 29 29 31
0.9617085351940468 2.667632127374692 1.6177646325929422 32 32 34
0.977153129933982 2.6995274712036923 1.618045612603629 30 30 32
0.9285132817342445 2.713290239802222 1.616631895637395 32 32 34
0.9149518582219339 2.7201230950805466 1.6162238625518803 33 32 34
0.8883633927838321 2.7155022763427263 1.6155072987924455 43 42 45
0.6406974914703842 2.983839049826174 1.6073909065854066 37 38 42
0.6209354985591187 2.9843582691219126 1.6068400111009706 37 38 42
0.7078844076367989 3.5810613076316655 1.606490397405232 36 37 41
0.7508623124715721 3.6473825723829574 1.607376160912587 40 41 45
0.6477154620460008 3.5608757911967035 1.6049138800936236 47 48 52
0.7092017705209179 3.73384611165159 1.6058195327830675 47 47 49
0.7506919495757709 3.800129126086694 1.606664181774478 54 54 56
0.8195894606327334 3.896179762398992 1.6081316867254447 65 66 68
0.8491815434192798 3.9504861757515384 1.6087015600430656 82 82 83
0.8842404190050992 4.010981068240297 1.609394509395683 103 102 100
1.2993807514347533 2.5983378211359396 1.641856368479742 86 86 87
1.254112143227684 2.5801155430910807 1.6406098941721259 76 76 79
1.223689220502834 2.573772331370879 1.6397516008017623 67 67 70
1.097922787499146 2.543924133397902 1.6362161207484496 53 51 54
1.0642631866115297 2.5343324985115894 1.6352754932197087 49 47 51
1.035292734178637 2.528498669745442 1.6344574564070025 53 54 58
1.0133950045915219 2.528444629540555 1.633823935109873 55 56 60
0.9976102045795553 2.533427316189323 1.6333497459147484 53 54 58
0.9823910146294398 2.5388499963980684 1.6328903900653786 48 49 53
0.9630997433192483 2.5408189475284737 1.6323252402010413 43 44 48
0.9909647627440663 2.582504219891876 1.632986200462933 36 37 41
1.0016462427447395 2.6282618917108223 1.6331356686747445 25 25 31
0.969305010591591 2.6191703447189556 1.6322314492990917 23 22 27
0.9614083035245918 2.630842302548602 1.6319621988521527 22 22 25
0.964351401193569 2.6518196354002983 1.631974180685931 25 25 27
0.9573154132839776 2.6642838749206366 1.6317270747662684 32 32 34
0.903962143344577 2.6923190925734595 1.6300852415970288 32 32 34
0.8917252220654723 2.700239530804292 1.6297034764908074 25 25 27
0.8815293172696468 2.7099366688481856 1.6293745785139477 22 22 25
0.8116394660785625 2.7228141619478947 1.6273070699440897 25 25 30
0.6512271056660937 2.994347936731563 1.6217174302347523 39 40 44
0.6183574980918074 2.982324722518369 1.6208081485266297 38 39 43
0.7165053138165953 3.5905135913137203 1.6215265257885503 37 38 42
0.7485244162931162 3.645416681530328 1.6222615862058076 40 41 45
0.6451244706949575 3.5586297985206716 1.6195720409505512 48 49 53
0.6417733808004171 3.5764429521187706 1.6194129118356908 62 62 64
0.7479675531936492 3.7977012061328432 1.621714149465752 68 68 70
0.8196683641262017 3.8967563220707597 1.6234435329724934 83 84 86
0.8830967459611987 4.010245315993419 1.6248831564642638 118 117 116
1.287016061388478 2.588786685526569 1.6559045901113378 81 81 83
1.239979831920442 2.5690965563295785 1.6545338933782576 72 71 77
1.2084011584366383 2.5617742781207236 1.653599804562889 65 64 70
1.1588647613513965 2.5396839697835545 1.6521594276514373 61 61 65
1.042757138628269 2.5169789858140126 1.6487150931833445 46 45 48
1.0385768931735644 2.5316490263661926 1.6485547241331298 38 39 43
1.0138836226335561 2.529276842201421 1.647816430157984 38 39 43
0.9858806473095882 2.524057795007157 1.6469851181340014 42 43 47
0.9707902020008523 2.5295556306756763 1.6465176235099916 46 47 51
0.9706555879821507 2.5475956307103025 1.6464712135221384 47 48 51
0.9412140082393701 2.632408731230142 1.6453851845871903 27 27 30
0.8978121261235885 2.6688371225005465 1.6439922126744213 32 32 34
0.8786098980971222 2.6891979374386867 1.643365958393708 28 28 30
0.8218766541306306 2.73234933210399 1.6415556062419523 13 12 15
0.8087339602277813 2.739348124225165 1.641143261956946 14 14 16
0.7963059020541389 2.746966366302879 1.6407509910931264 15 15 18
0.6993959949349566 3.0212505753146006 1.637187691043093 43 44 49
0.644527431690286 2.9883819402831313 1.635611992909432 42 43 47
0.6159468515244315 2.980451390293848 1.6347696471862796 42 43 47
0.5724787314422466 2.958070732467494 1.6335127535729412 44 45 49
0.7111377132853651 3.5853958770230525 1.636216882801741 37 38 42
0.7548117834278796 3.652464653981315 1.6373750603675858 40 41 45
0.6539854164682417 3.5683911686967713 1.634535143359368 49 50 53
0.6534931016284493 3.5892431805343916 1.6344713558168233 64 65 67
0.8227780712041299 3.9005847814400196 1.6388399421946584 78 79 78
1.1724385454486892 2.5511881897561803 1.6667348444353853 61 60 64
1.0722520987834052 2.541792087937383 1.6636094749082033 54 54 57
1.05553241640897 2.5461414657333648 1.6630807549215734 45 46 50
1.0297047970788542 2.5428712814344276 1.6622760717652554 38 39 43
1.00496718492552 2.5404221923012646 1.6615045245047202 34 35 39
0.987433917653017 2.543926168096445 1.6609513523767192 35 36 39
0.9762504465240694 2.55272471196494 1.6605905951765312 37 38 41
0.890804480504805 2.607915633406644 1.6578487937691677 31 31 33
0.8906465310437349 2.663039628111689 1.6577773303955248 27 27 29
0.8840119089779084 2.6757859612341997 1.6575542279632964 26 26 28
0.8753761127781909 2.6867993356835544 1.657270562525271 24 24 26
0.824170246680487 2.6604535535688414 1.6556991646979395 19 19 21
0.805632285461821 2.7183324218964087 1.6550489226661251 13 13 15
0.7500801873068969 2.743326204486073 1.6532794984402335 12 13 15
0.6564134805142723 3.000189886248902 1.650036957566733 45 44 49
0.5946675908972481 2.9604727922040963 1.6481517004376558 45 45 49
0.7046893051960577 3.5791514457068505 1.6508497775715258 36 37 42
0.74684355379004 3.644614090333867 1.6520905786269235 40 41 45
0.6544592914940142 3.5693591389975814 1.6492889573224125 51 51 53
0.6536165227665875 3.589845186816155 1.6492378507908823 67 67 69
0.7422365170650533 3.792542295209194 1.6517678331614605 66 68 67
1.0416431535550927 2.5532356489089847 1.6766777131741981 33 34 38
1.016941532624673 2.550849024368584 1.675875234462321 30 31 35
1.0006534003316558 2.5554294639340864 1.6753456799681683 26 27 30
0.9845684870471185 2.560144097293408 1.6748227199094963 38 39 41
0.9443965014932989 2.580936965450384 1.6735160381986116 36 35 40
0.8338676683182661 2.559346388844891 1.6699260167142287 44 44 47
0.8782175649208829 2.6158407592418844 1.671363380873109 43 43 45
0.8534894367869734 2.6128051048368355 1.6705600834440844 36 36 39
0.8999930563175136 2.6901515917543786 1.6720660607530948 26 26 28
0.8095479520724326 2.685032823769305 1.669127543552025 15 15 17
0.7967407465726514 2.692256508225765 1.6687109221520087 14 14 16
0.7516211777589566 2.745145380340622 1.6672413714651741 12 12 14
0.6496394718857568 2.9941522357611223 1.663911317925991 40 39 44
0.5913673561709407 2.95774380476819 1.6620202579973573 39 38 43
0.760780376124133 3.6380606295213767 1.6674803929687247 37 37 43
0.6572757632616948 3.5727838451863216 1.6641214776082471 50 49 52
0.6558050068961914 3.5926199594688732 1.6640723864059033 68 68 70
0.6466963899256108 3.6044542160068005 1.663775641541648 78 77 80
1.0548323607836259 2.5646428966145756 1.6911739815282372 32 33 37
1.0384310508329362 2.5692250682282065 1.690626550931001 23 24 28
1.0149389469510495 2.5678279036645564 1.689833888406674 19 20 23
0.8587125568028824 2.6545826853707495 1.684665841200349 42 42 44
0.8366183580897207 2.7093835947382003 1.6839806935488606 19 19 21
0.7825289967224154 2.6800846555139355 1.68212757964146 17 17 19
0.7690616932918709 2.686660953003085 1.6816811041569224 16 16 18
0.7769162522644752 2.7122446183881577 1.681973140859265 14 14 16
0.7609826415748773 2.716630062736789 1.6814412497317297 14 14 16
0.7571969192964636 2.731892262823539 1.6813301686252613 12 12 14
0.7582301905135823 2.7515331046627667 1.6813860890146284 12 12 14
0.6667688449924793 3.010977589152251 1.6785848937342378 40 38 43
0.6471040709423839 3.011670311931421 1.6779233743794137 42 40 45
0.6528472754304555 3.036764216698379 1.6781437788234546 40 38 43
0.6230804115270054 3.027653666048692 1.677131501680299 40 38 43
0.5994206131247355 3.0243348952622586 1.6763311250529476 41 39 44
0.5608824201045319 3.0064598665743687 1.6750140242232299 48 46 51
0.7472473463813019 3.6244376099863307 1.681954952806514 37 37 45
0.650960370785044 3.566631844118616 1.678650063517293 51 49 53
0.6448348126034011 3.5815493292546763 1.6784598114095777 70 68 71
0.6901112293779414 3.694112949374982 1.6801056702983137 42 42 47
0.710166558144304 3.737279945381501 1.6808275103430765 43 44 49
0.7406278569787967 3.7917911802884285 1.6819119993504659 49 51 54
0.8511182423184669 3.9776976752760835 1.6858329891265216 97 99 97
1.0271468704178397 2.5784869503131898 1.704307391555005 19 20 22
0.9054406088954818 2.5851386833302734 1.700079195670515 29 29 31
0.8177750999712003 2.674613467424713 1.6972213030771615 41 40 44
0.8068912867092273 2.683542202540106 1.6968616600097088 36 35 40
0.7598550118216861 2.6604074579369117 1.695170599305158 31 30 35
0.7530435913121466 2.6728384881911658 1.6949606910449195 22 20 23
0.7451384993875914 2.7214875980721223 1.6947929294005324 11 12 14
0.751170724496708 2.7456000207923306 1.695056668741364 11 12 14
0.7598746977458901 2.7722223116789815 1.6954191138111256 11 12 14
0.675810574603156 3.0593187964271733 1.69312478504609 49 47 49
0.6243290286427936 3.068598528705735 1.6913505967061213 44 42 46
0.5748399092286902 3.040056142081786 1.6895620390458888 41 39 44
0.5481750444657767 3.033600728701904 1.6886181373194917 45 44 49
0.5256094212177762 3.0506748986072445 1.687869295203871 58 57 62
0.5000388124797166 3.0450720394427426 1.6869654311823565 42 42 45
0.7528819123089594 3.6307845511265135 1.6970782613976838 38 38 44
0.6573100454464333 3.573762501776068 1.6936200384643996 52 52 54
0.6450386201026608 3.5822353405074208 1.693211009835265 69 68 72
0.6479445592629236 3.6067176194589674 1.6933665799600681 69 67 73
0.6922399967816302 3.696853690200995 1.6951105920503808 41 39 45
0.7129857698956628 3.740767006541437 1.6959311639537917 42 41 48
0.7429724250608507 3.794783923828377 1.6970962864226655 45 45 54
0.7883427149051068 3.865595891925854 1.6988349399018383 53 54 58
0.8097622404725078 3.9110127959844765 1.699682332823067 72 74 73
0.8395064320170278 3.9656499461560397 1.7008403771889016 88 90 87
0.9024357855759608 4.056543323284314 1.7032356856935453 127 128 127
1.2445785101930946 2.556671677799568 1.7261221503905884 60 59 63
1.2321496177677504 2.564913218137992 1.725701802114937 55 55 57
0.8969979851677552 2.578345700794852 1.713665854900832 28 28 30
0.7735409763266847 2.654494457760663 1.7094713203705363 39 39 42
0.7577640188894302 2.6589794636988033 1.708917673997585 40 39 42
0.7527204245911011 2.6729776633083153 1.708782867110771 39 38 40
0.7438708714421325 2.683605266098741 1.7084995523873365 36 36 38
0.7384850225185255 2.753306800559484 1.7085394248211387 14 15 17
0.6064112360400926 3.0910516561708725 1.7049125590506682 45 44 49
0.5246578909509159 3.089589014966139 1.7019607260792498 55 54 58
0.7461734095611758 3.6242703613490104 1.7117407065149122 38 39 44
0.6523318268374898 3.5690121541552857 1.70817252349875 51 53 56
0.6373693608060453 3.5746360421899297 1.707652060336638 71 72 76
0.656715639172637 3.616451342282088 1.7084898152615275 70 68 74
0.6995922139239246 3.705146229762839 1.7103331469959708 39 36 42
0.7079427613925322 3.735871080539508 1.7107373095717808 40 40 46
0.7444909717902755 3.796893364301887 1.7122596188700876 46 46 52
0.790478959294892 3.86837836914565 1.714157326309029 54 55 59
0.8024113369784742 3.9035893395177728 1.714705662884164 68 70 69
0.8465686777063073 3.9737760187694438 1.716533022952795 83 85 83
0.9010217945109156 4.0784948907338565 1.7188474469247024 171 171 171
0.9023015740928944 4.102950930475191 1.7189756863473216 175 175 175
1.2609168077325315 2.551997391679606 1.7409918296949733 63 62 67
0.9276264486791338 2.586652297736297 1.728739037388837 27 27 29
0.9308130091546708 2.6260595995744556 1.729034940319593 31 30 34
0.8264699695845142 2.5546699758953935 1.7248290318395014 33 32 37
0.8143371727163643 2.5623771490326113 1.7244119865767278 33 32 37
0.8068086679431592 2.574059302085906 1.7241842434929735 33 32 37
0.8230404788591554 2.6247513033680097 1.7250165936347006 31 31 33
0.8064334620204717 2.628613887216926 1.7244156754191204 26 26 28
0.7961669152361192 2.638003302520061 1.7240756793873973 23 23 25
0.7760476148690343 2.6387087418167336 1.7233297942296812 23 23 25
0.6940268719758211 2.694939421249716 1.7205290339161818 32 33 35
0.7059749267292514 2.7243289540249345 1.7211060720088378 30 31 33
0.5515791037210047 3.116737528908896 1.7171229451580452 47 46 50
0.5330212122065552 3.1181572166166536 1.7164384054413286 54 53 58
0.5316731992500865 3.1367039415130584 1.7164716459326728 52 51 57
0.6708706553286439 3.5250478568622414 1.7234009589682764 37 38 43
0.7200916930176242 3.5975659946461676 1.7255597054845486 37 38 43
0.6228043093144047 3.5597781585840047 1.7217676348388071 68 70 73
0.6478351435348952 3.6075479832176636 1.7229144352574735 72 73 76
0.7910891301021739 3.869523099285245 1.7294263355675694 68 69 70
0.8100948894980822 3.912355951434688 1.730326609574952 77 79 76
0.8283563892454251 3.954594442951315 1.7311965005783678 88 90 88
0.8995167223386926 4.0543831370663295 1.7342947357250948 112 112 113
0.9080435815927166 4.086635119755081 1.7347572759098089 171 171 171
1.3084977679951235 2.572369359282097 1.7572304072737088 68 68 69
1.2234208520999976 2.5587005280802817 1.753885086698673 52 52 54
0.9672055418296125 2.6577132786885955 1.7446008891489988 32 31 35
0.9260170888855237 2.6407887685160265 1.742923190149058 34 33 38
0.862859110469427 2.6047090683817027 1.7402935105516542 34 33 38
0.8110327945784437 2.6330650762035503 1.7384624993054167 27 27 29
0.772158447655341 2.635707663957248 1.7369840383219137 22 22 24
0.5652110274076458 3.2108332411024385 1.7322773334834065 54 53 57
0.6717183691203359 3.526397488819829 1.7381483330585845 37 38 43
0.6394639092493253 3.5991810537838638 1.737319709722197 78 78 80
0.6822508450308504 3.6876717073019063 1.7394623851944793 50 49 54
0.7014225572293058 3.729879700230205 1.7404368851256753 62 62 65
0.7960726876491542 3.875362692306826 1.7448932786914406 81 82 81
0.8114757762910241 3.9143356966690064 1.7457047639694505 89 90 87
0.8350252147190815 3.9622956651837535 1.7468798709176625 100 102 100
0.9008946350186324 4.056378862646997 1.7499407999672107 129 129 130
1.3066420870149593 2.5713142334296206 1.7715246615652451 65 65 66
0.8346295406639406 2.6541454648279847 1.7533948557912458 29 29 31
0.7982261854979 2.640663598711866 1.7518618998375768 25 25 27
0.5860065257966369 3.313639723626437 1.7480208742188998 41 40 45
0.672091942647776 3.527254703832452 1.7528780987630967 38 37 42
0.6593190369611148 3.5351723241722626 1.752425980815877 40 39 44
0.6346747076251746 3.594595704468334 1.7518529680181363 83 82 84
0.6807540679654185 3.686558516923852 1.7543011837471056 49 48 54
0.6975568611956031 3.7262373998153713 1.755235584124725 55 54 59
0.8230535483621755 3.927298679302477 1.7615683565619882 90 90 90
0.8401171417306161 3.96829388076159 1.7625220090203948 107 107 107
0.902183719326825 4.05827851250854 1.7655898964357153 150 150 150
1.2936031461909394 2.5612799398832125 1.7852843309209954 63 63 65
1.2456796071850653 2.541020277241917 1.783169367672406 55 54 58
1.2165363334801036 2.5357355784685502 1.78193894276134 50 50 54
1.1322936539207846 2.5948885627556986 1.7789717602242705 71 71 75
0.8575980219505291 2.693234533589114 1.7685476651522554 33 33 35
0.8164767247727619 2.6756108228112643 1.766731000124716 26 27 29
0.5819661549028305 3.289530480909076 1.762029503743418 54 53 58
0.6465083969468928 3.4800698013745315 1.7661709723571974 39 38 43
0.6494702883781238 3.504221658944635 1.7664830686498452 39 38 43
0.6598115062232648 3.5361549775443955 1.7671577548040855 41 40 45
0.6739844196655616 3.6798395112795443 1.7688738599429112 52 51 56
0.690377020766556 3.719059646674938 1.7698530597809867 60 59 63
0.8520600474540474 3.9816968864753592 1.7785273416909342 103 103 103
0.902551296519507 4.059179211019448 1.781200269318072 165 165 165
1.2718870025329028 2.5442765992047676 1.7985623477325878 60 59 63
1.261389929360876 2.554108761891398 1.7982109031610398 52 51 56
0.8289145298178577 2.6684706575308956 1.781097186785639 27 27 29
0.8358488463346844 2.69311083239438 1.78161147938399 20 21 23
0.5843001932040934 3.2923551428364997 1.7764845718413331 51 50 55
0.5914291867232224 3.32007609776977 1.7770349508649101 52 51 56
0.6293228075553547 3.441790329433509 1.7797281642881402 47 46 51
0.636263694479668 3.469926601182279 1.7802744122751384 41 40 45
0.6405053769258702 3.495374583042343 1.780683021095969 40 39 44
0.6439574493679001 3.520097757727018 1.7810519240082234 42 41 46
0.6691916520052459 3.6752212593148545 1.783516586558262 48 47 52
0.6964856444630356 3.726055330562572 1.7851226821867774 55 55 57
0.8267529177786646 3.9322709321194314 1.7924583089814548 85 85 85
0.8396581518875248 3.9687899904157584 1.7933308269658195 103 103 103
0.8980401292308744 4.054789690357191 1.7965602648435717 166 166 166
1.2581482414084384 2.5336764993075214 1.8121591438136062 56 56 60
1.2536795767002396 2.5483291057623623 1.8121158003844364 50 49 54
0.8962091132428281 2.598502063763103 1.7972021759091747 32 32 35
0.9029367464966458 2.622629864720447 1.7977386398853958 33 33 36
0.8615873690191476 2.605313425438327 1.7957776755330646 33 32 35
0.8563521069469183 2.6191210318782434 1.7956926312633879 32 32 35
0.8185622465969724 2.641361217899753 1.7942888275328372 23 23 25
0.8180695498020208 2.6593724740472036 1.7944513195960181 17 18 20
0.8002752696992944 2.6621886332916933 1.7937121951180766 16 17 19
0.7624283125867811 2.740033877077088 1.7928732164785175 22 21 26
0.5736356666373226 3.2819808034681994 1.7902554758674698 45 44 49
0.594193076109119 3.3439079642977596 1.7917743528327248 51 50 55
0.6159743827492177 3.428474895428635 1.7935770165940894 47 46 51
0.6239507506527591 3.4576398603849876 1.7942187554216633 45 44 49
0.648183332249576 3.6317851160386034 1.7970410840393216 49 48 53
0.7000352559522023 3.730322129858905 1.8002838734231088 46 44 49
0.7297863370541884 3.784065863438336 1.8021159856570008 54 53 57
0.8182835305680198 3.923640498772527 1.8073587547842924 78 78 80
0.8343347700590331 3.9635321652749926 1.808458373858252 94 95 96
0.8901758122148458 4.0467632150954245 1.8117171477607752 142 142 143
1.2947053973215752 2.545167675844227 1.8281791464282902 63 63 62
1.2368314131122937 2.516988857233975 1.8252936288176018 52 51 55
0.9055895297704447 2.5886728070613483 1.8114208297040164 34 34 36
0.8482285214401258 2.5577443965557944 1.8085268674022774 34 34 36
0.8531051252835781 2.5801427074888683 1.8089971340860336 35 35 37
0.8444349328629781 2.5909185352258026 1.808734961147988 38 38 40
0.8353128575622206 2.601307969839081 1.8084483708386259 32 32 34
0.8112951022953859 2.617056666818905 1.8075621565751165 24 24 26
0.7999040816903015 2.625451135149715 1.8071523422480713 20 20 22
0.79621720338282 2.6406031170053934 1.8071607463886992 17 17 19
0.7902710356023488 2.7467371932957683 1.8081009695310404 22 21 27
0.7754651346043672 2.7521848074210293 1.8075063281554136 22 21 27
0.7398128189014611 2.73879811827569 1.8057738105184127 23 22 28
0.5988093535647754 3.411217414286404 1.8071493808530685 54 53 58
0.6117920761717652 3.4455110618270024 1.8081139649820122 53 52 57
0.6375224478632231 3.493208512888693 1.8097957629190975 52 52 56
0.6194257339928719 3.4954580750217903 1.809018945862376 50 50 52
0.5917794325744274 3.4876641851656593 1.8077048193909193 51 51 53
0.5872422020600394 3.504001469035822 1.8076889670166605 63 63 66
0.5901212892658363 3.5281858824493773 1.8080909313963074 69 71 74
0.6187450682459004 3.579656211805312 1.8099438058056954 72 72 75
0.6532265335063103 3.63760433901765 1.812129861735556 50 49 53
0.6986351515025175 3.729308970971293 1.815183273676055 44 43 48
0.7275396925094064 3.7821451662392747 1.8170640885758815 49 47 52
0.7501022928603878 3.8284478532136843 1.81858962021481 55 55 60
0.8106323105556674 3.915890264623396 1.8222651070501943 69 70 73
0.8791347640442151 4.0352903285787 1.8266565460790904 114 115 116
1.2913237665069013 2.5428937473011985 1.8423215239222348 60 60 60
1.2194489339751184 2.503458375331655 1.8385575068414743 47 46 50
0.8231458055105044 2.5366361581161394 1.82093201340075 38 38 40
0.8302893377619431 2.5609166246563735 1.8215602870897474 40 40 42
0.8254059545302477 2.574899817928325 1.821512553004278 41 41 43
0.8134721372311841 2.5827972494671254 1.8210679135720385 39 39 41
0.7985025833152879 2.5880404432282305 1.8204519541065654 36 36 38
0.7906673663344077 2.5994789831674323 1.8202380872135209 27 27 29
0.7803531343877811 2.6087568024534926 1.8198844029162433 19 19 21
0.7832603870002067 2.6296459577617437 1.820277506890382 15 16 18
0.6693618203549516 2.712760897507599 1.8161304114692576 23 24 26
0.5481156010601831 2.7690991130053324 1.811314589215614 22 23 25
0.5974319900712373 3.431100181763229 1.8218234428981739 53 52 57
0.5956091682983857 3.471092142652613 1.8222397011999887 63 63 65
0.5871289879983428 3.4832648404610644 1.822005640403158 63 63 65
0.5773837673080482 3.494120982786688 1.8216975601474956 75 75 77
0.5790513848880436 3.5169970357832128 1.8220590392111182 74 71 74
0.6361523466427295 3.619981672864995 1.825943858294326 62 61 65
0.7234712122995637 3.778274004402154 1.8318946163819503 52 50 55
0.749907484755794 3.828725399355983 1.8337277932595835 57 57 62
0.8124265122708052 3.9183161341618487 1.837692041416462 68 69 71
0.7914717943231528 3.9181873901903925 1.836736578447882 82 83 85
0.8392281831125585 3.992508482426501 1.8398382173601333 104 104 105
1.2499494127522441 2.5102050827698306 1.854261369071848 55 54 55
1.2106013610747755 2.49678101238897 1.852240776977495 46 45 49
0.7771048484344081 2.4975324488287702 1.8320050721687824 41 41 43
0.7652874976556091 2.5053515297203237 1.8315596829411998 41 41 44
0.7907604373015271 2.545382980615106 1.8332947499299228 45 45 48
0.77286690448651 2.5480137798143887 1.832494895304879 42 42 44
0.7663256552529912 2.560472132566862 1.8323591250201825 38 38 40
0.7796536776261968 2.5902898418672957 1.8333878272715391 22 22 24
0.777020122301242 2.606262061651697 1.8334824336946032 16 16 18
0.8712284712544167 2.782327431415411 1.8402810157269816 12 12 17
0.799161319436804 2.7555672545282084 1.8365506272939898 13 12 18
0.7098882581888826 2.749990959442796 1.832305263735625 20 21 24
0.5773134310899004 3.389945944913455 1.8348321792962938 44 43 48
0.5847170767527452 3.4183913764808764 1.8355654947961544 46 45 50
0.5954647669424173 3.4714061535976923 1.8367897196147163 55 55 58
0.5777827039303576 3.47395222435345 1.8359985871072388 62 61 64
0.5682872678881168 3.4850387378408927 1.8357061552536416 86 86 89
0.6216557611230793 3.6050886549188164 1.8398342126153564 69 68 72
0.6423182975177057 3.648549768945484 1.8413913407043543 62 61 66
0.7736671933896768 3.877043450553904 1.850638804806721 74 75 78
0.7876195557364016 3.914515087923649 1.8518009422712958 87 88 90
0.8391957003077266 3.992970566889954 1.8552786127175018 103 104 105
1.2951265201923667 2.5285543376248407 1.8709264143285842 61 61 63
1.1819059828130347 2.474159339875727 1.8647014318166035 48 48 50
0.7705262153383188 2.4743768010080225 1.8450045992411637 39 38 43
0.7595632908228916 2.4828906073116834 1.8446053106748606 43 42 47
0.7497649518287139 2.4923989632317816 1.8442764753661316 42 41 46
0.7781960776145728 2.534945250477668 1.8462661466550603 43 42 47
0.7770843666495036 2.552091602075225 1.846466064453976 36 35 40
0.8521368725560705 2.78459303764538 1.853492896282645 11 10 16
0.5490064124570284 3.1380802905916347 1.8441956839410587 33 34 38
0.5267281337904541 3.135774596310636 1.843094785618222 28 30 33
0.5330216503348428 3.1620294173371093 1.8437838037841023 24 28 29
0.5866479894464616 3.400044439042558 1.849865989758087 43 42 47
0.585707079022362 3.4198785445469224 1.8501137698057373 44 43 48
0.5979489102824516 3.4534765162386045 1.851196056269075 46 45 50
0.5696320585794563 3.486915087993508 1.8503337260315653 55 55 57
0.5577447084508982 3.4954917175335405 1.8498910963666826 69 69 71
0.600708338112286 3.5833550637883334 1.8532457741954909 75 75 77
0.6310439521809328 3.6370337521773797 1.8554910100169664 81 81 83
0.7429641831115852 3.8222411279903854 1.8635850864172618 71 71 73
0.7701953847068526 3.8737919121753634 1.8656502418029923 77 77 79
0.7767819889108687 3.9032897667399853 1.8664011766251773 98 98 98
1.2731285631807654 2.5114324093543967 1.8838791667845998 62 62 64
1.112152931155356 2.5629477468108752 1.876799178152113 68 68 70
0.8546766648117559 2.51063777212916 1.8633324260577333 38 37 42
0.8405318713926601 2.516630753614456 1.8627336358016657 39 38 43
0.7806858780013655 2.483488119538105 1.8592697696520841 42 41 46
0.7518313569236943 2.476669086351281 1.857745376746358 54 53 58
0.7753298540905751 2.514839541721988 1.8595055798920614 54 53 58
0.7866757708641106 2.542694645934965 1.860505372679319 37 36 41
0.544052421610826 3.1735353185112567 1.8586328682776962 41 44 47
0.5481041739370198 3.1976792311796665 1.8592156989286608 35 35 39
0.6144025993192241 3.429165753111075 1.866150820995733 40 39 44
0.6162794334019983 3.45201452436718 1.86660632594184 42 41 46
0.6187161239839658 3.5389060315117566 1.868107892433582 50 50 52
0.5948487093502244 3.5350349793254905 1.866875111917749 55 55 57
0.5810987222369994 3.541759769432724 1.86630733472482 62 62 64
0.5889903690325979 3.571402888681003 1.8671660590399415 74 74 76
0.6160978299924074 3.621610568198187 1.8692948097370796 79 79 81
0.632969128932487 3.661155844216071 1.8707516719757165 80 80 80
0.679799322809451 3.732967158568388 1.8741918506656392 76 76 76
0.7352541023624957 3.8144453789069273 1.8782090019785815 76 76 78
0.7663862868441484 3.870176349718895 1.8806230992594872 77 77 78
0.7962920277475443 3.9248765304952884 1.8829606184626806 95 95 95
1.2703293830067188 2.5096292705870904 1.8979661736016011 60 60 62
1.2405519065444113 2.5769222640547476 1.8976167189292346 55 55 57
0.8316672169034346 2.4914965349612808 1.875611948347018 38 37 42
0.8402069894971725 2.5167743833871774 1.8764719849544704 39 38 43
0.7961645067280129 2.4971529404605612 1.873924159712574 42 41 46
0.7924141133289054 2.5119331892115815 1.873987614918189 42 41 46
0.8814607985243379 2.8116619323502343 1.8835716390291188 11 10 16
0.5554271055941378 3.145367782100247 1.8728747747701697 48 47 52
0.6000422683083684 3.6050049723724724 1.8829515510096566 71 71 73
0.6279310583135633 3.6562545538572193 1.8852266747177886 77 77 78
0.6611100132175525 3.7134361345324898 1.8878687701561416 83 83 83
0.7351623130534322 3.837012656749665 1.8936966896639456 86 86 87
0.778313695097617 3.9059286265554825 1.897039968943493 99 99 99
0.8091406926626112 2.472762881299159 1.8878250483581793 39 38 43
0.8103993974763254 2.491767317320706 1.888235402088372 40 39 44
0.7815295485048195 2.503005550225194 1.8869547345375268 40 39 43
1.0136575448542597 3.0473223926002833 1.9087939352591958 21 20 26
0.5439487996800756 3.1543215220928777 1.8865783430270646 39 39 43
0.6755422146798125 3.7512662543136175 1.9042031963100154 83 82 83
0.796131766112329 3.925688853150378 1.9135782033417799 102 103 103
1.2502415322649363 2.5490147434478967 1.9261746542220204 54 54 56
1.186891311096948 2.5160624407771253 1.9222041479146452 51 50 55
0.8183220124688636 2.4630836791760315 1.9017850959993408 38 37 42
0.8295808626500604 2.490561073644372 1.902908595186915 42 41 46
0.7538866958306618 3.880493771664277 1.9257870659659548 94 96 95
0.8330509123956148 2.4580918847962963 1.916138694988697 45 44 49
0.8397132046270496 2.4816313921205255 1.916978934120434 60 59 64
0.8498492324339811 2.5082158764279567 1.9180684021739725 46 45 50
1.0052043742482633 3.119705463197379 1.9389423914700694 32 33 35
0.9966235475035561 3.1317038614451578 1.938726247903658 32 33 35
0.9797423581758793 3.1359945405127685 1.9379057425392285 31 32 34
0.9729388501033245 3.149644696641222 1.9378190356090572 29 30 32
0.726693355128007 3.8293435728052945 1.9384802488993582 75 74 77
0.7380671619184154 3.8638733222914388 1.9397989268861155 83 85 84
0.7900682047851835 3.9426448180671345 1.944209077600182 102 103 102
1.1549247676949101 2.5454872936957225 1.9494013621176236 49 49 51
0.8504854676385664 2.473238391391967 1.9310991386883283 54 53 58
0.8504201988323221 2.491125797775835 1.9314820322284725 37 36 41
0.8209955825539414 2.520085785110815 1.9304896875722606 34 33 38
1.0296772585939942 3.1228027131388485 1.9549876894099443 30 33 35
1.0142467874005823 3.1285131123986 1.9542625456613256 33 34 36
0.9987402120839213 3.134120932220487 1.9535310005566142 33 34 36
0.9957054790035165 3.151292778696236 1.9537351419228666 32 33 35
0.9895371520957374 3.165585032235623 1.9537047486042272 30 31 33
0.7414350479463114 3.8457229064729113 1.9547568991960358 70 69 73
0.7614186705328361 3.8896198833156506 1.956804259183082 78 80 79
0.7819835051637258 3.934364792408269 1.9589019009220203 91 92 90
1.132167948155705 2.5091839052017764 1.9614517697846867 58 58 59
1.0862260265363743 2.4897738118667254 1.958429523766845 40 40 40
1.0877202160841084 2.509062273627411 1.9589522049088992 40 39 43
0.8409674710049639 2.447752066854473 1.9436965662148578 33 33 35
0.8549619470034349 2.477439236203984 1.945157971185083 33 33 35
0.8610933105107184 2.500592901416137 1.9460290602446833 31 31 33
0.8368166439183901 2.534051631165596 1.9454264197254072 28 28 30
1.0073306624080038 3.142538477028258 1.9688458446827135 34 35 39
0.9984154700975301 3.1542691810478205 1.9686118779967046 34 35 39
0.7470888735964452 3.874609084590933 1.970879187325342 76 78 77
0.7750269999028347 3.927307941835789 1.9736472977189734 88 89 88
0.8015397130433346 3.9787296947697315 1.9763062874585853 132 132 132
1.0630869258349032 2.346744689513706 1.96769496345109 77 79 78
1.0463004517742627 2.3509335121634183 1.9668321932157982 61 61 61
1.0529702199939872 2.3739374333740138 1.96776424190194 56 55 60
1.061649519960874 2.4342763686050555 1.9697033634817924 42 41 45
1.0709609988459414 2.459753164026457 1.9708460025531063 38 38 41
1.064432095751946 2.4723867991000814 1.9707732982925186 37 37 38
0.866218689411128 2.487369603257486 1.9597621945332917 30 29 34
0.8216807642275292 2.4676012749206593 1.956735416785919 32 31 35
0.8411521443380727 2.5381853043683096 1.9595382652154973 26 26 28
0.9893271484879747 3.1663030621354222 1.9830408704020244 31 32 35
0.7510310258159878 3.879362815656357 1.9864055060062122 87 89 88
0.7598514738791076 3.911329346765446 1.9876749994359206 97 98 97
0.81578152810758 3.994733967829724 1.992875262523136 132 132 132
1.0508709360990003 2.3550125659758705 1.981004878442003 75 75 77
1.0456216343769946 2.368448952557893 1.9810338500446973 53 52 57
1.062076118313078 2.4350445573447788 1.9836637857669577 37 36 42
1.0346840600156262 2.430623675323973 1.9819495912379814 39 38 43
0.8058283187638723 2.4545791186579997 1.9691517143732438 37 36 41
0.87421270675627 2.5851455745681218 1.9764226571844778 36 36 38
0.7828170265681461 2.6339332664976016 1.972293279027774 17 17 19
0.9926981325652242 3.149865018889827 1.9974920272577052 33 34 38
0.9792274565235617 3.157335943898251 1.9968904162036272 30 31 34
