ply
format ascii 1.0
element vertex 882
property float x
property float y
property float z
property float nx
property float ny
property float nz
property uchar diffuse_red
property uchar diffuse_green
property uchar diffuse_blue
property uchar class
property uchar detection
end_header
0.6229 3.7475 0.7778 -0.410 0.584 0.701 18 18 20 0 0
0.6424 3.7551 0.7757 -0.306 0.587 0.749 21 21 23 0 0
0.6166 3.7774 0.7728 -0.532 0.847 0.007 18 18 20 0 0
0.6208 3.7899 0.7705 -0.442 0.807 -0.392 17 17 19 0 0
0.6684 3.8442 0.7589 -0.090 0.958 -0.272 13 12 15 0 0
0.6819 2.8894 0.9401 -0.780 -0.609 -0.142 23 23 25 0 0
0.6523 2.9172 0.9364 -0.780 -0.465 -0.419 24 24 26 0 0
0.6401 2.9374 0.9334 -0.808 -0.539 -0.239 25 25 29 0 0
0.6281 2.9575 0.9303 -0.841 -0.530 -0.110 27 28 32 0 0
0.6093 2.9803 0.9271 -0.789 -0.586 -0.187 29 30 34 0 0
0.5372 3.1278 0.9041 -0.965 0.221 0.143 37 37 39 0 0
0.5319 3.1445 0.9014 -0.979 -0.107 0.175 33 33 35 0 0
0.5114 3.3108 0.8729 -0.848 0.519 0.104 34 35 39 0 0
0.5109 3.6487 0.8135 -0.425 -0.152 -0.892 31 33 34 0 0
0.5120 3.6761 0.8086 -0.414 -0.103 -0.904 19 20 22 0 0
0.5071 3.6916 0.8061 -0.464 -0.191 -0.865 15 15 17 0 0
0.6084 3.7409 0.7932 -0.865 -0.460 0.202 16 16 18 0 0
0.6116 3.7538 0.7908 -0.596 0.760 -0.261 13 13 15 0 0
0.5983 3.7859 0.7857 -0.194 0.759 -0.621 12 12 14 0 0
0.6164 3.7939 0.7836 -0.442 0.807 -0.392 12 12 14 0 0
0.5760 3.8207 0.7805 -0.059 0.913 -0.403 12 12 14 0 0
0.6931 3.9223 0.7578 -0.824 -0.069 0.562 36 35 40 0 0
0.6559 2.8434 0.9634 -0.986 0.130 -0.101 24 25 27 0 0
0.6291 2.9299 0.9492 -0.823 -0.372 -0.429 28 28 30 0 0
0.6309 2.9440 0.9467 -0.880 -0.463 -0.103 29 30 34 0 0
0.6235 2.9620 0.9438 -0.841 -0.530 -0.110 32 33 37 0 0
0.5358 3.1164 0.9200 -0.949 0.216 -0.229 37 37 39 0 0
0.5291 3.1337 0.9172 -0.792 0.483 0.373 31 31 33 0 0
0.5630 3.1778 0.9081 -0.725 0.388 0.569 24 24 26 0 0
0.5137 3.2982 0.8888 -0.855 0.072 0.514 34 35 39 0 0
0.5133 3.3126 0.8862 -0.797 0.428 0.426 34 35 39 0 0
0.4297 3.4015 0.8738 -0.545 0.800 -0.250 29 30 33 0 0
0.4266 3.5701 0.8442 -0.834 -0.516 0.194 23 23 25 0 0
0.4744 3.6501 0.8282 -0.394 -0.236 -0.888 18 21 23 0 0
0.4892 3.6726 0.8236 -0.536 -0.153 -0.830 14 15 17 0 0
0.5549 3.7056 0.8152 -0.946 0.302 0.115 21 21 23 0 0
0.5960 3.7336 0.8086 -0.918 0.353 -0.179 12 12 14 0 0
0.6024 3.7593 0.8038 -0.521 0.612 -0.596 10 10 12 0 0
0.5590 3.8011 0.7982 -0.431 0.902 0.031 11 11 13 0 0
0.5781 3.8088 0.7961 -0.280 0.954 0.111 11 11 13 0 0
0.6128 3.8114 0.7942 -0.360 0.893 0.268 12 12 14 0 0
0.9949 2.3150 1.0584 -0.626 0.719 -0.302 35 37 42 0 0
0.6148 2.9386 0.9623 -0.834 -0.383 -0.398 33 33 35 0 0
0.6084 2.9562 0.9595 -0.875 -0.391 -0.287 36 37 41 0 0
0.5327 3.1057 0.9359 -0.998 0.056 -0.000 36 36 38 0 0
0.5132 3.3008 0.9020 -0.687 0.692 0.221 34 35 40 0 0
0.5147 3.3145 0.8996 -0.685 0.436 0.584 34 35 39 0 0
0.4351 3.4019 0.8871 -0.889 0.290 0.353 31 32 35 0 0
0.4753 3.4007 0.8858 -0.729 0.529 -0.435 43 44 46 0 0
0.4698 3.6126 0.8485 -0.431 0.596 -0.678 19 19 21 0 0
0.5693 3.6894 0.8311 -0.537 0.136 0.832 18 18 20 0 0
0.5658 3.7045 0.8286 -0.562 0.291 0.774 15 15 17 0 0
0.5450 3.7944 0.8134 -0.368 0.837 0.405 11 11 13 0 0
0.5610 3.8030 0.8113 -0.353 0.893 0.278 11 11 13 0 0
0.5644 3.8294 0.8065 -0.309 0.762 0.569 13 13 15 0 0
0.6955 3.8572 0.7966 -0.052 0.933 0.357 43 43 45 0 0
0.5424 3.1042 0.9496 -0.831 0.508 0.227 30 30 32 0 0
0.5248 3.3131 0.9132 -0.655 0.266 0.707 34 35 39 0 0
0.4455 3.4004 0.9005 -0.606 0.744 -0.282 31 32 35 0 0
0.5552 3.7244 0.8390 -0.903 0.214 0.373 10 11 13 0 0
0.5568 3.7377 0.8366 -0.828 0.508 -0.239 9 10 12 0 0
0.5668 3.7621 0.8319 -0.825 0.445 0.348 9 10 12 0 0
0.5730 3.7739 0.8295 -0.716 0.568 -0.407 10 11 13 0 0
0.5565 3.8069 0.8243 -0.273 0.651 0.708 17 16 19 0 0
0.5694 3.8166 0.8221 -0.257 0.637 0.727 23 22 25 0 0
0.5828 3.8260 0.8199 -0.212 0.703 0.679 29 29 33 0 0
0.6224 3.8410 0.8158 -0.178 0.838 0.515 41 42 44 0 0
0.7520 3.8701 0.8059 -0.361 0.932 0.033 34 32 35 0 0
0.7701 3.8786 0.8038 -0.278 0.949 0.152 42 38 40 0 0
0.7939 2.5903 1.0463 -0.440 -0.154 0.884 51 51 53 0 0
0.7685 2.6176 1.0424 -0.421 -0.010 0.907 48 48 51 0 0
0.7604 2.6368 1.0392 -0.415 -0.115 0.902 44 44 47 0 0
0.6970 2.7877 1.0145 -0.787 -0.542 0.294 34 35 39 0 0
0.6267 2.9387 0.9901 -0.852 -0.514 0.103 46 47 51 0 0
0.5921 2.9979 0.9807 -0.861 -0.452 0.234 45 44 49 0 0
0.5579 3.1585 0.9533 -0.222 0.778 0.588 20 20 22 0 0
0.4448 3.4032 0.9136 -0.667 0.742 -0.074 31 32 35 0 0
0.5746 3.6926 0.8575 -0.876 -0.074 0.477 11 12 14 0 0
0.5652 3.7097 0.8548 -0.903 0.037 0.429 10 11 13 0 0
0.5708 3.7772 0.8426 -0.835 0.494 -0.243 22 23 25 0 0
0.7462 3.8604 0.8217 -0.497 0.796 0.346 45 43 46 0 0
0.7758 3.8793 0.8173 -0.369 0.757 0.539 62 63 61 0 0
0.8542 2.5959 1.0579 -0.225 -0.139 0.964 57 56 61 0 0
0.5528 3.3073 0.9408 -0.764 -0.373 0.526 33 34 38 0 0
0.4525 3.3887 0.9295 -0.784 0.413 0.464 31 32 36 0 0
0.4443 3.4059 0.9267 -0.529 0.848 0.035 29 30 33 0 0
0.4172 3.5972 0.8934 -0.779 -0.613 -0.134 19 20 22 0 0
0.5653 3.7260 0.8655 -0.867 0.309 -0.390 12 13 15 0 0
0.5905 3.7315 0.8637 -0.936 -0.350 0.022 19 20 22 0 0
0.5800 3.7489 0.8609 -0.602 0.420 0.679 28 29 31 0 0
0.5490 3.7730 0.8576 -0.692 0.683 0.235 37 38 40 0 0
0.7868 3.8786 0.8309 -0.418 0.826 0.379 58 60 58 0 0
0.6013 3.0580 0.9977 -0.969 0.115 -0.219 31 31 33 0 0
0.5498 3.1523 0.9824 -0.967 -0.070 0.244 23 23 25 0 0
0.5613 3.2921 0.9570 -0.849 0.344 0.402 34 35 39 0 0
0.4508 3.3918 0.9426 -0.782 0.612 0.113 30 31 35 0 0
0.4358 3.6068 0.9045 -0.579 -0.343 0.740 18 19 21 0 0
0.5606 3.7301 0.8785 -0.882 0.325 -0.341 34 35 37 0 0
0.5727 3.7399 0.8763 -0.811 0.376 0.449 38 39 41 0 0
0.9649 2.5973 1.0836 -0.367 -0.480 0.797 63 64 66 0 0
0.6107 3.0272 1.0170 -0.734 -0.304 0.608 32 32 34 0 0
0.5589 3.1511 0.9962 -0.828 0.241 0.506 23 23 25 0 0
0.6046 3.1616 0.9930 -0.748 -0.179 -0.639 17 17 19 0 0
0.5577 3.2961 0.9702 -0.969 -0.134 0.205 35 35 39 0 0
0.5412 3.3168 0.9670 -0.761 -0.578 -0.294 32 33 37 0 0
0.4525 3.6172 0.9156 -0.506 0.836 -0.211 19 19 21 0 0
0.5477 3.7091 0.8962 -0.309 -0.076 -0.948 34 35 37 0 0
0.5496 3.7224 0.8938 -0.443 0.009 -0.896 31 32 34 0 0
1.0535 2.5437 1.1056 -0.369 -0.521 0.769 78 78 79 0 0
1.0204 2.5747 1.1010 -0.367 -0.444 0.818 76 76 76 0 0
0.6339 2.9755 1.0397 -0.678 -0.533 0.506 35 36 40 0 0
0.5455 3.3033 0.9831 -0.808 -0.539 -0.238 34 34 39 0 0
0.7081 3.8824 0.8740 -0.947 0.022 -0.321 15 15 17 0 0
1.2763 2.4117 1.1385 -0.849 -0.529 0.002 96 95 94 0 0
1.1603 2.4975 1.1261 -0.367 -0.505 0.781 91 90 89 0 0
1.1207 2.5317 1.1210 -0.395 -0.578 0.714 87 86 85 0 0
1.0916 2.5609 1.1165 -0.549 -0.606 0.575 82 81 80 0 0
0.6169 3.0444 1.0418 -0.612 -0.169 -0.773 32 32 34 0 0
0.5360 3.3096 0.9960 -0.642 -0.748 -0.170 34 34 39 0 0
0.5856 3.3764 0.9826 0.168 0.877 0.451 22 23 25 0 0
0.4190 3.5787 0.9504 -0.958 -0.283 0.051 20 21 23 0 0
0.4127 3.5948 0.9477 -0.923 0.385 -0.021 20 21 23 0 0
0.6697 3.7153 0.9190 -0.740 -0.077 0.668 15 15 17 0 0
0.6697 3.7294 0.9164 -0.998 0.054 0.034 16 16 18 0 0
0.6737 3.7421 0.9140 -0.586 -0.428 -0.688 15 15 17 0 0
0.6497 3.7639 0.9107 -0.324 -0.088 -0.942 14 14 16 0 0
0.6506 3.7776 0.9082 -0.396 -0.365 -0.843 13 13 15 0 0
0.6407 3.7947 0.9054 -0.394 -0.362 -0.845 13 14 16 0 0
0.6523 3.8328 0.8982 -0.394 0.139 -0.908 11 11 13 0 0
0.7055 3.8718 0.8897 -0.978 0.136 0.158 13 13 15 0 0
0.7066 3.8854 0.8872 -0.844 0.326 0.426 16 16 18 0 0
0.7482 3.8866 0.8859 -0.255 0.754 -0.606 19 19 21 0 0
0.7718 3.9771 0.8689 -0.840 -0.123 -0.528 50 50 52 0 0
1.2579 2.3410 1.1672 -0.033 0.962 -0.272 79 79 78 0 0
1.2546 2.3589 1.1641 -0.177 0.399 -0.900 81 81 81 0 0
1.2566 2.3744 1.1612 -0.217 0.114 -0.970 82 82 83 0 0
1.2423 2.4465 1.1485 -0.544 0.471 -0.695 98 97 96 0 0
1.1921 2.5019 1.1397 -0.694 -0.582 0.424 107 106 104 0 0
1.1476 2.5383 1.1342 -0.623 -0.657 0.424 101 100 98 0 0
0.7082 2.9640 1.0681 -0.581 0.005 0.814 33 34 38 0 0
0.6828 3.0045 1.0614 -0.544 -0.347 0.764 32 33 36 0 0
0.5431 3.2662 1.0174 -0.820 -0.363 -0.442 37 38 42 0 0
0.6464 3.7256 0.9315 -0.565 -0.403 0.720 12 12 14 0 0
0.6384 3.7562 0.9261 -0.498 -0.263 -0.826 12 12 14 0 0
0.6629 3.7621 0.9244 -0.303 -0.445 -0.843 11 11 13 0 0
0.6427 3.7827 0.9212 -0.309 -0.441 -0.843 11 11 13 0 0
0.6468 3.8231 0.9138 -0.380 0.373 -0.846 11 11 13 0 0
0.6171 3.7657 0.9386 -0.788 0.284 0.547 11 11 13 0 0
0.5889 3.7887 0.9351 -0.459 0.025 0.888 11 11 13 0 0
0.5671 3.8234 0.9293 -0.085 0.680 0.728 11 11 13 0 0
1.1852 2.5267 1.1658 -0.597 -0.692 0.406 145 143 144 0 0
0.5231 3.2792 1.0432 -0.760 -0.609 0.225 37 38 42 0 0
0.6074 3.8268 0.9413 -0.202 0.369 0.907 24 24 26 0 0
0.7682 3.8740 0.9291 -0.302 0.515 0.802 35 35 37 0 0
0.8475 2.9583 1.1090 -0.463 -0.627 -0.627 31 32 36 0 0
0.6174 3.1572 1.0773 -0.680 -0.722 -0.129 25 26 28 0 0
0.7074 3.2823 1.0526 -0.649 -0.718 -0.253 33 34 38 0 0
0.7567 3.8521 0.9472 -0.290 0.605 0.741 27 26 30 0 0
0.7722 3.8614 0.9452 -0.250 0.755 0.607 27 27 31 0 0
0.7941 3.8687 0.9434 -0.331 0.497 0.802 32 32 34 0 0
0.8317 2.7846 1.1557 -0.616 -0.746 0.253 44 46 45 0 0
0.8187 2.9729 1.1214 -0.476 -0.600 -0.643 28 29 33 0 0
0.7100 3.0630 1.1069 -0.567 -0.677 -0.469 16 16 18 0 0
0.6306 3.1398 1.0943 -0.704 -0.698 -0.132 22 23 25 0 0
0.5558 3.2570 1.0742 -0.679 -0.727 0.104 38 37 42 0 0
0.6907 3.0735 1.1195 -0.716 -0.670 -0.195 17 17 19 0 0
0.6245 3.1448 1.1075 -0.741 -0.669 -0.061 25 26 28 0 0
0.5723 3.2385 1.0912 -0.865 -0.441 0.238 38 37 42 0 0
0.6941 3.3217 1.0737 -0.701 -0.713 0.001 20 21 23 0 0
0.7191 3.8268 0.9802 -0.641 0.183 0.745 26 27 29 0 0
0.7477 3.8740 0.9711 -0.594 0.795 -0.121 25 25 27 0 0
0.6824 3.0795 1.1327 -0.730 -0.673 -0.116 17 17 19 0 0
0.5774 3.2390 1.1049 -0.886 -0.459 -0.066 39 38 43 0 0
0.6308 3.3194 1.0892 -0.595 -0.311 -0.741 33 34 38 0 0
0.4599 3.5953 1.0409 -0.970 -0.219 -0.104 21 22 24 0 0
0.6734 3.0858 1.1458 -0.724 -0.679 -0.120 19 19 21 0 0
0.6468 3.1115 1.1414 -0.681 -0.714 -0.162 23 24 26 0 0
0.6893 3.3432 1.0979 0.169 0.939 -0.300 16 16 18 0 0
0.4513 3.6147 1.0510 -0.994 0.107 -0.039 23 24 26 0 0
0.7688 3.8726 0.9987 -0.431 -0.263 -0.863 13 12 16 0 0
0.7101 3.0436 1.1673 -0.706 -0.694 -0.139 17 17 19 0 0
0.6864 3.0683 1.1630 -0.788 -0.615 -0.020 17 17 19 0 0
0.6687 3.0903 1.1592 -0.696 -0.718 -0.005 20 20 22 0 0
0.6416 3.1162 1.1547 -0.687 -0.726 -0.036 24 25 27 0 0
0.5935 3.2233 1.1354 -0.927 -0.354 -0.125 37 38 42 0 0
0.5721 3.2462 1.1314 -0.880 -0.460 0.118 38 39 43 0 0
0.5782 3.2583 1.1291 -0.522 0.386 0.760 37 38 42 0 0
0.6836 3.3043 1.1192 -0.596 -0.798 0.083 30 31 33 0 0
0.4566 3.6014 1.0669 -0.615 0.324 0.719 22 23 25 0 0
0.7067 3.8942 1.0093 -0.913 -0.359 -0.193 14 12 17 0 0
0.7378 3.8986 1.0081 -0.886 0.047 -0.461 15 13 18 0 0
0.6986 3.0510 1.1803 -0.727 -0.686 -0.033 16 16 18 0 0
0.5924 3.2117 1.1515 -0.976 -0.181 -0.120 38 39 42 0 0
0.5828 3.2301 1.1482 -0.930 -0.359 -0.078 38 39 43 0 0
0.5727 3.2485 1.1449 -0.880 -0.460 0.118 39 40 44 0 0
0.5097 3.5570 1.0881 -0.656 -0.612 0.442 20 21 23 0 0
0.4695 3.5993 1.0807 -0.712 0.202 0.672 22 23 25 0 0
0.4691 3.6133 1.0781 -0.708 0.335 0.622 22 23 25 0 0
0.6732 3.0789 1.1896 -0.781 -0.624 -0.004 20 20 22 0 0
0.5917 3.2145 1.1650 -0.811 -0.378 -0.447 39 40 43 0 0
0.5803 3.2480 1.1588 -0.966 -0.235 -0.107 39 40 44 0 0
0.6873 3.3081 1.1466 -0.563 -0.823 0.076 28 29 31 0 0
0.7134 3.7289 1.0677 -0.342 -0.465 -0.817 12 12 14 0 0
0.6696 3.7713 1.0602 -0.788 0.569 -0.237 12 12 14 0 0
0.6555 3.7898 1.0568 -0.539 0.796 0.277 12 12 14 0 0
0.7311 3.9058 1.0345 -0.569 0.677 0.467 46 44 49 0 0
0.7023 3.0397 1.2108 -0.697 -0.679 -0.230 18 18 20 0 0
0.4779 3.6013 1.1073 -0.885 -0.237 0.401 23 24 26 0 0
0.7472 3.8754 1.0538 -0.349 0.444 0.825 48 47 52 0 0
0.7305 3.9085 1.0478 -0.426 0.751 0.504 48 48 50 0 0
0.7616 3.9130 1.0467 -0.546 0.473 0.691 48 48 50 0 0
0.7198 3.0201 1.2286 -0.717 -0.685 -0.130 18 16 19 0 0
0.7135 3.0377 1.2254 -0.825 -0.563 -0.039 19 19 21 0 0
0.7688 3.2674 1.1818 -0.929 0.044 -0.369 30 31 35 0 0
0.7692 3.2819 1.1791 -0.998 0.067 -0.022 23 24 26 0 0
0.7744 3.8977 1.0633 -0.754 -0.091 0.650 33 33 35 0 0
0.8436 3.9332 1.0562 -0.133 0.682 0.719 57 57 57 0 0
0.7099 3.0268 1.2417 -0.749 -0.659 -0.072 18 16 19 0 0
0.6887 3.0506 1.2373 -0.698 -0.704 -0.134 20 20 22 0 0
0.7690 3.2699 1.1956 -0.998 -0.003 -0.056 28 29 33 0 0
0.8407 3.9366 1.0695 -0.325 0.699 0.637 65 65 65 0 0
0.7641 3.2449 1.2145 -0.979 0.176 0.099 37 38 42 0 0
0.4791 3.6083 1.1467 -0.995 -0.074 0.070 21 22 24 0 0
0.8162 3.6912 1.1300 -0.736 -0.494 -0.463 19 19 21 0 0
0.8286 3.7015 1.1280 -0.977 0.079 -0.200 17 17 20 0 0
0.8375 3.7129 1.1258 -0.583 0.800 0.140 18 18 21 0 0
1.0943 2.6036 1.3498 -0.522 -0.819 -0.238 163 164 160 0 0
0.6815 3.0439 1.2670 -0.743 -0.660 0.107 17 18 20 0 0
0.7399 3.3155 1.2154 -0.997 -0.073 -0.039 16 16 18 0 0
0.7487 3.3268 1.2133 -0.943 0.298 -0.149 16 16 18 0 0
0.8039 3.6978 1.1428 -0.839 -0.529 -0.128 14 14 16 0 0
0.8266 3.7047 1.1415 -0.994 0.080 -0.068 15 15 17 0 0
0.7625 3.2360 1.2447 -0.978 -0.166 0.129 39 40 44 0 0
0.7714 3.2473 1.2425 -0.962 0.130 0.239 35 36 40 0 0
0.4663 3.6178 1.1721 -0.855 -0.509 0.101 22 23 25 0 0
1.0962 2.5923 1.3822 -0.526 -0.817 -0.235 164 164 163 0 0
0.5787 3.1503 1.2750 -0.914 0.396 0.085 25 26 28 0 0
0.7421 3.2170 1.2625 -0.607 -0.793 -0.053 38 39 43 0 0
0.8117 3.2047 1.2650 -0.585 -0.792 -0.175 40 41 45 0 0
0.7683 3.2363 1.2589 -0.950 0.185 0.252 39 40 44 0 0
0.7472 3.3326 1.2405 -0.925 0.261 -0.275 17 17 19 0 0
0.4636 3.6212 1.1850 -0.898 -0.440 0.014 22 23 25 0 0
0.7689 3.2239 1.2755 -0.952 0.065 0.298 40 41 46 0 0
0.7456 3.3358 1.2540 -0.989 0.147 -0.028 17 17 19 0 0
0.7893 3.7531 1.1744 -0.595 -0.381 -0.707 12 11 13 0 0
0.6541 3.0656 1.3196 -0.768 -0.635 -0.077 25 26 28 0 0
0.6346 3.0884 1.3151 -0.782 -0.590 -0.200 25 26 28 0 0
0.6118 3.1272 1.3076 -0.904 -0.401 -0.150 25 26 30 0 0
0.7627 3.1994 1.2944 -0.594 -0.800 -0.088 39 38 43 0 0
0.7781 3.2230 1.2900 -0.975 0.100 0.201 40 41 46 0 0
0.7791 3.2374 1.2872 -0.929 0.335 0.160 36 37 41 0 0
0.7456 3.3091 1.2733 -0.965 -0.234 0.117 16 16 18 0 0
0.7459 3.3236 1.2705 -0.943 -0.112 0.314 16 16 18 0 0
0.7537 3.3353 1.2683 -0.937 0.289 -0.194 19 19 21 0 0
0.4598 3.6414 1.2082 -0.806 -0.531 0.263 27 27 29 0 0
0.7488 3.7969 1.1798 -0.436 0.858 -0.273 29 32 34 0 0
0.7795 3.2102 1.3067 -0.940 -0.340 0.016 43 42 47 0 0
0.7766 3.2262 1.3037 -0.989 -0.150 0.006 40 41 44 0 0
0.4960 3.5333 1.2428 -0.700 -0.384 -0.602 16 16 18 0 0
0.3840 3.6429 1.2210 -0.331 0.648 0.686 21 21 23 0 0
0.8855 3.9131 1.1722 -0.345 0.746 0.570 35 33 37 0 0
0.6105 3.1035 1.3403 -0.737 -0.600 -0.313 26 27 29 0 0
0.5919 3.1259 1.3358 -0.331 0.917 0.224 26 27 30 0 0
0.7745 3.1851 1.3258 -0.616 -0.788 -0.001 39 39 44 0 0
0.7221 3.2646 1.3101 -0.987 -0.154 -0.035 33 34 36 0 0
0.6242 3.6596 1.2331 0.128 0.800 0.587 34 35 37 0 0
0.7759 3.1872 1.3397 -0.591 -0.806 0.013 40 41 45 0 0
0.7280 3.2649 1.3243 -0.954 -0.298 -0.010 31 32 34 0 0
0.4114 3.6244 1.2517 -0.386 0.763 0.518 19 19 21 0 0
0.4319 3.6309 1.2506 -0.419 0.637 0.647 22 22 24 0 0
0.7739 3.1757 1.3563 -0.662 -0.655 -0.364 38 39 43 0 0
0.7689 3.1926 1.3529 -0.591 -0.806 0.013 41 42 46 0 0
0.7200 3.2412 1.3430 -0.955 -0.285 0.084 41 42 46 0 0
0.7238 3.2544 1.3404 -0.981 0.106 0.162 34 35 39 0 0
0.3972 3.6181 1.2663 -0.632 0.498 0.593 21 21 23 0 0
0.4110 3.6270 1.2647 -0.404 0.682 0.610 23 23 25 0 0
0.7923 3.1711 1.3717 -0.622 -0.778 -0.089 40 41 45 0 0
0.7964 3.1992 1.3663 -0.819 -0.548 0.171 46 47 51 0 0
0.3934 3.6081 1.2816 -0.865 0.008 0.502 18 18 20 0 0
0.3948 3.6214 1.2791 -0.894 -0.165 0.417 22 22 24 0 0
0.8045 3.1540 1.3896 -0.681 -0.684 -0.260 39 40 44 0 0
0.7977 3.1716 1.3860 -0.632 -0.774 -0.047 43 44 48 0 0
0.5174 3.6223 1.2941 -0.239 0.959 0.153 27 27 29 0 0
0.8044 3.7092 1.2813 -0.715 -0.146 0.684 12 12 14 0 0
0.9329 3.8118 1.2631 -0.247 -0.247 -0.937 11 11 13 0 0
0.8533 3.9356 1.2378 -0.363 -0.240 -0.900 18 16 19 0 0
0.9360 2.7199 1.4910 -0.974 -0.075 0.213 46 45 49 0 0
0.9278 2.7391 1.4871 -0.706 0.534 0.466 41 41 46 0 0
0.7014 2.9895 1.4345 -0.684 -0.634 -0.361 20 21 23 0 0
0.7862 3.1639 1.4017 -0.746 -0.654 -0.122 41 42 46 0 0
0.8335 3.1601 1.4032 -0.775 -0.607 0.175 44 45 49 0 0
0.8122 3.1834 1.3983 -0.877 -0.414 0.245 46 47 51 0 0
0.8026 3.2169 1.3916 -0.879 -0.277 0.388 35 36 40 0 0
0.4691 3.5580 1.3196 -0.729 -0.528 0.436 16 16 18 0 0
0.4510 3.6203 1.3071 -0.704 0.702 0.104 24 24 26 0 0
0.8530 3.9241 1.2541 -0.685 -0.484 -0.545 23 22 25 0 0
1.0323 2.5689 1.5371 -0.508 -0.748 -0.427 96 96 96 0 0
0.9602 2.6805 1.5140 -0.842 -0.506 0.187 59 59 61 0 0
0.9530 2.7150 1.5071 -0.848 0.270 0.455 43 42 47 0 0
0.9270 2.7422 1.5013 -0.746 0.301 0.594 38 38 43 0 0
0.7026 2.9767 1.4513 -0.649 -0.556 -0.519 19 20 22 0 0
0.6193 3.0563 1.4343 -0.918 -0.396 -0.005 24 25 27 0 0
0.6555 3.1004 1.4262 -0.137 0.870 0.474 40 41 45 0 0
0.8153 3.1848 1.4125 -0.915 0.049 0.400 46 47 51 0 0
0.8261 3.1955 1.4106 -0.783 0.535 0.317 40 41 45 0 0
0.7647 3.2490 1.3990 -0.942 -0.218 0.256 29 30 32 0 0
0.4791 3.5569 1.3336 -0.510 -0.856 0.084 16 16 18 0 0
0.4679 3.6168 1.3217 -0.894 0.449 0.007 26 26 28 0 0
0.6713 3.0074 1.4590 -0.659 -0.575 -0.484 23 24 26 0 0
0.6179 3.0595 1.4478 -0.918 -0.396 -0.005 24 25 27 0 0
0.8116 3.1291 1.4378 -0.741 -0.662 0.117 37 38 42 0 0
0.8087 3.1452 1.4345 -0.647 -0.762 -0.037 40 41 45 0 0
0.8284 3.1674 1.4306 -0.900 -0.364 0.241 48 49 53 0 0
0.8397 3.2078 1.4228 -0.819 0.505 0.272 32 33 37 0 0
0.4291 3.5913 1.3395 -0.915 -0.274 0.295 18 18 20 0 0
0.9776 2.6781 1.5446 -0.695 -0.714 -0.085 47 48 53 0 0
0.9534 2.7046 1.5389 -0.949 -0.067 0.307 41 42 47 0 0
0.9532 2.7672 1.5265 -0.561 -0.823 0.091 30 31 35 0 0
0.8112 2.8750 1.5023 -0.624 -0.764 0.161 19 19 21 0 0
0.6998 2.9681 1.4816 -0.689 -0.627 -0.363 21 22 24 0 0
0.6164 3.0627 1.4613 -0.918 -0.396 -0.005 24 25 27 0 0
0.8239 3.1269 1.4529 -0.671 -0.720 0.179 37 38 42 0 0
0.8331 3.1682 1.4449 -0.962 -0.139 0.235 47 46 51 0 0
0.8377 3.1963 1.4395 -0.848 0.415 0.328 36 39 43 0 0
0.4396 3.5761 1.3563 -0.894 -0.326 0.309 17 17 19 0 0
0.5880 3.6359 1.3476 -0.140 0.664 0.734 41 41 43 0 0
1.0230 2.5495 1.5860 -0.572 -0.751 -0.331 115 116 118 0 0
0.9756 2.6974 1.5556 -0.993 -0.119 0.019 39 40 45 0 0
0.8199 3.1311 1.4664 -0.672 -0.740 0.012 38 39 43 0 0
0.4320 3.5813 1.3687 -0.670 -0.656 0.348 18 18 20 0 0
0.4996 3.6131 1.3639 -0.336 0.826 0.452 27 28 30 0 0
1.0422 2.5275 1.6059 -0.553 -0.768 -0.324 153 153 153 0 0
0.9438 2.7143 1.5665 -0.746 -0.602 -0.284 38 39 44 0 0
0.8450 2.8504 1.5371 -0.618 -0.786 0.019 21 22 24 0 0
0.6239 3.0500 1.4923 -0.905 0.384 0.184 25 26 28 0 0
0.4328 3.6113 1.3763 -0.861 -0.460 0.219 22 22 24 0 0
0.4561 3.6170 1.3758 -0.612 0.712 0.344 28 28 30 0 0
0.8451 3.8686 1.3351 -0.478 0.322 -0.817 37 36 41 0 0
1.0182 2.5412 1.6177 -0.563 -0.773 -0.294 129 129 129 0 0
0.8711 2.8264 1.5572 -0.652 -0.754 -0.086 20 21 23 0 0
0.8374 2.8564 1.5504 -0.652 -0.754 -0.086 19 20 22 0 0
0.6340 3.0631 1.5041 -0.789 0.580 0.203 39 38 42 0 0
0.8178 3.1222 1.4970 -0.706 -0.685 -0.180 38 39 43 0 0
0.8483 3.1401 1.4942 -0.993 -0.113 0.028 46 47 52 0 0
0.8453 3.1563 1.4909 -0.988 0.107 0.113 46 47 52 0 0
0.4280 3.6155 1.3890 -0.880 -0.475 0.017 21 22 24 0 0
0.4606 3.6179 1.3893 -0.456 0.870 0.185 24 25 27 0 0
1.0036 2.5507 1.6305 -0.634 -0.723 -0.273 110 110 110 0 0
0.8497 2.8537 1.5659 -0.460 0.418 0.784 19 20 22 0 0
0.6461 3.0754 1.5161 -0.789 0.580 0.203 43 42 47 0 0
0.6884 3.0728 1.5178 -0.423 0.598 0.681 44 44 49 0 0
0.8484 3.1427 1.5082 -0.993 -0.113 0.028 47 48 52 0 0
0.4416 3.5574 1.4145 -0.860 0.475 0.185 15 15 17 0 0
0.4197 3.5932 1.4067 -0.670 -0.694 -0.264 17 18 20 0 0
0.4076 3.6114 1.4028 -0.667 -0.725 -0.168 19 20 22 0 0
0.4267 3.6184 1.4019 -0.880 -0.475 0.017 21 22 24 0 0
0.6571 3.6506 1.4017 -0.347 -0.651 -0.675 18 19 21 0 0
0.9966 2.5566 1.6441 -0.675 -0.716 -0.179 100 100 100 0 0
0.4731 3.4782 1.4448 -0.665 0.523 -0.533 18 19 21 0 0
0.4396 3.5606 1.4274 -0.905 0.374 0.204 14 14 16 0 0
0.4253 3.5936 1.4204 -0.591 0.801 0.101 18 19 21 0 0
0.4669 3.4830 1.4574 -0.665 0.523 -0.533 17 18 20 0 0
0.4225 3.5832 1.4359 -0.997 -0.008 0.083 16 16 18 0 0
0.5301 3.6569 1.4244 -0.255 -0.203 -0.945 29 30 33 0 0
0.8570 2.8432 1.6122 -0.990 0.143 0.006 23 24 26 0 0
0.4472 3.4928 1.4685 -0.742 0.662 -0.107 18 18 20 0 0
0.4637 3.5429 1.4589 -0.848 -0.186 0.497 14 14 16 0 0
0.4126 3.6170 1.4424 -0.155 0.800 0.580 24 25 27 0 0
0.4878 3.7295 1.4222 -0.237 -0.410 -0.881 37 38 40 0 0
0.7261 2.9326 1.6044 -0.529 -0.639 -0.559 24 25 27 0 0
0.6269 3.0345 1.5806 -0.666 0.744 -0.058 41 40 45 0 0
0.6357 3.0456 1.5786 -0.862 0.506 -0.028 45 44 49 0 0
0.6588 3.0509 1.5783 -0.990 0.068 -0.120 47 46 51 0 0
0.8638 3.1472 1.5658 -0.839 0.519 0.164 39 40 44 0 0
0.4820 3.4400 1.4940 -0.596 0.801 -0.055 20 20 22 0 0
0.4515 3.5077 1.4793 -0.813 0.582 -0.007 18 18 20 0 0
0.4519 3.5497 1.4708 -0.865 -0.433 0.252 14 15 17 0 0
0.3671 3.6080 1.4562 -0.457 0.547 0.701 19 19 21 0 0
0.4565 3.6039 1.4601 -0.114 0.817 0.566 32 33 35 0 0
0.9170 2.6355 1.6856 -0.630 -0.133 -0.765 64 63 68 0 0
0.6401 3.0464 1.5928 -0.935 0.052 -0.351 47 46 51 0 0
0.6574 3.0540 1.5919 -0.990 0.068 -0.120 48 47 52 0 0
0.8821 3.0670 1.5971 -0.611 -0.789 0.061 37 38 42 0 0
0.8574 3.1523 1.5790 -0.996 -0.015 0.083 36 37 41 0 0
0.5414 3.6044 1.4765 -0.106 0.785 0.610 36 37 40 0 0
0.6042 3.5965 1.4803 -0.086 0.671 0.736 37 38 42 0 0
0.5888 3.6443 1.4702 -0.352 -0.092 0.932 29 30 32 0 0
0.9011 2.6454 1.6979 -0.644 -0.203 -0.738 64 63 69 0 0
0.6286 3.0390 1.6082 -0.373 0.401 -0.837 47 46 51 0 0
0.6529 3.0585 1.6051 -0.864 0.465 0.191 48 47 52 0 0
0.8927 3.9318 1.4368 -0.199 0.979 -0.039 39 38 43 0 0
0.9651 2.5716 1.7303 -0.572 -0.813 -0.107 104 104 104 0 0
0.8821 2.6567 1.7098 -0.759 -0.262 -0.596 64 63 67 0 0
0.9273 3.0389 1.6338 -0.564 -0.825 -0.047 38 39 43 0 0
0.8529 3.2044 1.5973 -0.608 0.589 0.533 16 17 19 0 0
0.3919 3.5788 1.5036 -0.659 -0.641 -0.395 15 16 18 0 0
0.9450 2.5835 1.7420 -0.555 -0.789 -0.264 95 95 95 0 0
0.8740 2.6631 1.7230 -0.729 -0.091 -0.678 63 63 65 0 0
0.9193 3.0448 1.6470 -0.580 -0.815 -0.003 39 40 44 0 0
0.8270 3.1422 1.6234 -0.483 0.807 0.341 40 41 44 0 0
0.3833 3.5844 1.5157 -0.677 -0.724 -0.136 15 16 18 0 0
0.9559 2.5654 1.7612 -0.520 -0.802 -0.294 97 97 97 0 0
0.9195 2.5979 1.7530 -0.574 -0.768 -0.285 89 89 89 0 0
0.8565 2.6737 1.7349 -0.801 -0.257 -0.541 68 68 70 0 0
0.8679 2.7463 1.7205 -0.533 -0.816 -0.225 48 49 53 0 0
0.8710 3.1124 1.6459 -0.913 -0.143 0.381 40 41 45 0 0
0.8645 3.1300 1.6420 -0.891 -0.393 0.228 37 38 42 0 0
0.8476 3.2117 1.6246 -0.932 0.301 0.204 16 17 19 0 0
0.8309 4.0421 1.4541 -0.808 -0.184 0.560 39 38 44 0 0
0.8958 2.6115 1.7641 -0.574 -0.768 -0.285 86 83 84 0 0
0.8362 2.6856 1.7464 -0.740 -0.380 -0.555 79 79 81 0 0
0.8456 2.7434 1.7349 -0.334 0.438 -0.835 46 47 51 0 0
0.6086 2.9388 1.6847 -0.740 -0.098 -0.665 44 44 48 0 0
0.8866 3.1088 1.6618 -0.797 -0.538 0.274 37 38 42 0 0
0.8633 3.1331 1.6558 -0.726 -0.687 0.042 33 34 38 0 0
0.8255 3.1930 1.6419 -0.987 -0.158 0.032 16 17 19 0 0
0.8356 3.2040 1.6401 -0.404 0.840 -0.363 15 16 18 0 0
0.3938 3.5717 1.5458 -0.915 0.072 -0.396 16 16 18 0 0
0.3951 3.5851 1.5431 -0.611 0.655 -0.444 16 17 19 0 0
0.8542 2.6489 1.7695 -0.643 -0.757 -0.114 78 77 78 0 0
0.8054 2.6867 1.7596 -0.750 -0.661 0.001 88 88 90 0 0
0.8194 2.6959 1.7583 -0.759 -0.544 -0.356 87 87 89 0 0
0.5837 2.9670 1.6921 -0.554 0.522 0.648 77 76 81 0 0
0.5919 2.9784 1.6901 -0.724 0.620 -0.303 68 67 72 0 0
0.8783 3.1148 1.6748 -0.747 -0.614 0.255 35 36 40 0 0
0.8579 3.1379 1.6692 -0.727 -0.667 0.163 30 31 35 0 0
0.8295 3.1642 1.6625 -0.690 -0.702 0.176 25 26 30 0 0
0.8009 3.2052 1.6528 -0.688 -0.725 -0.028 15 16 19 0 0
0.8133 3.2302 1.6482 -0.969 -0.074 -0.237 15 16 18 0 0
0.8179 3.2433 1.6457 -0.876 -0.421 0.236 16 17 19 0 0
0.4362 3.7254 1.5296 -0.534 -0.275 -0.799 43 44 48 0 0
0.8101 2.6872 1.7744 -0.751 -0.651 0.109 76 76 78 0 0
0.7904 2.7579 1.7589 0.095 0.556 -0.826 43 44 48 0 0
0.8821 3.1159 1.6894 -0.743 -0.665 0.074 31 32 36 0 0
0.8112 3.2038 1.6680 -0.757 0.470 -0.453 15 16 19 0 0
0.8103 3.2340 1.6617 -0.945 -0.049 -0.323 15 16 18 0 0
0.4610 3.7332 1.5427 -0.948 0.037 0.316 48 49 53 0 0
0.7533 2.7771 1.7678 0.102 0.542 -0.834 48 48 52 0 0
0.5811 3.0178 1.7099 -0.963 0.231 -0.139 62 61 67 0 0
0.8967 3.0825 1.7116 -0.733 -0.567 -0.376 36 36 40 0 0
0.9457 3.0781 1.7148 -0.565 -0.803 -0.188 31 32 35 0 0
0.8787 3.1199 1.7030 -0.533 -0.816 -0.223 28 28 32 0 0
0.6066 3.6018 1.5904 0.072 0.984 0.161 38 39 42 0 0
0.5530 3.6767 1.5724 -0.445 -0.472 0.762 27 28 31 0 0
0.8356 4.0230 1.5143 -0.838 -0.419 0.350 55 56 57 0 0
0.5953 2.9549 1.7378 -0.814 -0.518 -0.264 74 72 75 0 0
0.5811 3.0204 1.7235 -0.884 0.293 -0.365 69 67 73 0 0
0.8429 3.2267 1.6937 -0.671 0.314 0.672 16 17 19 0 0
0.6327 3.6379 1.5981 -0.462 -0.538 0.705 31 32 34 0 0
0.4747 3.7474 1.5676 -0.270 0.438 0.857 19 20 22 0 0
0.5916 2.9591 1.7510 -0.494 -0.774 -0.395 72 70 73 0 0
0.5702 3.0275 1.7356 -0.579 0.522 -0.626 72 70 75 0 0
0.5605 3.0464 1.7312 -0.982 -0.136 -0.131 77 75 80 0 0
0.3475 3.5731 1.6110 -0.910 -0.212 -0.356 18 18 20 0 0
0.8925 3.9978 1.5505 -0.684 -0.716 0.139 55 56 58 0 0
0.5747 3.0577 1.7438 -0.683 -0.658 0.317 77 75 79 0 0
0.8531 3.2131 1.7260 -0.748 0.120 0.653 17 18 20 0 0
0.3390 3.5786 1.6229 -0.108 0.983 0.150 18 18 20 0 0
0.8110 4.0377 1.5521 -0.976 -0.041 0.214 46 45 47 0 0
1.0450 2.5462 1.8902 -0.845 0.012 -0.535 67 64 71 0 0
0.3799 3.5801 1.6383 -0.244 0.887 0.393 22 23 25 0 0
1.0629 2.4926 1.9176 0.179 0.939 -0.293 85 84 88 0 0
1.0520 2.5297 1.9092 -0.777 -0.040 -0.628 71 68 75 0 0
0.3957 3.5490 1.6592 -0.670 0.105 0.735 17 18 20 0 0
0.3954 3.5631 1.6563 -0.611 0.266 0.746 20 21 23 0 0
0.3903 3.5788 1.6527 -0.329 0.621 0.712 23 24 26 0 0
0.8094 4.0573 1.5759 -0.904 0.412 0.110 48 49 53 0 0
1.0456 2.5034 1.9296 0.167 0.933 -0.320 83 82 87 0 0
0.6211 3.0608 1.7883 -0.471 -0.384 0.794 62 60 63 0 0
0.4556 3.8075 1.6220 -0.159 0.449 -0.879 10 11 13 0 0
0.8019 4.0620 1.5885 -0.750 0.632 -0.194 43 43 48 0 0
0.3818 3.5590 1.6835 -0.338 0.665 0.666 19 19 22 0 0
0.4600 3.7811 1.6414 -0.999 0.032 -0.020 35 36 38 0 0
0.4756 3.8035 1.6376 -0.898 0.246 -0.364 23 24 26 0 0
0.8042 4.0639 1.6022 -0.719 0.067 -0.692 37 37 42 0 0
1.0683 2.5466 1.9523 -0.918 -0.094 -0.386 56 55 61 0 0
1.0681 2.5627 1.9489 -0.918 -0.094 -0.386 50 49 55 0 0
0.4660 3.2030 1.7773 -0.513 -0.414 -0.752 67 67 69 0 0
0.4569 3.8121 1.6483 -0.948 -0.266 -0.175 42 43 45 0 0
0.7936 4.0695 1.6144 -0.738 0.090 -0.669 37 37 40 0 0
1.1483 4.1145 1.6263 0.174 0.963 -0.207 178 177 175 0 0
1.0621 2.5522 1.9660 -0.784 -0.359 -0.506 52 51 57 0 0
1.0718 2.5798 1.9608 -0.669 0.142 -0.730 46 45 51 0 0
0.4113 3.5393 1.7167 -0.660 -0.594 -0.461 19 19 21 0 0
0.4625 3.8676 1.6505 -0.907 -0.274 -0.319 41 46 47 0 0
1.0596 2.5560 1.9803 -0.667 -0.601 -0.441 50 49 55 0 0
0.6079 2.9578 1.8663 -0.797 -0.086 -0.597 60 59 62 0 0
0.4538 3.6938 1.7003 -0.754 0.461 -0.468 58 59 63 0 0
1.0973 2.6059 1.9874 -0.786 -0.205 0.583 45 44 52 0 0
0.6120 2.9586 1.8806 -0.980 0.056 0.189 45 43 48 0 0
0.4053 3.3067 1.7931 -0.027 0.166 -0.986 29 33 35 0 0
0.4489 3.4034 1.7754 -0.350 0.524 -0.776 22 23 25 0 0
0.4796 3.7430 1.7052 -0.978 -0.208 0.012 28 30 32 0 0
0.4649 3.7618 1.7002 -0.774 0.258 0.579 33 35 37 0 0
0.4696 3.7740 1.6979 -0.617 0.322 0.718 35 37 40 0 0
0.9783 2.5828 1.9996 -0.714 0.326 -0.620 52 49 57 0 0
1.0938 2.6102 2.0015 -0.908 -0.066 0.414 45 44 52 0 0
0.4657 3.2852 1.8155 -0.702 0.102 -0.705 54 57 59 0 0
0.4608 3.3729 1.7965 -0.734 -0.209 -0.646 20 21 23 0 0
0.4497 3.3914 1.7918 -0.593 0.198 -0.780 21 22 24 0 0
0.4484 3.5192 1.7645 -0.862 0.301 -0.409 19 19 21 0 0
0.4627 3.7650 1.7130 -0.993 -0.095 -0.070 15 16 18 0 0
0.4679 3.7909 1.7078 -0.883 0.364 0.296 24 26 30 0 0
0.9965 2.5771 2.0172 -0.799 0.367 -0.476 47 44 52 0 0
0.4955 3.3191 1.8242 -0.985 -0.131 0.109 33 31 36 0 0
0.4467 3.6760 1.7446 -0.807 0.197 0.556 36 35 40 0 0
0.4334 3.7221 1.7338 -0.916 -0.194 0.350 20 21 23 0 0
0.4715 3.8059 1.7185 -0.899 0.401 0.175 14 14 17 0 0
0.4916 3.8131 1.7183 -0.409 0.912 0.038 18 19 22 0 0
1.1184 2.6208 2.0315 -0.961 -0.247 0.127 46 45 53 0 0
0.6172 3.0089 1.9131 -0.709 -0.269 0.652 45 48 52 0 0
0.4291 3.3048 1.8365 -0.399 0.481 -0.781 50 50 54 0 0
0.4633 3.3056 1.8388 -0.961 -0.270 -0.059 63 62 67 0 0
0.4964 3.3213 1.8377 -0.906 -0.353 0.234 70 68 73 0 0
0.4635 3.4480 1.8083 -0.953 -0.009 0.302 24 24 26 0 0
0.4628 3.7146 1.7511 -0.771 -0.546 -0.328 36 36 39 0 0
1.1164 2.6245 2.0459 -0.950 0.200 0.241 45 45 53 0 0
0.4660 3.4779 1.8158 -0.866 0.179 0.467 20 20 22 0 0
0.4368 3.6982 1.7664 -0.963 0.247 0.106 48 47 52 0 0
0.4319 3.7137 1.7627 -0.974 -0.049 0.220 48 47 52 0 0
0.4429 3.7376 1.7583 -0.998 -0.055 0.041 46 45 50 0 0
0.4563 3.7469 1.7573 -0.866 -0.484 -0.128 39 40 43 0 0
0.4544 3.7890 1.7481 -0.533 -0.543 -0.649 15 16 18 0 0
1.1660 4.1429 1.7232 -0.948 -0.308 0.078 179 179 179 0 0
0.4687 3.4227 1.8417 -0.993 -0.032 0.116 36 35 39 0 0
0.4348 3.7152 1.7762 -0.999 0.038 0.022 49 48 53 0 0
0.4440 3.7260 1.7745 -0.991 -0.036 0.132 48 47 52 0 0
0.4507 3.7375 1.7726 -0.944 0.223 0.244 48 47 52 0 0
0.4371 3.5778 1.8196 -0.841 0.538 -0.066 27 26 32 0 0
0.4438 3.6869 1.7966 -0.897 0.425 -0.125 50 49 54 0 0
0.4436 3.7009 1.7936 -0.893 0.208 0.399 37 36 41 0 0
0.4455 3.7141 1.7909 -0.893 0.208 0.399 31 30 35 0 0
0.4521 3.7257 1.7888 -0.944 0.223 0.244 35 34 39 0 0
0.4545 3.7387 1.7862 -0.944 0.223 0.244 41 40 45 0 0
1.1135 2.6501 2.0860 -0.843 0.532 -0.073 50 51 57 0 0
0.4425 3.1946 1.9167 -0.780 -0.402 0.479 49 49 51 0 0
0.4344 3.5813 1.8324 -0.950 0.244 -0.194 27 26 30 0 0
0.4505 3.7148 1.8047 -0.851 0.154 0.503 48 47 52 0 0
0.4702 3.7636 1.7957 -0.540 0.588 0.602 33 32 37 0 0
0.9176 2.5504 2.1077 -0.507 -0.831 0.228 122 122 122 0 0
0.4696 3.4299 1.8817 -0.992 -0.037 -0.124 83 83 83 0 0
0.4684 3.4445 1.8784 -0.965 0.015 -0.261 92 92 92 0 0
0.4708 3.5567 1.8543 -0.896 0.148 -0.418 34 33 36 0 0
1.1754 4.1368 1.7835 -0.878 -0.416 0.239 189 189 187 0 0
0.4722 3.4314 1.8954 -0.954 -0.164 -0.250 46 46 49 0 0
0.4573 3.7175 1.8320 -0.970 0.071 0.232 12 12 14 0 0
0.4978 3.7733 1.8231 -0.586 0.795 -0.157 40 40 44 0 0
0.5138 3.7957 1.8195 -0.627 0.693 0.356 31 32 34 0 0
0.4599 3.8271 1.8083 -0.630 0.154 0.761 28 29 31 0 0
0.4608 3.8406 1.8055 -0.586 0.530 0.613 25 26 28 0 0
0.4749 3.8772 1.7986 -0.726 0.608 0.322 43 44 46 0 0
0.4832 3.8883 1.7969 -0.739 0.557 0.379 47 48 50 0 0
0.4896 3.9000 1.7949 -0.941 -0.092 0.327 48 49 49 0 0
1.1746 4.1396 1.7974 -0.923 -0.348 0.161 193 193 191 0 0
1.1451 2.6765 2.1288 -0.193 0.876 -0.443 64 65 69 0 0
0.4876 3.3281 1.9331 -0.572 -0.193 -0.797 30 29 32 0 0
0.4848 3.3435 1.9295 -0.602 -0.314 -0.734 23 22 25 0 0
0.4703 3.3634 1.9240 -0.597 -0.415 -0.687 22 21 27 0 0
0.4480 3.6816 1.8527 -0.999 0.013 -0.052 27 26 33 0 0
0.4418 3.6975 1.8487 -0.677 0.734 0.044 23 22 28 0 0
0.4596 3.7054 1.8485 -0.994 0.071 -0.079 18 17 22 0 0
0.4609 3.7188 1.8457 -0.971 0.190 0.142 15 15 17 0 0
0.4632 3.7319 1.8430 -0.951 0.152 0.270 13 13 15 0 0
0.4592 3.7471 1.8393 -0.906 0.357 -0.226 14 14 15 0 0
0.4710 3.7569 1.8382 -0.672 0.500 -0.546 14 15 17 0 0
0.4749 3.3355 1.9443 -0.721 -0.107 -0.685 44 44 46 0 0
0.4646 3.3538 1.9395 -0.835 -0.305 -0.459 37 36 41 0 0
0.4607 3.6936 1.8648 -0.883 -0.184 -0.431 38 38 40 0 0
0.4695 3.7461 1.8541 -0.988 -0.060 -0.144 13 13 13 0 0
0.5056 3.8172 1.8415 -0.128 0.679 -0.723 20 21 23 0 0
0.4800 3.8531 1.8315 -0.650 0.718 0.249 31 32 34 0 0
0.9051 2.5671 2.1632 -0.484 -0.870 -0.099 98 99 102 0 0
0.4613 3.3147 1.9617 -0.696 0.147 -0.703 59 59 60 0 0
0.4597 3.3297 1.9582 -0.694 -0.020 -0.720 59 59 61 0 0
0.4631 3.3426 1.9557 -0.721 -0.107 -0.685 54 54 56 0 0
0.4566 3.3594 1.9514 -0.870 -0.312 -0.382 51 51 53 0 0
0.4615 3.3718 1.9491 -0.896 -0.425 -0.129 44 43 47 0 0
0.4546 3.6564 1.8862 -0.799 0.067 -0.597 30 29 34 0 0
0.4585 3.7937 1.8564 -0.913 -0.210 -0.350 10 12 14 0 0
0.4555 3.8085 1.8529 -0.802 0.097 -0.590 11 13 15 0 0
0.4536 3.3346 1.9705 -0.768 0.163 -0.619 55 55 57 0 0
0.4581 3.3471 1.9682 -0.768 0.163 -0.619 57 57 59 0 0
0.4557 3.3623 1.9646 -0.923 -0.131 -0.361 57 57 57 0 0
0.4501 3.6605 1.8986 -0.945 0.253 -0.207 54 54 56 0 0
0.4491 3.6887 1.8923 -0.963 -0.007 -0.271 29 29 31 0 0
0.4580 3.8101 1.8664 -0.714 -0.194 -0.673 20 20 24 0 0
0.4676 3.8208 1.8649 -0.376 0.644 -0.666 15 16 18 0 0
0.8184 4.0756 1.8391 -0.331 0.339 0.881 50 51 55 0 0
0.8763 2.5858 2.1866 -0.496 -0.853 -0.165 97 98 101 0 0
0.4436 3.5814 1.9291 -0.926 -0.088 -0.367 27 25 29 0 0
0.4640 3.5882 1.9294 -0.893 -0.023 0.450 33 31 34 0 0
0.4560 3.8133 1.8791 -0.874 0.070 -0.482 42 43 45 0 0
0.4731 3.8490 1.8728 -0.730 -0.123 -0.672 19 20 22 0 0
0.5916 3.8944 1.8732 -0.831 -0.481 0.279 12 13 15 0 0
0.3580 3.4753 1.9587 -0.650 -0.116 -0.751 51 50 55 0 0
0.4496 3.5958 1.9402 -0.925 0.190 -0.330 21 20 22 0 0
0.4592 3.6483 1.9295 -0.878 -0.067 0.475 61 61 61 0 0
0.4566 3.6632 1.9260 -0.849 0.041 0.526 70 70 70 0 0
0.4361 3.7258 1.9103 -0.950 0.305 0.070 44 43 48 0 0
0.4386 3.7388 1.9077 -0.944 0.154 -0.293 34 32 37 0 0
0.4371 3.7531 1.9044 -0.916 0.017 -0.402 24 23 28 0 0
0.4394 3.7661 1.9017 -0.912 -0.247 -0.327 26 25 30 0 0
0.3463 3.4682 1.9728 -0.750 -0.085 -0.656 52 53 57 0 0
0.4400 3.7822 1.9118 -0.754 0.525 0.395 20 20 24 0 0
0.4383 3.8652 1.8933 -0.865 -0.480 0.150 46 47 50 0 0
0.8858 2.5737 2.2351 -0.519 -0.843 -0.138 87 87 89 0 0
0.4161 3.5848 1.9671 -0.688 0.258 -0.678 23 24 28 0 0
0.4552 3.6408 1.9583 -0.974 -0.100 -0.204 16 17 21 0 0
0.4459 3.8515 1.9106 -0.930 0.039 -0.365 37 38 42 0 0
0.4472 3.8648 1.9078 -0.882 -0.214 -0.420 47 48 52 0 0
0.4436 3.8796 1.9041 -0.828 -0.072 -0.557 47 48 52 0 0
0.4548 2.9250 2.1313 -0.628 -0.532 0.567 38 39 44 0 0
0.4549 3.3895 2.0279 -0.985 0.173 0.020 45 46 50 0 0
0.3923 3.5819 1.9792 -0.720 0.600 0.349 44 45 49 0 0
0.4047 3.5914 1.9782 -0.712 0.684 -0.159 35 36 40 0 0
0.4632 3.5985 1.9822 -0.722 -0.130 -0.679 25 26 30 0 0
0.4622 3.6128 1.9789 -0.934 -0.357 -0.023 23 24 28 0 0
0.4635 3.6264 1.9760 -0.920 -0.390 -0.038 20 21 25 0 0
0.4456 3.6884 1.9605 -0.993 -0.116 -0.014 14 15 17 0 0
0.4463 3.7021 1.9575 -0.999 -0.040 -0.008 14 15 17 0 0
0.4336 3.8580 1.9216 -0.727 0.073 -0.683 27 28 30 0 0
0.4586 3.4332 2.0324 -0.870 -0.410 0.273 42 43 47 0 0
0.4512 3.4644 2.0247 -0.948 0.223 0.226 35 36 40 0 0
0.4058 3.5935 1.9915 -0.783 0.622 0.023 46 47 51 0 0
0.4292 3.5991 1.9925 -0.768 0.440 -0.466 41 42 46 0 0
0.4571 3.7286 1.9663 -0.670 0.691 0.271 13 14 16 0 0
0.4313 3.8749 1.9312 -0.957 -0.258 -0.131 32 33 35 0 0
0.4247 3.8906 1.9270 -0.594 0.712 0.374 29 30 32 0 0
0.4431 3.8984 1.9271 -0.820 0.013 0.572 24 25 27 0 0
0.4394 3.9132 1.9234 -0.855 -0.005 0.519 26 27 29 0 0
0.5456 2.8599 2.1830 -0.579 -0.523 0.626 77 81 84 0 0
0.4622 3.6737 1.9928 -0.647 -0.525 -0.554 19 20 22 0 0
0.4471 3.8723 1.9469 -0.724 -0.410 0.556 34 35 37 0 0
0.8137 4.0950 1.9328 -0.964 -0.178 0.198 65 67 66 0 0
0.8327 4.1037 1.9327 -0.707 -0.706 -0.030 62 64 63 0 0
0.4478 3.6114 2.0191 -0.916 -0.026 -0.401 45 46 51 0 0
0.9402 2.6097 2.3076 -0.384 0.251 0.888 58 59 63 0 0
0.4403 3.5183 2.0530 -0.755 -0.359 -0.549 42 44 47 0 0
0.4280 3.5650 2.0413 -0.937 -0.346 -0.036 35 36 39 0 0
0.4253 3.5940 2.0345 -0.960 0.280 0.024 39 40 45 0 0
0.9641 2.6174 2.3234 -0.573 -0.005 0.820 54 54 58 0 0
0.5015 2.9171 2.2086 -0.867 -0.477 -0.143 75 76 76 0 0
0.4351 3.4096 2.0908 -0.907 -0.184 0.379 40 42 40 0 0
0.4195 3.5985 2.0466 -0.956 0.228 -0.185 30 31 34 0 0
0.4403 3.6331 2.0409 -0.812 0.582 -0.051 43 44 47 0 0
0.4484 3.6442 2.0392 -0.812 0.582 -0.051 43 45 48 0 0
0.4364 3.7317 2.0183 -0.933 -0.243 0.267 45 47 49 0 0
0.4325 3.7469 2.0145 -0.963 0.094 0.252 44 45 48 0 0
0.9841 2.5792 2.3493 -0.804 0.199 0.560 58 57 62 0 0
0.4202 3.5868 2.0630 -0.982 -0.035 -0.188 36 37 40 0 0
0.4178 3.6016 2.0594 -0.962 0.216 -0.169 34 35 37 0 0
0.4213 3.6143 2.0569 -0.971 0.237 -0.033 28 29 31 0 0
0.4412 3.6631 2.0480 -0.853 0.517 0.072 38 42 45 0 0
0.4460 3.6754 2.0457 -0.992 0.048 -0.116 42 43 47 0 0
0.4496 3.7020 2.0401 -0.830 0.306 -0.467 43 46 49 0 0
0.4383 3.7613 2.0255 -0.960 -0.218 0.173 47 48 53 0 0
0.4458 3.8277 2.0113 -0.850 0.194 0.489 40 41 45 0 0
0.4617 3.8638 2.0048 -0.959 -0.284 -0.020 25 26 30 0 0
0.4659 3.8762 2.0024 -0.500 0.849 0.174 23 24 28 0 0
0.5138 3.8747 2.0077 -0.536 -0.723 -0.436 23 24 27 0 0
0.5130 3.8888 2.0044 -0.615 -0.775 -0.146 16 17 19 0 0
1.1447 2.4269 2.4160 -0.208 0.974 -0.088 84 84 86 0 0
0.4292 3.5721 2.0810 -0.896 0.391 0.211 55 59 59 0 0
0.4211 3.6029 2.0732 -0.974 0.222 -0.034 44 47 48 0 0
0.4138 3.7029 2.0498 -0.550 0.443 -0.708 40 41 43 0 0
0.4214 3.7280 2.0449 -0.707 0.304 -0.639 41 43 47 0 0
0.4423 3.7624 2.0393 -0.791 -0.074 -0.607 50 51 55 0 0
0.4600 3.8256 2.0269 -0.994 0.030 0.102 45 46 50 0 0
0.4265 3.6035 2.0874 -0.913 0.375 0.160 52 54 57 0 0
0.4293 3.6165 2.0847 -0.962 0.002 0.272 47 48 51 0 0
0.4305 3.6301 2.0818 -0.998 0.044 0.054 44 45 47 0 0
0.4339 3.6567 2.0761 -0.996 0.088 0.004 33 34 34 0 0
0.4013 3.7097 2.0606 -0.699 0.454 -0.553 21 22 24 0 0
0.4459 3.7913 2.0468 -0.901 0.221 -0.373 44 45 49 0 0
0.4313 3.5903 2.1046 -0.656 0.483 0.579 43 44 48 0 0
0.4328 3.6177 2.0986 -0.962 0.179 0.205 52 53 57 0 0
0.4384 3.6297 2.0964 -0.968 0.249 0.008 50 51 55 0 0
0.4407 3.6429 2.0937 -0.925 0.284 0.253 48 49 52 0 0
0.4417 3.6844 2.0844 -0.911 -0.171 0.375 35 36 38 0 0
0.4378 3.6996 2.0805 -0.899 -0.054 0.435 29 30 32 0 0
0.4335 3.7841 2.0608 -0.768 0.026 -0.640 38 39 43 0 0
0.4414 3.7953 2.0591 -0.856 -0.329 -0.400 38 39 43 0 0
0.4466 3.5873 2.1208 -0.480 0.487 0.730 30 29 34 0 0
0.4430 3.6026 2.1169 -0.585 0.434 0.685 34 33 39 0 0
0.4436 3.6304 2.1106 -0.829 0.478 0.290 46 47 50 0 0
0.4513 3.6417 2.1089 -0.610 0.701 0.369 46 47 52 0 0
0.4545 3.6545 2.1063 -0.746 0.541 0.387 45 46 50 0 0
0.4250 3.7618 2.0786 -0.602 0.090 0.793 24 25 28 0 0
0.3961 3.7853 2.0700 -0.814 -0.271 0.513 20 21 24 0 0
0.4248 3.7895 2.0722 -0.917 0.047 -0.397 24 25 28 0 0
0.4335 3.8004 2.0707 -0.569 -0.204 -0.796 28 29 33 0 0
0.8631 4.1161 2.0461 -0.926 0.320 0.199 62 63 67 0 0
0.8673 4.1290 2.0437 -0.906 0.416 0.079 62 62 66 0 0
0.6874 2.8658 2.3266 -0.600 -0.664 0.446 57 58 62 0 0
0.4679 3.6524 2.1221 -0.432 0.756 0.492 41 43 46 0 0
0.4228 3.7651 2.0912 -0.630 -0.285 0.723 35 36 40 0 0
0.4299 3.8041 2.0831 -0.814 -0.408 0.413 25 26 28 0 0
0.5664 3.9399 2.0674 -0.688 -0.345 0.638 48 52 55 0 0
0.8667 4.1177 2.0603 -0.926 0.320 0.199 65 66 70 0 0
0.8706 4.1306 2.0578 -0.926 0.320 0.199 65 66 69 0 0
0.8695 4.1195 2.0744 -0.923 0.334 0.189 70 71 75 0 0
0.4155 3.6781 2.1514 -0.045 0.739 -0.672 14 14 17 0 0
0.4147 3.6808 2.1644 -0.053 0.503 -0.863 13 13 18 0 0
1.0587 2.5888 2.5082 0.016 0.940 0.340 44 45 49 0 0
0.7446 3.7418 2.2036 -0.377 -0.375 0.847 34 35 39 0 0
1.0661 2.5882 2.5246 -0.458 0.756 -0.467 43 44 48 0 0
1.0775 2.6152 2.5198 0.086 0.977 0.192 43 44 48 0 0
0.4488 3.1031 2.3300 -0.078 0.983 0.164 58 59 61 0 0
0.4601 3.1130 2.3291 -0.385 0.910 0.156 53 54 56 0 0
0.4736 3.5388 2.2319 -0.483 -0.718 -0.502 30 31 36 0 0
0.4329 3.5817 2.2170 -0.551 -0.830 -0.090 31 33 36 0 0
0.3873 3.6120 2.2044 -0.582 -0.810 -0.080 31 34 37 0 0
0.3585 3.6500 2.1921 -0.657 0.742 -0.135 30 30 34 0 0
0.3769 3.6712 2.1894 -0.985 0.096 0.144 27 28 32 0 0
1.0295 2.5915 2.5347 -0.676 0.168 -0.718 43 43 48 0 0
1.0623 2.5926 2.5385 -0.361 0.685 -0.633 42 43 47 0 0
1.0624 2.6087 2.5348 -0.214 0.976 0.032 42 43 47 0 0
1.1109 2.6191 2.5384 -0.028 0.973 0.231 44 45 50 0 0
0.4926 3.1019 2.3498 -0.152 0.775 0.613 59 60 64 0 0
0.5065 3.1108 2.3494 -0.291 0.704 0.648 52 53 57 0 0
0.3406 3.2658 2.2929 -0.965 -0.263 -0.003 50 51 56 0 0
0.3460 3.6431 2.2058 -0.866 0.488 -0.107 32 33 35 0 0
0.3568 3.6531 2.2048 -0.774 0.587 -0.236 23 24 26 0 0
0.4363 3.7641 2.1888 -0.255 0.897 -0.361 13 14 16 0 0
1.0187 2.5188 2.5656 -0.866 -0.338 -0.368 63 62 68 0 0
0.9982 2.5764 2.5496 -0.682 -0.575 -0.452 46 45 51 0 0
0.9982 2.5924 2.5459 -0.539 0.132 -0.832 44 43 49 0 0
1.0091 2.6034 2.5447 -0.535 0.413 -0.737 42 41 46 0 0
1.0175 2.6476 2.5355 0.042 0.989 0.139 43 44 48 0 0
0.5406 3.0991 2.3706 -0.293 0.546 0.785 60 61 65 0 0
0.3388 3.2833 2.3024 -0.639 -0.362 0.679 51 53 57 0 0
0.3004 3.3694 2.2775 -0.762 -0.529 0.373 49 50 54 0 0
0.3090 3.3801 2.2761 -0.890 -0.317 0.328 49 50 54 0 0
0.3039 3.3962 2.2717 -0.724 -0.660 -0.202 49 50 54 0 0
1.0232 2.5034 2.5852 -0.854 -0.441 -0.275 70 70 74 0 0
1.0147 2.5234 2.5794 -0.854 -0.441 -0.275 64 63 69 0 0
1.0099 2.5417 2.5745 -0.834 -0.422 -0.355 55 52 61 0 0
0.9828 2.5862 2.5607 -0.707 -0.331 -0.625 46 45 51 0 0
0.9806 2.6032 2.5564 -0.463 0.274 -0.843 44 43 49 0 0
0.5825 3.1139 2.3867 -0.385 0.231 0.893 51 52 56 0 0
0.4102 3.7778 2.2097 -0.713 0.660 0.235 12 13 15 0 0
0.4160 3.7897 2.2077 -0.733 0.653 0.192 12 13 15 0 0
0.4200 3.8021 2.2053 -0.855 0.255 -0.451 17 18 20 0 0
0.6320 3.9704 2.1928 -0.373 -0.396 -0.839 29 29 32 0 0
1.0159 2.5095 2.5981 -0.854 -0.441 -0.275 76 76 79 0 0
0.9874 2.5388 2.5876 -0.852 -0.494 -0.175 64 64 69 0 0
0.9765 2.5599 2.5813 -0.852 -0.494 -0.175 53 52 61 0 0
0.9560 2.6171 2.5653 -0.618 -0.180 -0.765 44 43 49 0 0
0.9783 2.6229 2.5667 -0.276 0.378 -0.884 42 41 47 0 0
0.4117 3.7798 2.2231 -0.754 0.626 0.198 12 13 15 0 0
0.4206 3.7906 2.2217 -0.733 0.653 0.192 12 13 15 0 0
0.4149 3.8063 2.2173 -0.855 0.255 -0.451 13 14 16 0 0
0.4287 3.8155 2.2169 -0.993 0.053 0.106 15 16 18 0 0
0.8992 4.1207 2.2057 -0.959 -0.282 0.038 44 44 51 0 0
1.0045 2.5176 2.6101 -0.826 -0.449 -0.342 86 86 88 0 0
0.9815 2.5443 2.6009 -0.852 -0.494 -0.175 73 73 78 0 0
0.9706 2.5653 2.5945 -0.852 -0.494 -0.175 58 59 66 0 0
0.9584 2.5869 2.5879 -0.707 -0.331 -0.625 49 48 55 0 0
0.9409 2.6267 2.5762 -0.741 -0.356 -0.569 43 44 49 0 0
1.0358 2.6476 2.5836 0.169 0.957 -0.236 40 41 45 0 0
0.4234 3.8060 2.2321 -0.983 0.151 0.102 16 17 19 0 0
0.4257 3.8190 2.2294 -0.949 0.277 0.150 19 20 22 0 0
0.6273 3.8654 2.2447 -0.521 -0.782 0.342 14 15 17 0 0
0.9088 2.6282 2.5868 -0.751 -0.417 -0.513 51 50 56 0 0
0.4128 3.7844 2.2495 -0.996 0.070 0.052 28 29 31 0 0
0.4238 3.8083 2.2453 -0.962 0.222 0.160 20 21 23 0 0
0.9337 2.6354 2.6036 -0.834 -0.500 0.232 51 50 56 0 0
0.4075 3.6640 2.2908 -0.813 -0.472 0.341 39 40 44 0 0
0.5830 3.8704 2.2655 -0.782 -0.595 0.184 26 27 30 0 0
0.5686 3.9027 2.2560 -0.326 0.033 0.945 29 29 32 0 0
0.9902 2.5485 2.6469 -0.775 -0.359 0.520 90 92 90 0 0
0.3929 3.6994 2.2943 -0.959 -0.089 0.269 30 31 33 0 0
0.3952 3.7124 2.2915 -1.000 -0.017 0.026 36 37 40 0 0
0.4066 3.7362 2.2874 -0.965 -0.212 0.154 38 40 44 0 0
0.3919 3.7550 2.2810 -0.823 0.387 -0.417 35 39 42 0 0
0.4049 3.7920 2.2740 -0.793 0.597 0.122 42 43 45 0 0
0.4101 3.8315 2.2653 -0.976 -0.156 0.153 45 46 50 0 0
0.5847 3.8724 2.2792 -0.782 -0.595 0.184 38 39 44 0 0
0.7439 4.0340 2.2624 -0.147 0.639 -0.755 51 52 55 0 0
0.7780 4.0522 2.2627 -0.187 0.623 -0.759 52 53 59 0 0
0.4018 3.7126 2.3060 -0.967 0.146 0.208 17 18 20 0 0
0.4019 3.7817 2.2897 -0.868 0.466 0.173 38 39 41 0 0
0.6009 3.8698 2.2959 -0.558 0.248 0.792 45 46 50 0 0
0.4290 3.7058 2.3251 -0.537 0.305 0.787 19 20 22 0 0
0.4011 3.7844 2.3026 -0.760 0.479 0.439 19 20 22 0 0
0.4111 3.7949 2.3015 -0.573 0.444 0.689 24 25 27 0 0
0.5972 3.8875 2.3051 -0.746 -0.531 0.401 46 47 51 0 0
0.5919 3.9030 2.3007 -0.797 -0.048 0.602 50 51 55 0 0
0.4545 3.6996 2.3439 -0.535 0.224 0.815 28 29 31 0 0
0.4534 3.7139 2.3403 -0.588 0.018 0.809 27 28 30 0 0
0.4475 3.7298 2.3357 -0.588 0.018 0.809 25 26 28 0 0
0.4327 3.7625 2.3259 -0.684 -0.104 0.722 20 22 23 0 0
0.4230 3.7796 2.3204 -0.684 0.392 0.615 19 20 22 0 0
0.4305 3.7909 2.3188 -0.625 0.417 0.660 19 20 22 0 0
0.5572 3.9302 2.3033 -0.059 0.056 -0.997 35 36 40 0 0
0.9126 4.0645 2.3209 -0.305 0.939 -0.160 54 55 58 0 0
0.4225 3.7130 2.3500 -0.569 0.822 -0.022 23 24 26 0 0
0.4749 3.7230 2.3550 -0.550 -0.011 0.835 34 35 37 0 0
0.4706 3.7384 2.3507 -0.569 0.018 0.822 33 34 36 0 0
0.4131 3.7716 2.3347 -0.634 -0.319 0.704 30 31 33 0 0
0.4309 3.7933 2.3320 -0.397 0.839 -0.372 24 25 27 0 0
0.4487 3.8289 2.3260 -0.635 0.104 0.766 21 22 24 0 0
0.3862 3.9174 2.2960 -0.817 0.057 0.574 27 28 32 0 0
0.9164 4.0661 2.3354 -0.384 0.913 0.139 50 51 55 0 0
0.9152 2.6126 2.6974 -0.680 -0.699 -0.222 73 72 76 0 0
0.4603 3.7165 2.3683 -0.958 -0.124 -0.258 19 20 22 0 0
0.4447 3.7358 2.3614 -0.716 -0.562 0.414 30 31 33 0 0
0.4767 3.7389 2.3653 -0.689 -0.565 0.454 30 31 33 0 0
0.4213 3.7852 2.3463 -0.992 0.013 0.126 29 30 32 0 0
0.4110 3.8024 2.3407 -0.249 0.946 -0.206 30 31 33 0 0
0.8022 4.0301 2.3421 -0.098 0.978 0.183 39 40 44 0 0
0.8206 4.0390 2.3426 -0.161 0.950 0.268 41 42 46 0 0
1.0303 2.4981 2.7566 -0.781 -0.546 -0.304 202 202 202 0 0
1.0096 2.5400 2.7436 -0.827 -0.495 -0.265 92 92 93 0 0
0.8851 2.6449 2.7005 -0.729 -0.660 -0.183 62 59 67 0 0
0.4497 3.7226 2.3791 -0.712 -0.323 -0.623 14 15 17 0 0
0.4827 3.7394 2.3798 -0.592 -0.806 -0.005 20 21 23 0 0
0.4216 3.7737 2.3628 -0.811 -0.580 0.079 25 26 28 0 0
0.4246 3.7866 2.3601 -0.992 0.107 0.063 26 27 29 0 0
0.5080 3.8146 2.3655 -0.364 0.478 0.800 31 32 34 0 0
0.4967 3.8321 2.3596 -0.339 0.429 0.838 31 32 34 0 0
0.8340 4.0095 2.3658 -0.173 0.980 -0.103 40 41 45 0 0
0.8563 4.0172 2.3672 -0.185 0.962 -0.199 44 45 49 0 0
1.0346 2.4827 2.7764 -0.800 -0.568 -0.194 208 208 208 0 0
1.0202 2.5056 2.7688 -0.800 -0.568 -0.194 196 196 196 0 0
1.0120 2.5417 2.7589 -0.968 -0.235 -0.091 91 89 90 0 0
0.9217 2.5992 2.7319 -0.744 -0.667 -0.035 79 77 79 0 0
0.3938 3.6748 2.3962 -0.120 0.150 -0.981 16 17 19 0 0
0.4272 3.7882 2.3738 -0.979 0.006 0.205 16 17 21 0 0
0.4628 3.8318 2.3686 -0.266 0.862 -0.431 22 23 25 0 0
1.0209 2.4919 2.7876 -0.847 -0.517 -0.121 207 207 207 0 0
1.0114 2.5125 2.7812 -0.956 -0.238 -0.171 192 192 192 0 0
0.9165 2.6043 2.7451 -0.744 -0.667 -0.035 78 78 79 0 0
0.4351 3.7742 2.3921 -0.544 -0.589 -0.598 20 21 24 0 0
0.4321 3.7890 2.3881 -0.605 -0.297 -0.739 22 23 26 0 0
1.0226 2.4939 2.8028 -0.810 -0.586 0.005 207 207 207 0 0
1.0078 2.5169 2.7950 -0.956 -0.238 -0.171 189 189 189 0 0
0.4389 3.7754 2.4061 -0.499 -0.145 -0.854 37 38 40 0 0
0.4416 3.7884 2.4034 -0.552 -0.121 -0.825 39 40 42 0 0
0.5289 3.8014 2.4133 0.018 0.968 0.250 32 33 35 0 0
1.0010 2.5228 2.8080 -0.821 -0.568 0.061 191 191 191 0 0
1.0026 2.5382 2.8045 -0.949 -0.078 -0.304 122 123 122 0 0
0.9939 2.5743 2.7944 -0.927 -0.297 -0.229 77 78 78 0 0
0.9122 2.6434 2.7653 -0.895 -0.412 -0.174 63 63 67 0 0
0.9050 2.6625 2.7596 -0.835 -0.500 -0.228 57 57 62 0 0
0.4419 3.7769 2.4200 -0.360 0.758 0.544 40 41 44 0 0
1.0027 2.5248 2.8231 -0.893 -0.441 0.087 195 195 195 0 0
0.9702 2.5879 2.8028 -0.886 -0.456 -0.084 77 77 77 0 0
0.9610 2.6399 2.7888 -0.813 -0.511 -0.280 53 53 60 0 0
0.3352 3.6775 2.4416 -0.955 0.068 -0.287 46 47 54 0 0
0.4393 3.7525 2.4393 -0.570 0.799 0.190 43 46 50 0 0
0.4360 3.7675 2.4351 -0.300 0.952 0.058 44 46 50 0 0
0.8944 2.6569 2.7896 -0.963 -0.111 -0.245 60 60 63 0 0
0.3463 3.6345 2.4674 -0.965 -0.065 -0.256 49 48 55 0 0
0.4006 3.7819 2.4399 -0.768 0.641 0.017 45 49 51 0 0
0.4407 3.7962 2.4426 -0.915 -0.012 0.403 48 48 52 0 0
0.4411 3.8375 2.4327 -0.507 0.061 -0.860 46 46 50 0 0
0.7267 3.8870 2.4646 -0.461 0.755 0.467 47 51 54 0 0
0.7410 3.8968 2.4645 -0.606 0.637 0.477 47 51 54 0 0
0.7642 3.9039 2.4663 -0.703 0.612 0.363 45 49 52 0 0
0.8714 4.0001 2.4594 -0.047 0.808 -0.588 11 12 13 0 0
0.8962 4.0073 2.4615 -0.088 0.601 -0.794 13 14 16 0 0
0.8554 2.6458 2.8014 -0.720 -0.603 0.344 91 91 94 0 0
0.8882 2.6624 2.8025 -0.947 0.046 -0.318 61 59 63 0 0
0.9734 2.7034 2.8058 -0.583 0.478 -0.657 43 42 47 0 0
0.3569 3.6054 2.4898 -0.646 0.516 0.562 24 23 28 0 0
0.3645 3.6166 2.4883 -0.646 0.516 0.562 33 32 36 0 0
0.8885 3.9978 2.4770 -0.159 0.734 0.661 14 15 19 0 0
0.9219 4.0026 2.4811 -0.161 0.717 0.678 17 18 23 0 0
0.8867 2.6658 2.8165 -0.954 -0.181 -0.239 70 70 74 0 0
0.3684 3.6037 2.5058 -0.675 0.563 0.478 9 10 11 0 0
0.3750 3.6153 2.5040 -0.842 0.527 -0.110 12 13 16 0 0
0.8208 3.9205 2.4996 -0.280 0.916 0.287 8 7 12 0 0
0.9303 3.9885 2.5003 -0.117 0.820 0.561 26 27 31 0 0
0.9790 3.9889 2.5078 -0.137 0.768 0.625 31 32 36 0 0
0.8714 2.6439 2.8346 -0.682 -0.606 0.410 101 101 102 0 0
0.9424 2.6909 2.8344 -0.990 0.075 0.115 49 48 53 0 0
0.9501 2.7033 2.8326 -0.527 0.206 -0.824 45 44 49 0 0
0.6141 3.7889 2.5133 -0.251 0.219 0.943 8 8 10 0 0
0.6326 3.8111 2.5108 -0.166 0.430 0.887 9 9 11 0 0
0.6905 3.8068 2.5211 -0.114 0.532 0.839 9 9 11 0 0
0.8258 3.9216 2.5145 -0.271 0.939 0.213 38 38 38 0 0
