ply
format ascii 1.0
element vertex 733
property float x
property float y
property float z
property uchar diffuse_red
property uchar diffuse_green
property uchar diffuse_blue
end_header
0.7181726777559354 3.8096776338467357 0.31775005897499853 31 31 33
0.8076632800685752 3.784763993518766 0.3107050821768327 45 46 48
0.8554229259346247 3.7616668274055485 0.3087991212859054 58 58 59
0.8784374615725201 3.7594560327388016 0.3061936414339984 58 58 59
0.9386196025270699 3.726374081976505 0.3045441754327979 45 44 46
0.9885737114856645 3.702060818076648 0.30257992398168826 39 38 41
0.5730134139494125 3.7361246397963166 0.3640616213921116 9 8 13
0.582851866393185 3.744436648334074 0.36120058331075977 9 8 13
0.5948026415710999 3.7509072027785506 0.35841499980906666 10 9 14
0.5779348107764004 3.8496417877107705 0.3418289094418049 25 25 27
0.5893573666535201 3.8564798083651146 0.33904215060543685 34 34 34
0.6391036190270201 3.830504980469133 0.3375108957929177 49 49 50
0.6621303374193037 3.8275763825754403 0.33507216916381144 40 40 42
0.6870226232549586 3.8231416870813644 0.3326772109003362 34 34 36
0.7165589882671337 3.814858570818244 0.33041007596992245 31 31 33
0.7220637291816261 3.8270154705257173 0.32738150699325597 30 31 33
0.8418960463958833 3.7768662396547965 0.3213303165400284 43 44 46
0.9244604709175486 3.742064346200175 0.3172084287811325 65 63 66
0.9820784728798073 3.7113803914273276 0.31554879375363837 59 57 60
0.545679983094032 3.27205421422128 0.4696859567822138 30 30 32
0.5543169962452041 3.7394527991184665 0.37916786819305887 9 8 13
0.5638697187851744 3.7479816505631964 0.37630585455126786 8 7 12
0.5773163666374572 3.753097960257559 0.37359498443415773 9 8 13
0.5923168728816819 3.7568835441853867 0.37093849059791834 10 10 12
0.576918354668432 3.8542739896977327 0.35429298937354714 50 50 52
0.5850265628323377 3.863956279033846 0.3513964258587784 39 39 39
0.6030785926032614 3.865126114313399 0.348847181247536 43 43 44
0.6403186883904353 3.8499776859036907 0.3469475253032806 43 43 45
0.6800945817911497 3.8328327084181506 0.3451031123198921 41 41 43
0.7047791343807828 3.828655770868906 0.342722208991471 38 38 40
0.7052884336659369 3.8449987944221338 0.3395304560667992 31 32 34
0.8281262273434584 3.792251641040723 0.3337960476113878 36 37 39
0.901624582485339 3.764951223611307 0.329550048270985 56 54 57
0.5657674893767302 3.7501033893452638 0.3889714948658617 12 11 16
0.5770041151286949 3.7571668219021035 0.38617969277600983 21 20 25
0.5884274334592066 3.764084231103535 0.38339216796384135 31 30 33
0.5521309736761433 3.8293890690264742 0.37545980649386035 50 50 52
0.5634488154953636 3.8362872437655406 0.37268943402588073 61 61 63
0.5779488860793276 3.8571418753696554 0.3668286221184797 70 70 71
0.5874450894711312 3.865634421436042 0.3639838990022103 37 37 37
0.6024026032492067 3.869462881722707 0.3613397920826298 34 34 36
0.6503814393977816 3.8451726208463484 0.3598928710467867 45 45 47
0.6863949809754479 3.8312712673439346 0.3579736642351957 44 44 46
0.9423895588824871 3.752104957130916 0.3405519306393967 49 47 50
0.5578548854845713 3.7608596034930253 0.4012118028559838 54 54 55
0.5652871909142732 3.7712380643091628 0.39826595060887227 69 69 70
0.5756193927940896 3.7790770426083284 0.39544515721587953 81 81 83
0.5529786403423638 3.8156644796913906 0.3912268541173308 87 87 89
0.5627577545987015 3.823916014280898 0.3883960947811611 89 89 91
0.5765348075171604 3.8621136187696052 0.3792682445101361 78 78 80
0.589746746981699 3.867415165785318 0.3765746584639651 47 47 49
0.6066013075914305 3.869631220446701 0.37401796692190814 28 28 30
0.656071630345183 3.8441050963115435 0.3727092445605066 38 37 40
0.6944851572656092 3.8281969409002974 0.37093619620110774 39 39 42
0.733995114680247 3.8283666864830206 0.36591484816122666 35 36 38
0.8409757427995757 3.8061682594668604 0.35670123325165476 43 43 45
0.9185922519060703 3.7757010357433463 0.35279451325892686 41 41 41
0.997579723594451 3.727569271744234 0.3521314560358807 51 50 50
0.45150471585507246 3.7067878853226337 0.4383259642376567 13 12 15
0.45185968964336 3.7234725362459136 0.4350364968036001 11 9 14
0.4553256160447645 3.7373147461479928 0.43191107198081746 10 8 11
0.4573595994891184 3.752413948512292 0.4287201286105279 12 10 13
0.4637595074095795 3.7635771817838997 0.42574907073089846 19 18 18
0.5421599715568128 3.761555695320385 0.41634388140952094 78 78 78
0.5534579549363967 3.768513717879652 0.4135785681734664 83 83 83
0.5658999379049265 3.7744868521736996 0.4108618369052773 84 84 84
0.5793652714275435 3.7795900989641256 0.40818639889660435 81 81 83
0.5722989028480103 3.869508933115431 0.3915806586564593 32 32 34
0.5831618543240935 3.87681347825035 0.38880231762229167 22 22 24
0.6047458629066294 3.8749755315204175 0.3864622576364388 20 19 24
0.6307922041397265 3.869412539323349 0.38428901033485635 24 23 30
0.6569938320201201 3.863816313646727 0.3821028193534276 25 24 31
0.7128127196947613 3.8500404023140433 0.3778060308216 32 32 35
0.835351350168771 3.8147020361537733 0.36936453696232463 61 61 63
0.986580810249797 3.740563968721559 0.36488370997565245 46 46 46
0.4566346309427347 3.6546054784595734 0.46113003140599695 18 17 19
0.4751800047658943 3.7908539322308705 0.43219015096559704 72 72 70
0.5478225189613293 3.7603478344797465 0.4291705560421095 64 64 66
0.5586960375567582 3.767695391796555 0.4263885907487661 50 50 52
0.5667792780905121 3.878001144102285 0.40381641009557234 12 12 14
0.5792374804146361 3.8839246525228996 0.4011169239111256 16 16 18
0.5973093120662241 3.885080721472969 0.39865541186719927 17 16 21
0.6155492662335449 3.886148734075223 0.396190324697001 19 18 25
0.6381925330888194 3.8835381463994425 0.3938999810795051 25 24 31
0.6997935447589985 3.8648089923917985 0.38994298361707186 30 28 35
0.8167966832168672 3.833982794105106 0.3814987381312319 58 58 60
0.9835404141354436 3.746989381642784 0.3778862861588831 48 48 48
0.5406424549375641 3.24188421136419 0.5453058638125619 55 55 56
0.5152467190977443 3.284772207392654 0.5399811271804681 51 50 52
0.45733749157435133 3.6577662073756443 0.47372418532844895 16 15 17
0.46273149586473705 3.6700096838295764 0.47065631656442775 21 19 21
0.4760937050800582 3.77696782909804 0.4479882588197568 59 59 60
0.471331203003438 3.7980199926709184 0.4444315412667603 43 42 44
0.5636679531735651 3.8844183544832065 0.41613878648284497 12 12 14
0.5797661828970506 3.887219777333418 0.41361726372396374 18 17 20
0.5968141528931605 3.889255399931166 0.4111300670403242 26 25 28
0.6196771490248718 3.886396481046211 0.408893496343008 29 28 32
0.6353361940515063 3.889723555095148 0.40632237146266137 32 31 35
0.6762668765345559 3.8884078368344968 0.40157060677867196 30 27 34
0.8046052002838289 3.847951526351509 0.39381556078459423 40 39 42
0.9715431394285892 3.760782422317263 0.39052102298421865 71 72 71
0.5436141818765865 3.2429957501548414 0.5585842782123142 56 54 55
0.4587705161416984 3.6430664719559287 0.4897619913835777 23 22 26
0.433660921847963 3.7172593858505967 0.4781345818412007 43 43 43
0.4435503927775295 3.725307640886432 0.47534540981391044 46 46 47
0.4535958714658528 3.7332258515819055 0.47256305196798704 51 51 53
0.45808643791089776 3.7461402224962095 0.46946575651727807 51 51 53
0.4588681099514045 3.7623515172173803 0.46616587591382086 43 43 45
0.4582378040259423 3.7965982517384846 0.4594711751196898 21 19 24
0.4647609897371785 3.807591494568762 0.45650749994178896 15 13 18
0.5661786331996022 3.8860082208320232 0.42871861600735817 18 16 18
0.5773214042299584 3.893057479285023 0.4259751458701546 32 30 33
0.5902457177366935 3.8986051848016468 0.42331275340733454 41 40 44
0.6088068970584972 3.899390627678621 0.4209091266647198 46 44 49
0.6313014550654075 3.8969026686807817 0.4186762424639924 41 41 46
0.6666843602617634 3.9002449646930946 0.4137294585153466 33 32 38
0.9593506261733982 3.7747207045140794 0.4030963786544567 71 72 71
0.5447103301361471 3.245926410205888 0.571737162361698 57 55 56
0.4612097783291955 3.644645546587851 0.5024842404521516 41 41 42
0.47002826178752444 3.6538050793147794 0.49960657058160873 42 42 43
0.4577290363245925 3.6821500618622998 0.4954459821288798 42 42 43
0.44747187513772446 3.725540580826608 0.4880497980673135 41 41 42
0.4520310824928486 3.7384054863810166 0.4849460108216412 34 34 36
0.45323451871977594 3.754259275527616 0.48165025233888636 29 29 31
0.5735456377053949 3.900028756693884 0.4382541754904069 55 53 56
0.584730879103176 3.90704880146167 0.43551815857041154 48 45 49
0.5989423696496212 3.911516808905703 0.4329267658103254 55 53 56
0.6364348902403323 3.8963180192251556 0.4314547088794315 46 45 48
0.6588116379051709 3.910632111084364 0.4259274560663999 46 45 50
0.8352585916572635 3.847025372125182 0.41742495013016345 36 35 40
0.913562610408279 3.816253301191024 0.4141575095439416 53 53 55
0.4424873230134032 3.6655584820067197 0.5138601108349017 50 49 53
0.4476199632284823 3.6780185263775174 0.510761290780681 40 39 43
0.453174341165101 3.690078287042891 0.5076924692461784 33 32 36
0.4437131400095462 3.7327044849433637 0.5002949036615325 28 28 32
0.4415770069758238 3.7515737896272734 0.49677693161004766 25 24 29
0.574056609622565 3.9033345342514094 0.45073865678147035 68 66 69
0.5841000663784925 3.911328246891639 0.4479502400264207 43 39 43
0.5975656774415627 3.9164296615781904 0.44533413918537457 45 40 44
0.6161892827289199 3.9171991031651308 0.442972282394701 44 42 45
0.6481300617503258 3.9233686402494037 0.43795222931794464 45 45 47
0.64923070595421 3.039839030577145 0.6286378021584483 30 30 32
0.4400557072906417 3.6715752615551684 0.5262313746424346 32 31 36
0.44784764973249547 3.69870019407921 0.5198671877956458 27 26 32
0.4371118905783995 3.7762245610207392 0.505548872764736 11 10 16
0.441000019647094 3.789584383265062 0.5024084174136556 9 8 13
0.5757056395422744 3.9056693100991966 0.46328476565734644 70 70 71
0.5883793300039555 3.911430492436228 0.46064078804781744 40 39 41
0.6006611406666102 3.9175491132673455 0.4579709474909299 31 30 32
0.6203900856211169 3.91739820154294 0.455687488764797 34 33 35
0.6203372577992357 3.9339716125763884 0.4523634994217588 46 45 48
0.9738908492551557 3.791575220553215 0.4395117191759758 47 45 48
0.4394631826441888 3.6759105832400234 0.5387156227863752 24 23 28
0.44728486614789587 3.6859097760456447 0.5357884208379249 23 22 27
0.45505388620981124 3.6959549159292284 0.5328580457163119 22 21 27
0.4596956427862473 3.708823398691274 0.5297200680764038 18 17 23
0.5373622833282357 3.8258594235081134 0.49706878576350993 81 82 84
0.5613266757051834 3.8217692615081957 0.49511533147878595 77 77 78
0.5785865404145825 3.9234962430770493 0.4725634132137007 29 29 30
0.6001274106424546 3.921745988223072 0.4704183860928673 25 25 27
0.6161552410995723 3.924724416524414 0.46795759229846834 28 28 30
0.5173288720914753 3.3065557412050133 0.6180861572675547 53 54 54
0.4669263604037215 3.723124631497962 0.5392685961038248 20 20 24
0.4536500474626872 3.802624038521731 0.5246463106930193 55 54 54
0.4679120552571563 3.8067658606642034 0.5221692078619538 59 58 57
0.49844037552674436 3.813391659582928 0.5173217778612795 60 61 61
0.5216991170894922 3.809753724705038 0.5153926384229788 53 54 56
0.5429403842264886 3.8079652403733917 0.5133193217555979 40 41 43
0.5725827253165954 3.7989295793092195 0.5117541357693781 34 35 37
0.5615859496420856 3.8253155946703172 0.507656930650264 27 27 29
0.5724575426603697 3.832659804893857 0.5049183750889009 23 23 24
0.5989629929942173 3.8432972991370655 0.4997176811121185 22 21 23
0.5734758725617075 3.931573081131285 0.48471371189499723 21 21 23
0.5913175657390137 3.932946943225425 0.4823881250040305 22 22 24
0.610061765470767 3.9336128988146575 0.4801027794270807 26 26 28
0.6438748129355483 3.93820029426987 0.4752925369015648 30 30 32
0.5247442494913259 3.303387430768399 0.6316869618371843 53 54 55
0.4478346753885758 3.727096806929702 0.5539050827459874 31 31 33
0.45338272184065054 3.739088327178517 0.5508276133160959 40 39 42
0.4656601085379646 3.7450327852519902 0.5482214707962322 44 43 47
0.4552091335927595 3.788172439959915 0.540599384781699 48 48 50
0.4789903112921501 3.7838752872862873 0.5387794102127239 51 49 53
0.5018824006804228 3.7804545664452798 0.5368813435567144 47 46 49
0.5094608722295648 3.790626478257626 0.5339450747052794 39 39 42
0.534259434355902 3.7856540350930823 0.5321475754676377 28 29 31
0.5411920412535434 3.7964346854418345 0.5291602804444693 21 22 24
0.5824340168468736 3.7772347799998154 0.5284024483923122 17 17 20
0.6131113803347192 3.8349096530686118 0.5131480133531207 15 14 19
0.5633485753067702 3.9108831522675596 0.5032813178602357 16 14 18
0.556331803624688 3.933387409734354 0.4994826697914785 15 14 18
0.5734490370439824 3.935328867654901 0.49714484426280126 15 15 17
0.590472306020299 3.9373995743208527 0.49479128869381916 16 16 18
0.6061572383226497 3.9406476852045964 0.4923491483645631 23 23 25
0.624389594213469 3.941796573464984 0.4900466564776689 29 29 31
0.6421800836110072 3.943370846754255 0.4877074344142356 31 31 33
0.6613331585896103 3.9438600980936998 0.4854351858925432 28 28 30
0.9079584309490503 3.857089859529764 0.4751778048514021 80 82 83
0.4337175021682709 3.6925199948937957 0.5758435822278993 22 21 25
0.44161336347701785 3.7024300241633794 0.5729242770640035 29 29 30
0.4462615873852105 3.715276087184196 0.5697665586141282 41 41 41
0.476325404235141 3.7051885530272353 0.5684657193298723 49 49 49
0.47237344439918716 3.7257965877332655 0.5646793271968549 48 47 50
0.5611126206090498 3.765839046700435 0.5465104232946899 14 14 17
0.5621861075401589 3.7818249480657995 0.5431091422353351 12 11 16
0.5455571481090207 3.946281672289418 0.5112211278434448 13 13 15
0.5646320332592043 3.9465376956562874 0.5090296367839386 13 13 15
0.5846509077083843 3.946056425973685 0.5068836125025923 21 21 23
0.6048990728749892 3.9454474897083527 0.5047380788796004 26 26 28
0.620557264415732 3.9487594677044866 0.5023025192412713 30 30 32
0.6549227098162591 3.9364542418527555 0.5009744741398143 28 28 30
0.6618398821815159 3.9471920327665306 0.4979950256629989 23 23 25
0.6944608708220823 3.936547926565753 0.49652166962897476 28 28 30
0.7297892417778644 3.923791975977225 0.49517815333910253 32 32 34
0.9064374529336972 3.8621908634902256 0.4880127203867588 63 63 65
0.46395931297820536 3.6859550827404246 0.5871297005344702 51 51 51
0.47618218300970927 3.692016323200312 0.5845243168727616 54 54 54
0.48315900312800153 3.804544003358498 0.5605349003094275 19 19 21
0.5031719551767897 3.8037061958348417 0.5584893841830408 15 15 17
0.48722684587371234 3.834507689064765 0.5539020595322338 13 13 15
0.5441346516500554 3.967632142588607 0.5201285557998316 29 28 31
0.558544635762148 3.9718378958124143 0.5176635513632535 37 37 39
0.5726312004491547 3.9763508603806565 0.515171014804173 36 36 38
0.6418895857951341 3.951111762867839 0.5127011426816126 34 34 36
0.683843180266857 3.949139125995339 0.508457712325661 24 24 26
0.7600530009016366 3.919162295340419 0.5061947589080151 32 32 34
0.9019793466128554 3.8696828057297465 0.500671027736882 52 53 54
0.4749634443434463 3.6969183136057007 0.5969861564516799 36 36 38
0.5504385989508436 3.9495759598046636 0.5363181897304576 39 39 40
0.5594195192663727 3.9584030497093594 0.5335035909502382 59 59 60
0.5701683137128699 3.9657432367590557 0.5308036773483819 53 53 55
0.5867649631935352 3.9681787732107763 0.5284802637147534 38 38 40
0.6061352941156974 3.9683351839630148 0.5263256406970556 42 42 44
0.6389933947663524 3.9572802032830414 0.5250184636564872 42 42 44
0.6494075994788397 3.9650571750465238 0.5222646218213712 36 36 38
0.8942600827809073 3.879824167902258 0.5131155381609506 46 47 48
0.4694628988765832 3.7056824743466423 0.6090985863412947 24 23 27
0.4744740138493795 3.7182379649025714 0.6059386025004406 24 24 27
0.46992312533284974 3.7393499588040773 0.6020301295181119 23 23 26
0.5544394673948052 3.9334221102385527 0.5524215208595484 72 72 71
0.5606307244268813 3.9446469888488105 0.549411154583561 76 76 75
0.5653117879323393 3.9571393572737437 0.5463000643829746 86 85 86
0.5841538654065754 3.957670486194076 0.5441493111250766 61 60 62
0.600963611166883 3.9599690299089643 0.5418501468968155 30 29 31
0.6184328012249167 3.961762709980099 0.5395848331577955 42 41 42
0.6429013225495825 3.9577618234537013 0.5377696904521532 45 45 47
0.6430957046830932 3.974057001573275 0.5343516045844167 42 42 44
0.842637357410357 3.908993412270622 0.5263109993274607 40 41 42
0.8944243251373356 3.883540877871459 0.526010096356869 43 42 44
0.4594464688521709 3.7185116422568454 0.6208150871430466 21 21 23
0.46022786038055674 3.7348370708326915 0.6173105461348554 20 20 22
0.5636721062076258 3.9127523586018866 0.568962368778474 81 81 81
0.5747669530615245 3.9198547500175467 0.5662871487709953 77 77 77
0.5797533590888542 3.932155041727247 0.5631762085418834 71 71 71
0.5821532666048219 3.946625105419497 0.5598873040703836 66 65 68
0.5917960186855187 3.95496024671972 0.5571091108808687 52 50 54
0.611539621367956 3.9548192598742853 0.5550264706215425 34 32 36
0.6297225416941044 3.956048592257318 0.5528236466859312 36 34 39
0.6473421713668761 3.957802882983601 0.5505710804253916 45 45 47
0.6457380701548845 3.9755998758487 0.5470133788853151 41 41 43
0.8488359872512437 3.90776174784647 0.5395011167967421 43 43 47
0.8973465595304728 3.885014717239235 0.539077999447986 47 46 50
0.5165449555343227 3.8573185589632137 0.5988563278990457 74 74 75
0.5386028590091145 3.854869637167634 0.5970408146073267 77 77 77
0.5714605340132843 3.8599044259080575 0.5925076017302184 79 79 82
0.5903775563186258 3.87705597086367 0.5868956878010575 63 62 65
0.60147603279071 3.8842437402331567 0.5842087506586289 50 50 52
0.6017176956891652 3.9006800185155672 0.5807213055421644 47 47 48
0.5870155013609151 3.9462518284364725 0.5726765964937404 39 37 41
0.6049242843108931 3.9476389428331893 0.5704916393885742 43 41 46
0.6123850438917284 3.95784960775939 0.5675524760927437 36 34 39
0.6190313818139836 3.9687382096979267 0.5645565987449952 29 27 32
0.6407080742387183 3.9670845892894397 0.5626138650293168 31 31 33
0.6369685296870413 3.9866312454720054 0.558892071545174 34 34 36
0.8451117695195565 3.914625265040198 0.5520595428295438 51 50 55
0.8957709430878451 3.8901457690704273 0.5518613424001367 50 49 54
0.5361184843392506 3.8272862728713655 0.6164128958690364 56 55 60
0.5528278471439818 3.8295323257675458 0.6141929291309253 49 48 53
0.568008399965028 3.8331511416326864 0.6118419504375616 43 42 47
0.5872483672333826 3.966254716433429 0.5816546185126481 24 22 25
0.5834397335476105 3.985867616406644 0.5779000963795888 27 25 27
0.6104468846714468 3.9796527214272763 0.576396258463094 24 22 25
0.6294911065915874 3.980176459285854 0.574297153574784 21 21 23
0.9011672941360902 3.8896140936162733 0.5651065025589731 66 66 67
0.45834808964226137 3.7478681661679447 0.6546362767630303 48 48 50
0.4700127437402275 3.7543957034944624 0.6520445806901103 51 51 53
0.47272365279026585 3.7689240819688727 0.6486736480594664 47 47 49
0.589994971827611 3.81789221111312 0.626162193291262 13 13 15
0.6091246108809745 3.868563454510679 0.6134076948769429 13 13 15
0.5951084901733614 3.9633754319227723 0.5946783854435848 13 13 15
0.5918350050835679 3.9825525035142944 0.5909353322702112 23 23 25
0.6078920666330816 3.9855186842566326 0.5886485376860758 23 23 25
0.626249072202979 3.986613105296281 0.5865228779229827 21 21 23
0.6371659411954393 3.9939384812990513 0.5838385180999583 25 25 27
0.5582951382046726 3.3070044322582817 0.7520416468285622 49 49 53
0.5242470275464823 3.357672535948307 0.7446722600649076 33 34 38
0.41664934028406764 3.7212361029294483 0.677874361152804 28 28 30
0.47873075658567377 3.733376026536148 0.6689570485824613 53 53 55
0.5601503898014784 3.8138986428702495 0.6434461322099818 15 15 17
0.5685653071284453 3.82341934232831 0.6405532023535909 11 11 13
0.5747934104480823 3.984179461647306 0.6055382050340077 14 14 16
0.5735963771099526 4.001553590908219 0.6019443773703679 22 22 24
0.595113518897681 3.9999156104381965 0.6001038473498177 22 22 24
0.623322758584357 3.992782408241971 0.5987571724515716 27 27 29
0.6488472915326962 3.987984949168621 0.5971843171868607 25 25 27
0.5608207079868863 3.308575882068027 0.7653580504988106 47 48 50
0.5886613733680437 3.318564493284835 0.7604123358679225 28 29 32
0.40577164878967387 3.7348845988811084 0.689311658479789 48 48 50
0.4992312685654612 3.7358659437945816 0.6797055910443747 26 26 28
0.5524291179523428 3.9410214587376733 0.6302606926400923 12 12 14
0.5640262644567384 3.9969409294077947 0.6170752732573106 14 14 16
0.5752053924567451 4.003920939329734 0.6144511616427037 21 21 23
0.5914366217083402 4.00670368367758 0.6122213626224102 34 34 36
0.6214202606138948 3.9980961960372863 0.6110573592286255 32 32 34
0.6568839282390477 3.9850657728536696 0.6102931571458032 21 21 23
0.6776797331417415 3.9842997235065036 0.6083672940705892 23 23 25
0.5129558130794023 3.7444654209433503 0.6898601867340347 22 22 24
0.4898264853941454 3.781970877916031 0.6840532434202624 22 22 24
0.5389124419829192 3.8566826104060867 0.6630426077234164 14 14 16
0.5493447476136557 3.864376348176854 0.660345327368608 16 16 18
0.5760947472492395 3.8580320515450444 0.6590613631164252 18 18 20
0.563787223058283 3.885314827525333 0.6543888974856014 22 22 24
0.5652018439254998 3.900744329774218 0.6509153486333704 22 22 24
0.5560973287088671 3.9251069461709953 0.6465558671012505 24 24 26
0.5445486627814751 4.00067646168101 0.6313769142076833 24 24 26
0.5578754076802099 4.005815299673216 0.6289443328515769 24 23 25
0.5633294168237153 4.017566904954495 0.6258644620978084 26 25 28
0.6245094785851948 3.999259633494793 0.6237481937106999 23 23 26
0.6583822363194964 3.987570547889405 0.6229120256964381 20 19 23
0.6925431927047427 3.9757827142633264 0.6220685908433747 25 24 28
0.49048205055915384 3.7512606864080826 0.7039745328969752 18 18 20
0.47717304363685087 3.78006550791158 0.6990242852385118 18 18 20
0.508634212934195 3.853301957813028 0.6800428022997549 19 19 21
0.5165490073769508 3.896449520728036 0.6698999751451281 31 31 33
0.5482386587647474 4.00128012622241 0.6440367937264736 30 29 32
0.5553716461017038 4.011623724593317 0.6410925162037765 43 41 44
0.5685739429020571 4.016890563002336 0.6386560100182521 42 40 43
0.6192057758725424 4.007394332316307 0.6357588124172637 33 33 34
0.6553251696039257 3.993846239892755 0.6351626565135018 30 30 30
0.6831875465888699 3.9872600548249078 0.6338637148368641 32 32 33
0.8928531459706455 3.932314424057511 0.6252580931900877 49 49 51
0.5285389621994154 3.972492660354261 0.6653840512875551 25 25 25
0.5424637072647409 3.993497507729688 0.6594552417761147 29 29 29
0.5499540036317241 4.003547437188734 0.6565385443315188 32 30 31
0.5572995194468651 4.013715726200801 0.6536100146584409 48 46 47
0.5658818912847139 4.02284747535409 0.6507881088614165 49 47 48
0.626394167719057 4.005158204959339 0.6487994115526317 42 42 41
0.6499691299905959 4.002018584346499 0.6472060032560085 40 40 38
0.6865580565539673 3.9882361300180573 0.6466769909660646 39 39 37
0.5877755903073798 3.262114407607772 0.8286751380363391 75 74 75
0.5511922196934087 3.95699539662109 0.6797957997665559 64 64 63
0.5584063376603874 3.9673482331423857 0.6768378345185992 71 71 70
0.5519693202324205 3.9891991245532594 0.6726603394691988 74 74 73
0.5542960673881241 4.003610115976733 0.6692785581250885 66 65 64
0.5596094147887816 4.015489676301616 0.6661670685397841 60 59 57
0.5681334627965451 4.024675339340323 0.6633401264510904 52 51 50
0.6289034837710388 4.006809264232454 0.6614630893363801 41 40 43
0.641068662306933 4.013112453855086 0.6589210016583054 44 44 47
0.9971274146464508 3.8729941835102513 0.6556939444759957 67 67 66
0.5412276529011382 3.9196497498437637 0.702187900873837 77 76 79
0.5638606726699289 3.9168944513203034 0.7006662403840456 79 78 80
0.5828967445534323 3.917278010961664 0.6987912381057281 78 78 80
0.5912449389807051 3.926779841090961 0.6959122583404282 74 74 75
0.59635559245656 3.939017851002368 0.6927348638759663 68 68 69
0.5560401708310401 4.005857915127557 0.681798322671598 54 54 54
0.6279453697537014 4.011335145981102 0.6738281753302083 28 28 31
0.8776413491092012 3.93939660075784 0.6661944009644836 61 61 61
0.9833954644502876 3.8878956912984046 0.6675958987831928 73 72 72
0.5331690751712306 3.8804461531304644 0.7248755296846817 65 65 67
0.5487542126863405 3.883688705131538 0.7227117986311742 66 65 68
0.5724646112740202 3.880001952239636 0.7213287624576983 58 58 60
0.5901680528692075 3.8815389163059697 0.719346215006361 57 57 59
0.6156597082208981 3.8764903519731186 0.7180995024961011 50 50 52
0.6067540793267874 3.9173988304127088 0.7098669235299333 32 32 34
0.6039047688529857 3.936395369182969 0.7059246798519314 29 29 31
0.5670519264936282 4.032990620831151 0.6879533835247176 35 35 35
0.6165791435037629 4.02447470484414 0.685244888362904 21 21 23
0.6586796029326591 4.022427393380745 0.681792920247313 33 33 35
0.6956564648271588 4.00845341732431 0.6814572410149311 34 34 37
0.8780207827161943 3.9429231222981898 0.6790516560612823 62 63 62
0.5128393185616984 3.851690480487168 0.7464305830319433 41 41 45
0.5364412094370139 3.8479218759631957 0.7451104102819488 37 36 40
0.5486023456579856 3.8541446833208557 0.7426133718168504 29 29 33
0.5804531154110621 3.8433998885269736 0.7420910607276237 23 23 27
0.6459904333269724 4.020252742789223 0.6967430517496742 25 25 27
0.655109783433891 4.02909744373396 0.6939408051182647 28 28 30
0.8828164898493926 3.9428910023711508 0.6922961964479316 61 61 61
0.6093830568207186 3.239036969017387 0.8880257081595626 81 80 79
0.5889026837337201 3.823052818468615 0.7592830315727519 12 13 17
0.6036852639858452 3.827151838575353 0.7570335312439467 11 11 16
0.5741511750024131 3.8860901525664664 0.7465176466279106 9 9 13
0.5809906506263807 3.930156608052502 0.7360474171395512 11 11 15
0.5753681421441661 3.951463294272429 0.7317900946255909 11 11 15
0.5691555341779551 3.9731918733924094 0.7274916432523851 12 11 15
0.5688055892376342 3.9899166267884896 0.7237834443482519 12 12 16
0.5744882430259837 4.001543653116414 0.7206711718177743 12 11 15
0.6446209062008184 4.025115456011554 0.709076562962593 28 28 30
0.6540998364153396 4.033660447000774 0.7063111439619669 25 25 27
0.6887140555024622 4.021640559205175 0.7058777206724112 27 27 28
0.8814277943269087 3.9478434579207096 0.70500231810364 52 52 53
0.5576149642873898 3.853894890415514 0.7685767786190957 12 11 16
0.572969863235981 3.8574158624319894 0.7664210259697743 11 10 15
0.5864750523992888 3.8625657431987186 0.7640636604756292 10 9 14
0.5732263763870056 3.890648457517563 0.7589311757370109 10 10 12
0.5869160682907766 3.928884672307042 0.7491232232245317 11 11 13
0.5784119091187814 3.9526326920071972 0.7445430483336194 11 11 13
0.5722616097190276 3.9743068393146164 0.7402196605546265 11 11 13
0.576726635212687 3.9869912495044053 0.7369727757019877 12 12 14
0.6622289635462066 4.030722673143322 0.7195479564425058 23 23 25
0.5727003191411317 3.9776699637509596 0.7526851623357373 18 18 20
0.5742304448994182 3.9928139827022577 0.749132008005987 22 22 24
0.6665390622667202 4.030925540232672 0.7324434617441486 24 24 26
0.7088993824172252 4.012638351719135 0.732862586870751 26 26 28
0.5529438212599715 4.0307075485730035 0.755623471244299 32 32 34
0.5556151285525397 4.044762236520634 0.75220453192655 39 39 41
0.6408907863971929 4.039378598902651 0.746068618380469 28 28 30
0.7126713068244148 3.996867996296892 0.7495196964917549 29 29 31
0.7553822421201342 3.9784377356254628 0.750015880765837 30 30 32
0.7430684780046013 4.004979535521808 0.7450569490941604 35 35 37
0.5568929934491718 4.0311166030274475 0.768383191878327 32 32 35
0.5604046328041026 4.044478020799133 0.7650390763386186 38 38 40
0.5649836607108847 4.056929528388736 0.7618116690816845 37 37 39
0.5966802604521162 4.046942354640162 0.7613947332375172 39 39 41
0.6769327850524569 4.029893281140078 0.7584613924056138 33 33 35
0.7175949514324773 4.013058859503537 0.7588434024610764 31 30 32
0.7498406866881917 4.003243734047685 0.7583405845504327 41 40 42
0.5729385486163987 3.9886639599903693 0.7899626998592396 17 15 19
0.5719968241005249 4.005861227992234 0.7861027336744848 19 17 22
0.5670127828776146 4.026381795723631 0.7818198694528897 32 32 35
0.5664834481497418 4.043126943442558 0.7780289465318309 42 42 44
0.5713606184498488 4.055344319101581 0.7748226350588288 41 41 43
0.6018869684297523 4.046354438395899 0.7743272494695908 41 41 43
0.6844590865591427 4.02748010779764 0.7717406675079249 42 42 44
0.7276718343846995 4.008604649863083 0.7724478500258504 39 37 40
0.7502376580186221 4.006696912576962 0.7709965287618767 41 40 43
0.8703203476643893 3.9592749276537624 0.7718095416396179 59 59 61
0.589861324844448 3.994642500565438 0.8004647149416839 33 31 34
0.5738468056762229 4.0243981691708886 0.7949365321412448 39 38 41
0.5724446277383528 4.041880508274946 0.7910289756703663 43 43 45
0.5844017690225982 4.048246784049237 0.788578954722537 39 39 41
0.6071025477809355 4.045764989200211 0.7872800291784418 39 39 41
0.6135204499983222 4.056760490460766 0.7842210335451247 39 39 41
0.6887548593140242 4.027716375577563 0.7847070679764722 43 43 45
0.7340361616606454 4.00718708838431 0.7857011273147392 42 41 44
0.758194372419795 4.004010547058741 0.7844420179333095 42 41 44
0.5882383917123004 3.866977878987314 0.8434067631952717 36 36 38
0.5763842276606248 4.0260016940358945 0.8076000822497114 40 39 42
0.5788276735755731 4.040290526228716 0.8040982636996516 35 35 37
0.5906889261857042 4.046754507904846 0.8016420537585882 34 34 36
0.6085636393895371 4.048278496600027 0.799840461459276 35 35 37
0.6195110613866788 4.0555512661854465 0.797271343079525 25 25 27
0.6894802761380721 4.030873725178778 0.7973041108210314 29 29 31
0.7301169990084286 4.0141492362131235 0.7978762557690513 37 36 38
0.7590881338700626 4.007064895860478 0.7971653221694122 38 37 39
0.49320192754248215 3.4896830670288064 0.9520688785797885 24 24 27
0.5995578620373234 3.8610584944675104 0.8573146734372403 26 26 28
0.6044432241984379 3.873661081829667 0.8539973901727123 22 22 24
0.5828380169309535 4.024347598246239 0.8207168814243199 22 22 24
0.5852783433121127 4.038651700175055 0.8171993960428946 24 24 26
0.5970236183295483 4.045230053512613 0.8147342699461236 28 28 30
0.6157548338046641 4.046069822961517 0.8130448912468868 31 31 33
0.6199348034032308 4.0589225705425385 0.8097257698467023 20 20 22
0.6888857005748099 4.035108756560891 0.8097570266524909 23 23 25
0.7296842072105991 4.018269569354858 0.8104139823429637 30 30 32
0.775826037140646 3.997271780736746 0.8116107011134533 34 34 36
0.6468226576063631 3.221055989621955 1.016436198307862 80 78 81
0.63759386559441 3.2484272236508613 1.0107723586288873 60 60 62
0.49042044470867796 3.4961898184929567 0.9644973713880861 25 24 27
0.5587788636173097 3.8830784124234405 0.8688386095021053 16 16 18
0.5879509082583105 3.874791581497996 0.8684833835184622 13 13 15
0.5943816690237014 4.01846702533395 0.8344468967454834 11 11 13
0.592929352275285 4.03602501845988 0.8304630765194514 16 16 18
0.5924284480507229 4.052745129451258 0.8266001448046739 20 20 22
0.61126092126603 4.053494268843649 0.8249474406647571 23 23 25
0.6231979846833682 4.059962605867791 0.8225010684452561 19 19 21
0.6508805743282109 4.053567114309824 0.8218213142961788 24 24 26
0.6786158122812462 4.047233837983645 0.8211229084429003 30 30 32
0.7173885056980402 4.032032684502057 0.8216279841810205 30 30 32
0.6459194547740017 3.225977931617188 1.0295792953527718 74 73 75
0.5371005890045439 3.4025593113647568 0.9965731337593915 31 30 36
0.4913707405972161 3.499206423585653 0.9774408592317458 25 25 27
0.591878309441201 3.875212383544687 0.8815204626676274 11 11 13
0.6153428611619347 3.905413794221868 0.8726281780331694 10 10 12
0.5996993294702959 4.017775154184371 0.8474894825664323 10 10 12
0.5959032152919224 4.037282099618113 0.8432085438432555 13 13 15
0.5958737840137605 4.053614261399731 0.8393813302636515 19 19 21
0.6099243839910957 4.058313796181477 0.8371950934560952 25 25 27
0.6294446909446885 4.058558407935804 0.8356313167767757 30 30 32
0.6465282782880273 4.060857072193922 0.8337739625333052 32 32 34
0.6712993676945138 4.056938604517651 0.8327811107785842 34 34 36
0.7132522500089924 4.039151886983701 0.8337140644513293 30 30 32
0.7516848595234211 4.024395853434199 0.8342080647981456 28 28 30
0.8027662200170775 4.016105631373169 0.8322098639796625 33 33 35
0.6558679173675208 3.2205385051003863 1.044333048982577 69 67 70
0.5856581851700915 3.3607515637693997 1.0166305630470929 31 30 35
0.6330334690756259 3.860645087794565 0.8952790093327877 10 10 12
0.6019643920900064 3.903851892079464 0.8874581983024452 13 12 14
0.6358825040482523 3.891795631082375 0.8877248893791186 13 12 14
0.629023242009455 4.013585293086306 0.8595559591270552 24 24 26
0.6093617427507145 4.046200279309252 0.8533647228124305 28 28 30
0.6116505705076003 4.060612089422369 0.8497961587525718 29 29 31
0.6137882834413162 4.0751166180647855 0.8462172184366159 32 32 34
0.6371105649750493 4.072279886520565 0.8451160108942015 36 36 38
0.680829307135969 4.052914114938123 0.8463609988522344 33 33 35
0.7201742132756046 4.037289152137309 0.847056623702909 27 26 30
0.7726571957402986 4.0112010708865355 0.8492202147739858 23 23 27
0.7839118709735988 4.01859518419972 0.8466245408267609 30 29 33
0.6545254578684165 3.2258828543731317 1.0574207513627067 65 64 67
0.5805103357796928 3.3695872289955324 1.0289314283160973 29 28 33
0.6253843819166365 3.9211590425519423 0.8950533234702731 32 31 33
0.6393834071469711 3.9922999550161897 0.8771736481168072 34 34 36
0.6198349907999392 4.024928157245252 0.8709096727096367 35 35 37
0.6035550464075103 4.054711515341375 0.8650752271261475 32 32 34
0.6742710391947357 4.06199301073142 0.8580790418269493 28 28 30
0.6995241892138111 4.0577982722859005 0.8571887281587135 28 28 29
0.7668201738142535 4.019705299324624 0.8611856375670529 31 31 33
0.6687505074835043 3.1977168857499025 1.0773259953370604 84 82 84
0.6509811362492746 3.2333237155842967 1.070162456536587 63 62 64
0.5030037265554534 3.945949950452216 0.9115800735625643 32 32 34
0.5797680511661631 3.94683824495071 0.905745005515668 35 35 38
0.6085797233713537 3.95569194934164 0.9015292896372386 36 36 39
0.6413752150526488 3.944768748865145 0.9017235763683905 37 37 39
0.6160753948879036 4.031771548034559 0.8828925867548223 37 37 39
0.6057052581778886 4.056659078099953 0.8777354297245389 28 28 30
0.6112887106335028 4.068345501426874 0.8745479860528036 28 28 30
0.6237520223700468 4.074387165891032 0.8721985268049395 33 33 35
0.6681709410197874 4.070690665206905 0.8698231491893086 30 30 32
0.697706043996581 4.06301821598719 0.869483446909451 33 33 34
0.7808435876594322 4.012157718791695 0.8754844920487383 36 36 37
0.6670901043502915 3.203382040248462 1.090399072051927 77 75 77
0.6386312665454461 3.2491475763432813 1.081516420098996 60 59 61
0.64804547543366 3.8928889831787026 0.9270902674111992 26 27 31
0.6784120774034306 3.8840440189737455 0.9270176742110678 24 25 28
0.6577328972082876 3.9181810550591605 0.9203525276152533 23 24 27
0.6126860835599932 4.0383037976611025 0.8949043065477711 25 25 27
0.6093212477849064 4.057401878453964 0.8905851176171253 16 16 18
0.6150268895545461 4.068994873584464 0.8874057299667808 25 25 27
0.6331876000088934 4.070387915732039 0.8857662302559655 46 46 48
0.6433238865823527 4.078376905423474 0.8831287934151857 48 48 50
0.6721921227386614 4.071156074448034 0.882776116409161 44 44 46
0.6920969837816726 4.071305528421031 0.8813081266362204 41 40 44
0.7438682536939434 4.045794279532773 0.8836758286777117 38 37 42
0.6224939867892352 4.033938344852733 0.9085810506954699 31 31 33
0.6188681137878553 4.053269241765734 0.904199208666866 21 20 22
0.6251541622540733 4.064409209619472 0.9010823013906544 20 18 21
0.6404255219032535 4.0681957861618105 0.8990948471358426 25 25 27
0.6566215791198302 4.071267652585119 0.8972135400046799 29 29 31
0.67305678704133 4.074188702538736 0.8953515214744654 41 41 43
0.6913916837108254 4.07561683886413 0.893713477674529 47 46 48
0.7438182993256046 4.049600370528459 0.8962515102961991 44 42 47
0.6892288835072309 3.1716450600712944 1.1251285853329227 84 83 83
0.689574822891885 3.190075737529294 1.1206624411199169 70 68 71
0.6220796666755728 4.038015404107705 0.9209728800247333 34 35 37
0.6151422478223598 4.0600588893214145 0.9161410507495247 31 30 33
0.6281748161023142 4.06565838220744 0.9138877054532001 23 22 25
0.6276640608521611 4.082345192544887 0.9099012758382544 19 19 21
0.6445671258019812 4.084810931441801 0.9081348228738364 20 20 22
0.6763664310693964 4.075238063086341 0.9082369142280706 26 26 28
0.6870803835836472 4.082842709813902 0.9056610744857699 32 31 34
0.7351956528700982 4.0603154220431215 0.9077539865536889 36 34 39
0.7965771707947418 4.0273428043475565 0.91144446541947 40 37 44
0.6927521864832984 3.1723714477680796 1.1390938137622975 84 82 84
0.6946370379369533 3.1893379817937535 1.1348577666031434 65 63 68
0.6211701736797466 4.058831003062998 0.9293416975267672 31 30 32
0.6093583822951956 4.084790003147093 0.9238603822880609 28 26 29
0.6234075724955668 4.0895375947428345 0.9217550296176841 20 20 22
0.642466616543236 4.0902423073990555 0.9202876373934399 15 15 17
0.6916441074616193 4.082891161367916 0.918721413699892 25 23 28
0.7322120687199238 4.066477627254036 0.9199350936928221 30 28 33
0.825767227674566 4.00770088010883 0.9278001817344613 36 33 40
0.6958985263641712 3.173462223794462 1.153009545870919 80 78 80
0.6019671003589779 4.062047153286025 0.9431695852275719 18 18 20
0.5958638867512329 4.083330260775496 0.9384007125186173 27 25 28
0.61426845252071 4.084486090689453 0.9368914198003822 29 26 29
0.6328290518964779 4.085570302356589 0.9353891324284951 20 20 22
0.6561213257077458 4.082864933199329 0.9344927318300628 23 23 25
0.6871128538289382 4.074003619247113 0.9345796944228592 30 30 32
0.7295107984795792 4.07240835483429 0.9321383349548923 28 27 31
0.7947571831494058 4.036382596992297 0.9365459011271594 30 29 32
0.8536555947595401 4.005733793146911 0.9400693836933891 34 33 37
0.6713160561018847 3.201049056076371 1.1622786974927726 73 71 73
0.643742885859556 3.948828523540126 0.9814013722663992 10 9 12
0.6130866745960681 4.040276660786025 0.9610664345588577 11 10 12
0.6152726022003785 4.054818521579086 0.9573708664677336 12 12 14
0.5991264521264026 4.084364869280878 0.9512091094258163 18 16 19
0.6179360280066599 4.085203367910822 0.9497736422367461 27 24 27
0.6425540696934273 4.081366617811037 0.9491003097367644 28 28 30
0.6616045141093014 4.082140322341156 0.9476649127296451 33 33 35
0.6883302465110213 4.076759441842516 0.947230912348558 34 34 36
0.7142083581533685 4.072161643349243 0.9466610622009706 27 27 29
0.7516238390504961 4.0583800508845975 0.9475799614362501 23 23 25
0.7937157298100148 4.04100524189702 0.9490707218205354 26 26 28
0.8077846626008509 4.046196715723424 0.9468819881541725 32 32 34
0.8520055162567766 4.027410465843232 0.948578273086195 35 35 37
0.8864232850657918 4.01659327780892 0.9489690995341209 37 37 39
0.9237193287233707 4.003636353228766 0.9496943479688267 42 42 44
0.6308927493559511 3.9633482474387636 0.9921524853578358 11 11 13
0.6198446119844288 3.9891127273776497 0.9865384580084195 14 14 16
0.6179170929154374 4.007198269839117 0.9822239931070478 19 19 21
0.5924865004171758 4.077283978368518 0.9666560432843547 20 20 22
0.6120584214431051 4.077477762948663 0.9653535913418558 25 25 27
0.6197303008728847 4.087454856912296 0.9624133894775753 34 33 35
0.6378000859201594 4.088963506973158 0.9608845926185637 41 41 43
0.6624839066279522 4.085158036476406 0.9602357657366493 39 39 41
0.6901988502961471 4.078989367374491 0.95997250209554 34 34 36
0.7202420805525402 4.071048000366391 0.9599949613611733 23 23 25
0.7625459679045763 4.053370741126201 0.9616204130547585 22 22 24
0.8067485400819556 4.03435363916872 0.9634529132446644 27 27 29
0.818547109720541 4.041394080098892 0.9609687510894103 32 32 34
0.8574609407160285 4.026879132075596 0.962035557328659 35 35 37
0.6076065132815156 3.920164132143699 1.0177228468696522 15 15 17
0.6042346917349517 4.071344277584207 0.98067074106619 31 33 35
0.6126501749871409 4.080712478560351 0.9778330395330487 35 35 37
0.6203963510210597 4.090628890982731 0.9749022494920777 37 37 39
0.6383832973869652 4.092211491293362 0.9733824237344151 44 44 46
0.6572370802673138 4.093144203912379 0.9719683417705322 38 38 40
0.6917954180141084 4.0814408271049984 0.9726825049848091 36 36 38
0.7191130812411564 4.075711469031582 0.9723789294589295 32 32 34
0.7653582389391187 4.05488598838307 0.9746075358990722 33 33 35
0.8086634883690034 4.036615004272525 0.9763911447704405 33 33 35
0.8403717977683747 4.027779879103358 0.9765773287399101 33 33 35
0.8553626790914943 4.032359232636033 0.9745070221830064 35 35 37
0.9470985162445822 3.992850692936039 0.9784835445369315 51 51 53
0.6543087505773426 3.2851786818499633 1.1855475477100044 32 31 34
0.4504731763956624 3.6363370127997428 1.1111430177822454 33 33 35
0.617071416988271 4.0481923604420755 0.9989295594219023 37 38 41
0.62096956651037 4.0613240266599 0.9954386679396434 37 38 40
0.6235264972537529 4.075530665531261 0.9917641173244965 34 33 36
0.626015343881063 4.089763071151918 0.9880873744738978 35 34 36
0.6377157832207936 4.096476405292042 0.9857057067877718 43 43 45
0.6578544691788868 4.0963713656160055 0.9844931948429329 40 40 42
0.6900974146939092 4.086554505812149 0.9849407446605367 37 37 39
0.7215016492233912 4.07754128021545 0.9852409097762818 43 42 46
0.7597093830675723 4.063192793291069 0.9864435754707166 51 50 55
0.8218788602780347 4.02984110092615 0.9908774493813892 46 45 50
0.8524768812191179 4.021938692655812 0.9909521783693888 41 40 45
0.8729863960161683 4.022168428218662 0.9896339765077766 42 42 45
0.9555377350761867 3.990043252176226 0.9925107146755989 65 65 64
0.45472403200302347 3.63628866680574 1.1244964338713532 37 37 39
0.6173993077455961 4.05165638840583 1.0114127406255553 36 36 39
0.620303549301993 4.065600414077785 1.0077703793067894 32 33 35
0.6229322015802781 4.079741811790891 1.0040955237534488 26 25 27
0.6265866803933469 4.093017725911681 1.000574149787993 33 31 34
0.6398735986182285 4.098444600707846 0.9984248769950215 45 45 47
0.6667342466661903 4.092908464798491 0.998184853061671 47 47 49
0.6943241907977507 4.086883884085401 0.9980223979663773 55 55 57
0.736123484976017 4.069533055708206 0.9998212625949745 46 46 49
0.783500249909943 4.047889135950641 1.0023520136313484 40 39 44
0.8293039131985285 4.027709646535122 1.0046132791920968 45 44 49
0.8886547644136444 4.013550565891219 1.004562008274705 57 57 59
0.6193619360085725 4.0374059987318285 1.0282234207099739 28 27 32
0.6079380315503333 4.063172144968983 1.022460373103419 26 27 30
0.6195222306311883 4.06996987369257 1.0200804173261306 27 28 30
0.617841314357678 4.08762594907282 1.015769383687835 21 20 22
0.6318894197296663 4.092418934628829 1.0137450849482579 31 29 33
0.6537120042145745 4.090932792867008 1.0128313849119088 55 54 59
0.6778240105582485 4.087667707259282 1.0122272169323236 52 51 55
0.7074397062549866 4.080049584838588 1.0123862653440256 50 49 54
0.7450672801874858 4.066105947357097 1.01365352096403 45 44 49
0.7882501877753345 4.0478680735940245 1.015666265432507 41 40 45
0.8323983874901497 4.02904448678842 1.0177684693148583 42 41 46
0.9660959448274287 3.989437236205005 1.0197892641663924 59 59 59
0.4660378816776871 3.6161737364049236 1.156115109801554 30 30 32
0.6152077000739524 4.044572178189213 1.0400557863513245 44 45 48
0.6282762323622282 4.050182791288777 1.0378959244830899 49 49 52
0.6162394213615634 4.076387005660729 1.0320150393201297 48 47 50
0.6235685567914415 4.086669892828693 1.0290134562596016 33 32 34
0.6383486276513723 4.090884849919757 1.0271051907896431 25 23 26
0.6629687769646382 4.087153785700703 1.0266238587926457 40 38 42
0.6866198263465806 4.084294541227774 1.0259796037224842 42 41 45
0.7097568241871779 4.081932328096038 1.0252402519923862 44 43 47
0.7369295181438889 4.07640850225987 1.0250617225721883 49 48 52
0.7903218346413485 4.049996185694263 1.0286140478929906 44 43 47
0.8332983413755886 4.032133406272866 1.0306211802267438 40 39 43
0.8372743322784 4.045468516495907 1.027046923987681 41 40 44
0.8573196686631674 4.046044242479002 1.0257485162355868 43 42 48
0.9628717538332092 3.9958380884337252 1.032267227444856 53 53 57
0.6321911854221631 4.0507063792173845 1.05093833987509 48 46 49
0.6178533442434346 4.078790975091065 1.0446685842135794 39 37 40
0.62553338198241 4.088790054332828 1.0417171046484641 33 31 34
0.6428583251646627 4.090943466376803 1.040199873312911 20 18 21
0.6690853237679502 4.085930811585355 1.039987444532016 16 14 17
0.689361150738129 4.085822809498143 1.038874004925051 25 23 26
0.709514320640884 4.085878316789282 1.0377262668449871 29 27 30
0.7420341576109555 4.076072683893737 1.0383674896507797 33 32 35
0.7906448423564634 4.053524937451074 1.041314069592884 35 35 37
0.8428670011939257 4.028311506256818 1.0447291409395727 36 36 38
0.9631220369189373 4.016156701766961 1.0410265760632242 51 51 55
0.5912262603507621 3.923335095115738 1.0988271761736523 41 39 44
0.6029526067604596 3.930097045501583 1.096471676574725 40 38 43
0.6365409898692795 4.050877290690991 1.0640611604525436 16 14 17
0.622227642561229 4.078938351620437 1.0577463853167601 18 16 19
0.6311354103857985 4.087946606749258 1.0549772948529255 24 22 25
0.650710157131072 4.0882911350714455 1.0538145798997953 19 17 20
0.6732484274782435 4.0862968715598305 1.0530808969216106 13 11 14
0.6907761929187566 4.088424464543263 1.0515794248989079 17 15 18
0.7114523859543003 4.088068882002828 1.0505333635396896 25 23 26
0.7336598951779256 4.086551844004869 1.049697085982905 30 29 31
0.7556093770823573 4.085315473922748 1.0488039589745513 30 30 32
0.7982663901250218 4.067655034278784 1.0509293886814957 31 31 33
0.6372595069139926 4.054030836501644 1.0766376398896924 12 11 14
0.6371679011750837 4.086758732873264 1.0683244049817757 16 14 17
0.6571160897475496 4.086821886037868 1.0672384936525294 20 18 21
0.6809122385772723 4.083834205788461 1.0667216109293363 22 20 23
0.6983017576552799 4.086098144281767 1.0652135727055216 30 28 31
0.6972673763220494 4.103224011052548 1.0609163248159772 38 36 39
0.7379757824872595 4.086851049203224 1.0628944184439606 39 38 41
0.7624490307832619 4.0836174116873645 1.0624037342478374 30 30 32
0.8071449383471763 4.064371551926206 1.0648981483909308 27 27 29
0.8613668173941822 4.037759818889132 1.0687537822482074 31 31 33
0.6306345947566097 3.9476964782677255 1.1175469911681903 13 9 14
0.6518434510502789 4.045822613897498 1.0913897892868134 12 11 13
0.6598906704603433 4.05563141708531 1.0884649838127847 11 10 13
0.6589582759459294 4.0727497110748665 1.0841441662557572 15 15 17
0.6756519668826892 4.075517840725426 1.0825641843974028 26 26 28
0.6971351094394569 4.074458519449324 1.081710616215523 37 37 39
0.7129399952970343 4.078047295973627 1.0799676579305033 39 39 41
0.7124659413443519 4.094754958640983 1.075727677958499 37 37 39
0.7357027121828688 4.0924308494719375 1.075105210808894 27 26 29
0.7734613707234439 4.078596902123129 1.0766609679507892 26 25 28
0.8311093359750508 4.0490983022651905 1.0811746870400802 27 25 28
0.949940752497044 4.038025134542071 1.0777841111334547 49 49 51
0.5937955261823302 3.982347126226519 1.1240770051843016 18 17 19
0.6477377525067205 4.052935442526307 1.1032298287372706 29 29 31
0.6648521614125256 4.055331658411506 1.1017426229432095 32 32 34
0.6737930579712084 4.06442489155329 1.098955473224113 35 35 37
0.6581495869130849 4.093454633445618 1.0923113657000494 31 31 33
0.689284840894433 4.084555490973097 1.0930046821781185 30 30 32
0.7096954999960758 4.084417010843596 1.0919991407711012 29 29 31
0.7214189676380143 4.091317580061537 1.0896321729629115 29 29 31
0.7650346252821634 4.072719527928848 1.092175319614756 33 32 34
0.7961011047020781 4.064316639568375 1.092744925329765 35 33 36
0.8432079364469924 4.04328490057562 1.0957338998297308 33 31 34
0.6267079196544356 4.073890146028327 1.1123266722199037 39 39 41
