ply
format ascii 1.0
element vertex 879
property float x
property float y
property float z
property float nx
property float ny
property float nz
property uchar diffuse_red
property uchar diffuse_green
property uchar diffuse_blue
property uchar class
property uchar detection
end_header
0.5222 2.3662 0.3019 -0.720 -0.124 -0.683 68 66 68 0 0
0.6777 2.3829 0.2989 0.101 -0.994 -0.032 73 69 68 0 0
0.6512 2.3851 0.3010 0.009 -0.989 -0.148 78 74 73 0 0
0.5882 2.3696 0.3088 -0.245 -0.947 0.208 76 72 71 0 0
0.5564 2.3840 0.3099 -0.201 -0.977 -0.066 80 76 77 0 0
0.5216 2.3967 0.3114 -0.831 -0.350 0.432 83 79 82 0 0
0.4217 2.4953 0.3078 -0.658 -0.675 -0.334 42 42 44 0 0
0.3782 2.8666 0.2638 -0.916 0.401 0.035 36 35 39 0 0
0.3911 2.9050 0.2576 -0.971 0.216 -0.103 33 33 35 0 0
0.4959 3.1562 0.2155 -0.930 0.242 0.276 43 41 44 0 0
0.6452 2.3834 0.3153 -0.003 -0.996 0.092 73 70 69 0 0
0.5911 2.3721 0.3217 -0.328 -0.926 0.186 74 71 71 0 0
0.5634 2.3885 0.3221 -0.198 -0.945 -0.260 78 76 77 0 0
0.4129 2.4919 0.3223 -0.874 -0.430 0.227 41 41 43 0 0
0.3756 2.5024 0.3244 -0.663 -0.206 0.720 37 37 39 0 0
0.3412 2.5440 0.3221 -0.645 0.071 0.761 52 52 54 0 0
0.3364 2.5563 0.3210 -0.789 0.414 0.455 63 63 65 0 0
0.4175 2.8280 0.2787 -0.787 -0.291 -0.544 30 29 34 0 0
0.3775 2.8829 0.2753 -0.930 0.319 -0.180 27 27 29 0 0
0.5390 3.2646 0.2116 -0.934 0.204 -0.292 20 20 22 0 0
0.5824 2.3840 0.3344 -0.331 -0.686 0.648 69 68 69 0 0
0.5262 2.4160 0.3353 -0.959 -0.249 -0.139 87 85 86 0 0
0.4784 2.4816 0.3311 -0.943 0.062 -0.326 74 73 78 0 0
0.3876 2.5098 0.3356 -0.558 -0.365 0.745 35 35 37 0 0
0.3374 2.5580 0.3339 -0.472 0.020 0.881 46 46 48 0 0
0.5255 3.2413 0.2299 -0.963 0.168 0.210 15 15 17 0 0
0.6897 3.4921 0.1832 -0.970 0.240 -0.047 64 64 66 0 0
0.3862 2.5250 0.3470 -0.773 -0.302 0.558 35 34 39 0 0
0.3686 2.5606 0.3441 -0.602 0.250 0.758 35 35 37 0 0
0.3180 2.8359 0.3135 -0.606 0.535 -0.588 27 28 30 0 0
0.5307 3.2294 0.2449 -0.941 0.124 0.315 17 17 19 0 0
0.5261 3.2429 0.2436 -0.968 0.243 0.064 15 15 17 0 0
0.6811 3.4880 0.1989 -0.996 0.017 -0.089 60 60 62 0 0
0.5983 2.4088 0.3568 0.248 -0.862 0.443 64 62 66 0 0
0.5237 2.4768 0.3546 -0.813 0.124 0.569 79 78 80 0 0
0.4133 2.4954 0.3617 -0.869 -0.255 -0.423 76 74 77 0 0
0.3920 2.5291 0.3593 -0.843 -0.102 0.528 41 39 43 0 0
0.3856 2.5407 0.3584 -0.765 -0.106 0.635 35 33 37 0 0
0.3822 2.5539 0.3570 -0.810 -0.122 0.574 33 32 35 0 0
0.4102 2.8120 0.3220 -0.301 -0.659 0.689 22 22 22 0 0
0.6818 3.4897 0.2131 -0.927 -0.265 0.266 53 54 56 0 0
0.4070 2.4933 0.3758 -0.869 -0.255 -0.423 61 59 62 0 0
0.4091 2.5093 0.3736 -0.973 -0.160 -0.164 54 52 55 0 0
0.4081 2.5237 0.3719 -0.910 0.133 -0.393 57 55 58 0 0
0.3982 2.5484 0.3696 -0.927 -0.196 0.320 50 48 51 0 0
0.3960 2.5622 0.3681 -0.868 -0.454 0.201 44 42 43 0 0
0.3947 2.5766 0.3664 -0.982 -0.113 0.150 40 39 40 0 0
0.3949 2.5917 0.3645 -0.852 -0.468 0.236 40 41 41 0 0
0.3227 2.5983 0.3697 -0.090 -0.830 0.550 51 52 54 0 0
0.5300 3.2314 0.2727 -0.941 0.007 0.337 24 24 27 0 0
0.5295 3.2474 0.2708 -0.973 0.227 -0.030 15 15 18 0 0
0.3980 2.5046 0.3884 -0.900 0.149 -0.409 40 38 42 0 0
0.4018 2.5215 0.3860 -0.917 0.207 -0.340 40 38 41 0 0
0.4042 2.5377 0.3838 -0.942 0.264 -0.207 43 41 44 0 0
0.4057 2.5534 0.3817 -0.981 0.087 -0.173 49 47 50 0 0
0.4092 2.5703 0.3793 -0.890 -0.331 -0.314 53 51 52 0 0
0.3844 2.6023 0.3774 -0.520 -0.733 -0.439 45 47 46 0 0
0.3614 2.6051 0.3789 -0.103 -0.983 -0.150 40 41 43 0 0
0.5293 3.2485 0.2847 -0.973 0.227 -0.030 17 17 19 0 0
0.6726 3.5033 0.2410 -0.974 -0.005 -0.228 49 49 51 0 0
0.5991 2.3826 0.4005 -0.329 0.039 -0.943 47 47 49 0 0
0.5362 2.3967 0.4039 -0.179 -0.979 -0.102 55 56 57 0 0
0.4047 2.5690 0.3932 -0.890 -0.331 -0.314 29 27 31 0 0
0.4023 2.5828 0.3917 -0.917 -0.191 -0.350 39 38 41 0 0
0.3219 2.6451 0.3905 -0.532 -0.150 0.833 37 36 40 0 0
0.4209 3.0245 0.3353 -0.836 0.359 -0.416 30 30 32 0 0
0.4266 3.0436 0.3325 -0.863 0.450 -0.231 32 32 34 0 0
0.5255 3.2311 0.3012 -0.870 -0.467 0.158 32 32 32 0 0
0.6845 3.5121 0.2534 -0.912 -0.410 -0.000 47 47 49 0 0
0.8509 2.1572 0.4217 -0.185 -0.535 -0.824 47 47 49 0 0
0.6705 2.3583 0.4113 -0.326 -0.420 -0.847 45 45 47 0 0
0.5998 2.4140 0.4101 -0.407 -0.280 -0.870 39 38 43 0 0
0.5327 2.3960 0.4176 -0.268 -0.959 -0.094 41 40 45 0 0
0.4005 2.5830 0.4051 -0.844 -0.143 -0.517 18 19 22 0 0
0.3937 2.5944 0.4043 -0.860 -0.311 -0.404 32 32 34 0 0
0.2396 2.6614 0.4083 -0.262 -0.787 0.559 15 15 17 0 0
0.5385 3.1914 0.3190 -0.616 -0.677 0.403 38 38 41 0 0
0.5295 3.2185 0.3164 -0.726 -0.687 0.028 35 34 37 0 0
0.5205 3.2293 0.3158 -0.641 -0.758 0.123 33 31 32 0 0
0.5138 3.2415 0.3148 -0.905 -0.415 -0.090 22 21 23 0 0
0.6682 3.5200 0.2681 -0.961 -0.215 -0.172 58 58 60 0 0
0.8585 2.1617 0.4342 -0.792 0.575 -0.205 46 46 48 0 0
0.5856 2.3337 0.4345 -0.582 0.688 0.433 34 34 36 0 0
0.5331 2.3973 0.4308 -0.468 -0.841 -0.272 30 29 34 0 0
0.3457 2.3927 0.4461 -0.867 -0.456 0.198 17 15 20 0 0
0.5334 3.1896 0.3337 -0.646 -0.763 -0.019 37 37 40 0 0
0.5289 3.2194 0.3304 -0.847 -0.528 0.057 39 39 41 0 0
0.5216 3.2312 0.3295 -0.604 -0.779 0.168 33 31 34 0 0
0.5136 3.2426 0.3287 -0.797 -0.602 0.051 24 24 26 0 0
0.6574 3.5145 0.2841 -0.865 -0.499 0.057 48 48 52 0 0
0.6502 3.5268 0.2832 -0.923 -0.019 -0.385 59 62 61 0 0
0.3936 2.5966 0.4307 -0.929 0.021 -0.370 13 11 14 0 0
0.3613 2.8995 0.3963 -0.999 -0.034 -0.034 13 13 15 0 0
0.5348 3.1917 0.3473 -0.811 -0.441 0.383 36 36 38 0 0
0.5135 3.2438 0.3426 -0.797 -0.602 0.051 25 25 28 0 0
0.5334 3.2722 0.3376 -0.978 -0.120 0.173 14 14 16 0 0
0.3835 2.9134 0.4064 -0.722 -0.669 0.173 14 14 16 0 0
0.5296 3.1898 0.3619 -0.980 0.066 0.187 35 35 37 0 0
0.5411 3.2618 0.3523 -0.893 -0.444 -0.069 30 29 32 0 0
0.5349 3.2744 0.3513 -0.893 -0.444 -0.069 15 15 17 0 0
0.5309 3.2883 0.3499 -1.000 0.004 -0.013 14 14 17 0 0
0.3492 2.8486 0.4303 0.177 -0.957 0.228 13 13 15 0 0
0.5452 3.2492 0.3676 -0.880 -0.439 -0.184 32 32 34 0 0
0.5392 3.2619 0.3665 -0.880 -0.439 -0.184 37 37 39 0 0
0.5336 3.2748 0.3654 -0.893 -0.444 -0.069 16 16 18 0 0
0.6189 3.4101 0.3428 -0.968 0.119 0.219 14 13 18 0 0
0.5348 3.2604 0.3811 -0.961 -0.260 -0.098 34 34 36 0 0
0.5311 3.2745 0.3796 -0.961 -0.260 -0.098 22 22 24 0 0
0.5274 3.2886 0.3782 -0.961 -0.260 -0.098 15 14 18 0 0
0.5376 3.2634 0.3945 -0.894 -0.441 0.077 32 32 34 0 0
0.5304 3.3081 0.3897 -0.985 -0.078 0.151 13 12 17 0 0
0.5289 3.3236 0.3880 -0.985 -0.078 0.151 13 12 17 0 0
0.6246 3.4496 0.3662 -0.951 -0.304 -0.060 23 24 27 0 0
0.6418 3.5279 0.3557 -0.990 0.144 -0.002 38 39 42 0 0
0.3945 2.6027 0.4966 -0.956 -0.286 -0.070 21 21 23 0 0
0.3923 2.9387 0.4571 -0.644 0.146 -0.751 23 23 25 0 0
0.5430 3.2679 0.4077 -0.924 -0.254 0.287 32 31 34 0 0
0.5372 3.2807 0.4066 -0.775 -0.575 0.260 25 23 26 0 0
0.5300 3.3091 0.4037 -0.862 -0.385 0.329 16 14 19 0 0
0.5242 3.3220 0.4026 -0.844 -0.401 0.356 14 14 16 0 0
0.6235 3.4502 0.3805 -0.951 -0.304 -0.060 15 15 17 0 0
0.3982 2.4860 0.5234 -0.827 -0.479 0.294 13 13 15 0 0
0.5400 3.2836 0.4201 -0.878 -0.358 0.318 22 20 23 0 0
0.5275 3.3252 0.4161 -0.862 -0.385 0.329 13 13 15 0 0
0.6208 3.4666 0.3931 -0.991 0.020 -0.129 19 19 21 0 0
0.6506 3.5530 0.3809 -0.975 0.221 -0.007 43 42 46 0 0
0.4131 2.4650 0.5382 -0.912 -0.334 -0.239 32 30 33 0 0
0.4088 2.4777 0.5370 -0.912 -0.334 -0.239 22 22 24 0 0
0.3940 2.6046 0.5232 -0.963 -0.268 -0.020 19 19 21 0 0
0.3547 2.7500 0.5088 -0.864 0.499 0.069 28 28 30 0 0
0.3432 2.7589 0.5085 -0.628 0.504 0.593 29 28 30 0 0
0.5517 3.2757 0.4343 -0.918 -0.102 0.383 36 34 37 0 0
0.5435 3.2870 0.4336 -0.814 -0.474 0.335 19 17 20 0 0
0.5361 3.2989 0.4327 -0.814 -0.474 0.335 16 14 18 0 0
0.6143 3.4637 0.4082 -0.849 0.074 0.524 16 16 18 0 0
0.6523 3.5554 0.3950 -0.976 0.189 0.106 40 39 44 0 0
0.4036 2.5507 0.5421 -0.917 -0.394 -0.057 42 42 44 0 0
0.3936 2.6055 0.5364 -0.988 -0.152 -0.001 16 16 18 0 0
0.3661 2.7270 0.5241 -0.765 0.320 0.559 33 33 35 0 0
0.3722 2.7456 0.5216 -0.711 0.265 0.652 32 32 34 0 0
0.4187 2.8328 0.5084 -0.298 -0.527 -0.796 33 31 34 0 0
0.5558 3.1491 0.4628 -0.699 0.679 -0.226 31 31 33 0 0
0.6520 3.5565 0.4093 -0.988 0.074 0.134 39 38 42 0 0
0.4232 2.4427 0.5667 -0.828 -0.416 0.376 26 26 28 0 0
0.4210 2.4564 0.5652 -0.984 -0.063 0.164 29 29 31 0 0
0.4038 2.5519 0.5553 -0.902 -0.417 0.110 38 39 41 0 0
0.4192 2.8188 0.5236 -0.231 -0.571 -0.788 33 33 35 0 0
0.6541 3.5591 0.4233 -0.988 0.074 0.134 38 38 40 0 0
0.8842 2.1701 0.5824 0.143 -0.967 0.209 45 45 47 0 0
0.4044 2.5534 0.5684 -0.940 -0.312 0.135 32 32 34 0 0
0.3975 2.5797 0.5659 -0.976 -0.213 0.042 19 19 21 0 0
0.3997 2.5959 0.5639 -0.996 -0.059 0.071 23 23 25 0 0
0.5114 3.2711 0.4796 -0.512 -0.827 0.232 23 21 24 0 0
0.5083 3.2855 0.4782 -0.147 -0.866 0.479 19 17 20 0 0
0.4660 2.2893 0.6081 -0.394 0.118 0.912 18 18 20 0 0
0.4338 2.7829 0.5539 -0.782 -0.308 -0.541 38 38 40 0 0
0.5120 3.2727 0.4934 -0.592 -0.640 0.490 22 20 23 0 0
0.5046 2.2649 0.6217 -0.305 -0.334 0.892 16 16 18 0 0
0.5153 3.2759 0.5069 -0.755 -0.405 0.515 21 21 23 0 0
0.6775 3.5099 0.4708 -0.913 0.385 0.132 17 17 19 0 0
0.6974 3.5565 0.4644 -0.916 -0.084 0.392 21 20 21 0 0
0.6620 3.5681 0.4652 -0.807 0.016 0.591 37 35 39 0 0
0.6868 3.6010 0.4600 -0.935 0.354 -0.004 39 37 41 0 0
0.7927 2.1479 0.6315 0.125 -0.897 -0.425 51 51 53 0 0
0.4351 2.4978 0.6129 -0.964 -0.206 0.167 24 24 26 0 0
0.7075 3.5302 0.4813 -0.979 -0.026 0.204 13 13 15 0 0
0.7069 3.5468 0.4794 -0.944 0.007 0.329 14 14 16 0 0
0.9575 2.1465 0.6359 0.012 -0.995 -0.098 42 42 44 0 0
0.4417 2.5023 0.6254 -0.767 -0.314 0.560 35 35 37 0 0
0.4573 2.8149 0.5896 -0.818 0.147 0.556 39 39 41 0 0
0.4740 2.9649 0.5720 -0.625 0.766 0.151 39 39 41 0 0
0.9734 2.1095 0.6530 -0.557 -0.071 -0.827 44 44 47 0 0
0.4386 2.6676 0.6206 -0.847 -0.515 0.134 46 45 50 0 0
0.6793 3.5149 0.5135 -0.874 0.438 0.212 12 12 14 0 0
0.7251 2.1801 0.6724 -0.641 -0.691 0.334 30 30 32 0 0
0.4431 2.6560 0.6351 -0.673 -0.630 0.388 44 43 48 0 0
0.4609 2.7266 0.6264 -0.733 0.001 -0.680 44 43 46 0 0
0.6675 3.6451 0.5143 -0.993 -0.102 0.052 53 50 57 0 0
0.8897 3.8962 0.4748 -0.739 0.643 -0.202 170 169 166 0 0
0.7438 2.1748 0.6855 -0.481 -0.870 0.107 32 32 34 0 0
0.7405 2.1881 0.6842 -0.348 -0.937 0.022 30 30 32 0 0
0.4431 2.5213 0.6633 -0.919 -0.378 0.108 26 26 28 0 0
0.4441 2.5819 0.6566 -0.948 0.315 -0.049 36 36 38 0 0
0.4671 2.7311 0.6391 -0.684 0.055 -0.727 42 41 44 0 0
0.5106 2.7857 0.6309 -0.241 -0.907 0.346 42 42 44 0 0
0.6702 3.6482 0.5283 -0.993 -0.119 -0.009 49 46 53 0 0
0.7429 3.8705 0.5003 -0.166 -0.411 0.896 170 170 168 0 0
1.1001 2.0459 0.6950 0.134 -0.756 -0.641 161 159 160 0 0
0.4834 2.4830 0.6788 -0.470 -0.190 0.862 38 38 40 0 0
0.7032 3.6365 0.5425 -0.710 -0.586 0.390 38 35 42 0 0
0.6777 3.6543 0.5418 -0.921 -0.199 0.335 49 46 53 0 0
0.7728 3.8919 0.5112 -0.096 -0.467 0.879 170 170 168 0 0
0.9172 2.0602 0.7165 -0.411 -0.259 -0.874 41 42 47 0 0
0.5033 2.3159 0.7092 -0.488 -0.762 0.424 26 26 28 0 0
0.4901 2.3242 0.7090 -0.483 -0.805 0.345 29 29 31 0 0
0.4502 2.4525 0.6971 -0.929 -0.281 0.240 41 41 43 0 0
0.4930 2.4890 0.6911 -0.550 -0.339 0.763 41 41 43 0 0
0.4952 2.8261 0.6546 -0.558 0.560 0.612 38 37 42 0 0
0.6481 3.2502 0.6014 -0.720 -0.503 -0.479 28 28 30 0 0
0.7172 3.6468 0.5553 -0.875 -0.447 0.188 37 34 41 0 0
0.6948 3.6496 0.5561 -0.876 -0.476 -0.083 40 37 44 0 0
0.6833 3.6593 0.5556 -0.828 -0.214 0.518 48 45 52 0 0
0.7480 2.1948 0.7238 0.164 -0.970 -0.177 27 27 29 0 0
0.5068 2.3187 0.7221 -0.666 -0.745 0.016 27 27 29 0 0
0.4942 2.3273 0.7217 -0.545 -0.838 0.022 30 30 32 0 0
0.4513 2.4392 0.7118 -0.710 -0.567 0.417 42 42 44 0 0
0.4426 2.4497 0.7111 -0.710 -0.567 0.417 42 42 44 0 0
0.4851 2.5462 0.6987 -0.795 0.333 0.507 42 42 44 0 0
0.7220 3.6512 0.5692 -0.928 -0.372 0.021 36 34 41 0 0
0.6967 3.6521 0.5703 -0.871 -0.382 0.310 38 36 43 0 0
0.6922 3.6664 0.5690 -0.762 -0.245 0.599 44 42 48 0 0
0.7494 2.1965 0.7372 0.057 -0.998 -0.026 25 25 27 0 0
0.4985 2.3305 0.7345 -0.706 -0.708 -0.000 32 32 34 0 0
0.4560 2.4427 0.7245 -0.947 0.001 0.320 42 42 44 0 0
0.5145 2.5473 0.7107 -0.728 0.435 0.529 44 44 46 0 0
0.5349 2.5730 0.7071 -0.746 0.536 0.395 44 44 46 0 0
0.5326 2.7248 0.6910 -0.767 -0.096 -0.634 38 38 40 0 0
0.7198 3.6511 0.5839 -0.728 -0.628 -0.276 35 34 39 0 0
0.6974 3.6711 0.5828 -0.803 -0.284 0.524 46 45 50 0 0
0.8750 2.0161 0.7642 -0.185 -0.247 -0.951 43 44 49 0 0
0.4937 2.3440 0.7466 -0.681 -0.732 0.006 34 34 36 0 0
0.5145 2.3837 0.7415 -0.987 0.114 -0.115 36 36 38 0 0
0.4572 2.4444 0.7376 -0.737 -0.636 0.228 42 42 44 0 0
0.4275 2.4443 0.7390 -0.770 -0.596 -0.225 42 42 44 0 0
0.5312 2.9596 0.6800 -0.782 -0.352 -0.515 33 33 35 0 0
0.5268 2.9729 0.6787 -0.869 -0.303 -0.391 33 33 35 0 0
0.5058 2.3214 0.7618 -0.937 -0.182 -0.298 30 30 32 0 0
0.4964 2.3316 0.7611 -0.995 -0.094 -0.020 32 32 34 0 0
0.5501 2.5983 0.7308 -0.441 -0.671 -0.596 41 41 43 0 0
0.5177 2.5967 0.7324 -0.549 -0.819 -0.164 40 40 42 0 0
0.5912 3.2866 0.6569 -0.848 -0.530 0.024 30 30 32 0 0
0.5980 3.3901 0.6458 -0.755 0.501 0.423 13 13 15 0 0
0.4967 2.3476 0.7727 -0.236 -0.899 0.370 33 33 35 0 0
0.5236 2.8633 0.7180 -0.962 0.071 0.264 31 30 35 0 0
0.5130 2.8730 0.7174 -0.971 0.204 -0.126 31 30 34 0 0
0.5260 2.9749 0.7062 -0.982 -0.169 0.083 25 25 27 0 0
0.5210 2.9878 0.7051 -0.984 -0.173 0.037 25 25 27 0 0
0.5859 3.1540 0.6851 -0.979 -0.202 -0.014 22 22 24 0 0
0.5921 2.0288 0.8152 -0.667 0.728 0.162 37 37 39 0 0
0.6348 2.0619 0.8100 -0.634 0.765 0.112 35 34 38 0 0
0.5448 2.6283 0.7551 -0.208 -0.384 0.900 35 35 37 0 0
0.5155 2.9700 0.7210 -0.964 -0.257 -0.071 21 21 23 0 0
0.5410 3.0164 0.7152 -0.333 -0.730 -0.597 21 21 23 0 0
0.5848 3.1545 0.6992 -0.954 -0.296 -0.055 20 20 22 0 0
0.8897 3.9442 0.6053 -0.765 0.638 -0.089 169 169 169 0 0
0.5995 2.0331 0.8277 -0.618 0.751 0.234 36 36 40 0 0
0.5157 2.9872 0.7331 -0.962 -0.071 0.263 19 19 21 0 0
0.8995 3.9522 0.6192 -0.733 0.678 -0.051 170 169 169 0 0
0.4705 2.6526 0.7826 -0.279 0.071 0.958 29 29 31 0 0
0.5394 2.8130 0.7637 -0.620 0.748 0.235 26 26 28 0 0
0.6083 3.3351 0.7080 -0.776 -0.134 0.616 17 17 19 0 0
0.6508 3.4112 0.6987 -0.573 0.355 0.739 14 14 16 0 0
0.5937 1.9896 0.8588 -0.826 0.450 0.338 59 59 61 0 0
0.5067 2.4013 0.8203 -0.834 0.226 -0.504 32 32 34 0 0
0.5472 2.7872 0.7798 -0.477 -0.530 -0.701 24 24 26 0 0
0.5464 2.8180 0.7767 -0.885 -0.454 0.101 24 24 26 0 0
0.5958 3.3286 0.7233 -0.788 -0.404 0.464 18 18 20 0 0
0.9058 3.9591 0.6485 -0.723 0.690 -0.039 169 169 169 0 0
0.5930 1.9904 0.8719 -0.686 -0.723 -0.075 53 53 55 0 0
0.5728 1.9959 0.8721 -0.844 -0.521 -0.126 41 41 44 0 0
0.5422 2.2865 0.8440 -0.502 -0.833 -0.230 21 21 23 0 0
0.5081 2.7517 0.7984 -0.990 0.134 -0.050 22 22 24 0 0
0.5331 2.7807 0.7947 -0.687 -0.144 -0.712 21 21 23 0 0
0.5355 2.7976 0.7929 -0.828 -0.005 -0.561 21 21 23 0 0
0.5926 3.0670 0.7639 -0.884 -0.429 -0.186 16 16 18 0 0
0.5957 3.0849 0.7620 -0.732 -0.636 -0.243 16 16 18 0 0
0.6020 3.1047 0.7598 -0.215 -0.961 -0.175 16 16 18 0 0
0.5819 3.1091 0.7600 -0.215 -0.961 -0.175 16 16 18 0 0
0.5487 3.1219 0.7599 -0.937 0.297 0.184 18 18 20 0 0
0.5800 3.3037 0.7406 -0.986 0.166 -0.031 17 17 19 0 0
0.9079 3.9619 0.6632 -0.714 0.694 -0.093 168 167 167 0 0
0.5893 2.0185 0.8825 -0.773 -0.201 -0.602 27 26 31 0 0
0.6065 2.0403 0.8797 -0.746 0.342 -0.571 21 20 23 0 0
0.5684 2.2853 0.8566 -0.956 -0.293 0.025 20 20 22 0 0
0.5251 2.2795 0.8586 -0.548 -0.791 -0.272 21 21 23 0 0
0.4785 2.2865 0.8594 -0.796 0.514 0.319 22 22 24 0 0
0.5397 2.4049 0.8456 -0.940 -0.328 -0.089 28 28 30 0 0
0.5613 2.5208 0.8333 -0.805 -0.391 -0.447 25 25 27 0 0
0.6033 2.7265 0.8115 -0.777 -0.629 -0.005 23 23 25 0 0
0.5042 2.6891 0.8185 -0.979 0.152 0.136 24 24 26 0 0
0.5158 2.7570 0.8113 -0.981 -0.171 0.093 21 21 23 0 0
0.5270 2.7786 0.8088 -0.576 -0.314 -0.755 20 20 22 0 0
0.5096 2.7846 0.8088 -0.929 -0.259 -0.265 20 20 22 0 0
0.5706 2.2874 0.8697 -0.991 -0.124 -0.053 19 19 21 0 0
0.5584 2.2964 0.8692 -0.898 -0.401 -0.181 20 20 22 0 0
0.5409 2.3027 0.8691 -0.786 -0.467 -0.404 20 20 22 0 0
0.5349 2.3147 0.8681 -0.801 -0.128 -0.585 21 21 23 0 0
0.5488 2.3509 0.8641 -0.945 0.284 -0.161 25 25 27 0 0
0.5694 2.4958 0.8491 -0.947 -0.287 -0.146 24 24 26 0 0
0.5687 2.5257 0.8462 -0.907 -0.181 -0.380 21 21 23 0 0
0.5138 2.7416 0.8266 -0.977 0.008 -0.214 21 21 23 0 0
0.5182 2.7595 0.8247 -0.883 -0.431 -0.188 20 20 22 0 0
0.5113 2.7712 0.8237 -0.870 -0.410 -0.273 20 20 22 0 0
0.5066 2.7841 0.8226 -0.883 -0.431 -0.188 20 20 22 0 0
0.5904 3.1652 0.7823 -0.790 0.363 0.494 28 28 30 0 0
0.5874 3.1796 0.7809 -0.902 0.287 0.321 35 35 37 0 0
0.7000 1.9675 0.9106 -0.753 -0.197 -0.628 88 86 87 0 0
0.7018 1.9827 0.9090 -0.780 0.181 -0.600 83 82 83 0 0
0.7253 2.0072 0.9059 -0.495 -0.370 -0.786 80 80 80 0 0
0.5849 2.2805 0.8833 -0.897 -0.240 0.370 18 18 20 0 0
0.5636 2.2852 0.8835 -0.937 -0.342 -0.073 18 18 20 0 0
0.5444 2.2908 0.8835 -0.730 -0.669 -0.135 18 18 20 0 0
0.5351 2.3011 0.8828 -0.730 -0.669 -0.135 18 18 20 0 0
0.5247 2.3108 0.8821 -0.817 -0.575 0.047 20 20 22 0 0
0.5379 2.3467 0.8782 -0.907 0.418 -0.058 23 23 25 0 0
0.5605 2.4924 0.8633 -0.887 -0.259 0.382 22 22 24 0 0
0.5668 2.5258 0.8598 -0.989 -0.073 -0.131 19 19 21 0 0
0.5397 2.5272 0.8605 -0.784 -0.612 -0.106 19 19 21 0 0
0.5152 2.7590 0.8385 -0.759 -0.615 -0.214 19 19 21 0 0
0.5106 2.7720 0.8373 -0.937 -0.109 -0.332 20 20 22 0 0
0.5115 2.7880 0.8357 -0.954 0.225 -0.198 20 20 22 0 0
0.5843 3.2936 0.7839 -0.674 -0.415 -0.611 20 20 22 0 0
0.6094 3.3585 0.7768 -0.906 0.189 0.379 15 15 17 0 0
0.6289 3.3873 0.7734 -0.819 0.528 0.226 13 13 15 0 0
0.6892 1.9640 0.9246 -0.753 -0.197 -0.628 94 90 93 0 0
0.6924 1.9797 0.9230 -0.789 0.102 -0.606 82 79 81 0 0
0.5590 2.2841 0.8971 -0.864 -0.493 0.104 17 17 19 0 0
0.5505 2.2948 0.8963 -0.599 -0.795 0.092 17 17 19 0 0
0.6331 3.3246 0.7937 -0.866 -0.421 -0.270 18 18 20 0 0
0.6280 3.3380 0.7925 -0.697 -0.698 -0.167 16 16 18 0 0
0.6471 3.3998 0.7860 -0.912 0.402 -0.079 13 13 15 0 0
0.7039 3.6393 0.7610 -0.759 -0.218 0.614 34 34 34 0 0
0.6704 1.8714 0.9474 -0.223 -0.543 0.810 80 79 77 0 0
0.6580 1.9375 0.9413 -0.734 0.226 -0.640 112 108 106 0 0
0.4949 2.3281 0.9080 -0.914 0.206 -0.351 19 19 21 0 0
0.5689 2.4838 0.8909 -0.933 -0.346 0.093 18 18 20 0 0
0.6450 3.3331 0.8068 -0.482 -0.837 0.257 18 18 20 0 0
0.6421 3.3479 0.8054 -0.137 -0.988 -0.064 16 16 18 0 0
0.7069 3.6597 0.7736 -0.909 -0.291 0.299 34 34 33 0 0
0.6394 1.9307 0.9557 -0.659 0.114 -0.743 78 75 74 0 0
0.6696 1.9578 0.9523 -0.763 -0.160 -0.626 67 66 68 0 0
0.5326 2.3475 0.9185 -0.722 0.043 -0.691 18 18 20 0 0
0.5690 2.4850 0.9044 -0.831 -0.455 -0.321 17 17 19 0 0
0.6228 2.9314 0.8602 -0.781 0.595 0.192 14 14 16 0 0
0.6509 3.3379 0.8205 -0.408 -0.913 -0.005 17 17 19 0 0
0.6022 3.3247 0.8230 -0.283 -0.944 0.168 16 16 18 0 0
0.7095 3.6627 0.7878 -0.945 -0.251 0.212 35 35 35 0 0
0.7184 1.9076 0.9692 -0.287 -0.946 -0.151 109 104 104 0 0
0.6215 1.9242 0.9700 -0.743 0.098 -0.662 65 61 63 0 0
0.5224 2.3436 0.9325 -0.821 0.030 -0.571 16 16 18 0 0
0.5299 2.4965 0.9177 -0.941 -0.250 -0.230 16 16 18 0 0
0.5256 2.5094 0.9166 -0.927 -0.314 -0.206 16 16 18 0 0
0.5686 2.5464 0.9121 -0.818 -0.335 0.469 15 15 17 0 0
0.5692 2.5619 0.9106 -0.743 -0.467 0.480 14 14 16 0 0
0.5750 2.7029 0.8970 -0.739 0.409 -0.535 14 14 16 0 0
0.5799 3.0360 0.8652 -1.000 0.002 -0.021 13 13 15 0 0
0.6515 3.3395 0.8346 -0.386 -0.812 0.438 17 17 19 0 0
0.5937 3.4038 0.8299 -0.810 0.321 -0.491 11 11 13 0 0
0.7209 3.6541 0.8030 -0.863 -0.315 0.395 34 34 36 0 0
0.7164 3.6685 0.8017 -0.908 -0.271 0.320 37 37 38 0 0
0.6996 3.7095 0.7982 -0.861 0.484 0.153 42 43 48 0 0
0.6568 1.8547 0.9890 -0.797 -0.565 0.214 70 66 67 0 0
0.6616 1.8709 0.9873 -0.968 -0.055 -0.245 70 66 66 0 0
0.6813 1.8933 0.9848 -0.493 0.111 -0.863 77 74 71 0 0
0.6189 1.9242 0.9833 -0.799 0.171 -0.577 52 50 55 0 0
0.5900 2.5737 0.9226 -0.494 -0.196 0.847 14 14 16 0 0
0.6056 3.0359 0.8786 -0.741 -0.658 0.132 13 13 15 0 0
0.5765 3.0352 0.8793 -0.898 -0.041 0.439 14 14 16 0 0
0.6211 3.3388 0.8496 -0.446 -0.792 0.418 15 15 17 0 0
0.5839 3.3989 0.8448 -0.924 0.327 -0.197 11 11 13 0 0
0.7250 3.6581 0.8172 -0.908 -0.271 0.320 34 33 38 0 0
1.1184 1.7782 0.9995 0.250 -0.967 -0.044 163 163 163 0 0
0.6647 1.9017 0.9976 -0.582 0.185 -0.792 50 49 51 0 0
0.6360 1.9182 0.9967 -0.759 0.295 -0.580 41 39 42 0 0
0.6512 1.9389 0.9944 -0.946 0.182 0.267 34 33 37 0 0
0.6071 3.0379 0.8924 -0.585 -0.540 0.605 14 14 16 0 0
0.6389 3.2188 0.8748 -0.988 0.130 0.079 22 22 24 0 0
0.6456 3.3551 0.8619 -0.608 -0.499 -0.618 15 15 17 0 0
0.5884 3.4030 0.8586 -0.980 0.195 0.041 11 11 13 0 0
0.7244 3.6590 0.8317 -0.594 -0.803 0.042 34 33 38 0 0
0.6947 3.6570 0.8325 -0.768 -0.577 -0.279 37 36 41 0 0
0.8591 1.7955 1.0169 0.019 -0.984 -0.174 39 39 41 0 0
0.6413 1.9500 1.0068 0.004 -0.699 0.715 25 25 27 0 0
0.6072 3.0392 0.9063 -0.882 -0.426 -0.200 18 18 20 0 0
0.6377 3.3183 0.8797 -0.590 -0.133 -0.797 17 17 19 0 0
0.7079 3.6496 0.8476 -0.993 0.119 -0.029 34 33 38 0 0
0.8751 1.7598 1.0333 -0.932 -0.123 -0.341 54 54 59 0 0
0.8553 1.7950 1.0304 0.003 -0.997 -0.078 37 38 39 0 0
0.8152 1.7936 1.0313 -0.120 -0.907 -0.404 40 41 41 0 0
0.6507 1.8412 1.0299 -0.515 -0.729 0.450 30 29 33 0 0
0.6408 1.8513 1.0292 -0.852 -0.522 -0.052 28 28 29 0 0
0.6523 1.8702 1.0272 -0.993 0.115 0.024 27 27 29 0 0
0.5831 2.5279 0.9679 -0.907 0.288 0.307 14 14 16 0 0
0.6732 3.5601 0.8711 -0.800 0.569 -0.190 17 17 19 0 0
0.6920 3.6407 0.8633 -0.990 0.138 0.006 35 34 39 0 0
0.8647 1.7568 1.0472 -0.682 -0.666 -0.303 55 55 60 0 0
0.6626 3.5547 0.8862 -0.762 0.536 -0.365 18 18 20 0 0
0.6615 3.6051 0.8816 -0.770 -0.579 -0.268 34 33 38 0 0
0.6856 3.6378 0.8783 -0.955 0.037 -0.294 35 35 40 0 0
0.5863 2.9035 0.9609 -0.946 -0.306 -0.108 14 14 16 0 0
0.6489 3.5812 0.8985 -0.840 0.534 -0.094 33 32 37 0 0
0.7411 3.7621 0.8807 -0.764 0.602 0.233 51 50 54 0 0
1.1566 1.7833 1.0677 0.211 -0.977 0.017 167 167 167 0 0
0.8899 1.7830 1.0714 -0.842 0.476 -0.253 40 41 43 0 0
0.5764 2.3626 1.0236 -0.330 -0.309 0.892 14 14 16 0 0
0.5807 2.9016 0.9751 -0.886 -0.419 -0.198 14 14 16 0 0
0.6703 3.2602 0.9416 -0.849 -0.402 0.344 16 16 18 0 0
0.6809 3.6374 0.9075 -0.835 -0.089 -0.543 36 35 40 0 0
0.6727 3.6492 0.9066 -0.936 -0.299 -0.185 36 37 41 0 0
1.1523 1.7827 1.0817 0.210 -0.977 0.021 166 166 166 0 0
0.6882 3.2556 0.9560 -0.497 -0.756 0.426 15 15 17 0 0
0.6751 3.2643 0.9554 -0.602 -0.655 0.456 16 16 18 0 0
0.6413 3.5279 0.9323 -0.795 0.606 0.036 21 19 22 0 0
0.6643 3.5766 0.9277 -0.821 0.563 0.094 30 30 34 0 0
0.6839 3.6407 0.9217 -0.866 -0.138 -0.481 35 36 40 0 0
1.1475 1.7820 1.0957 0.210 -0.977 0.021 167 167 167 0 0
0.6700 1.8684 1.0932 -0.755 -0.515 -0.406 23 23 25 0 0
0.6053 2.2304 1.0619 -0.897 -0.440 0.033 15 15 17 0 0
0.6001 2.2427 1.0609 -0.973 -0.217 0.081 15 15 17 0 0
0.6741 2.6568 1.0235 -0.911 0.157 0.381 14 14 16 0 0
0.6573 3.6419 0.9365 -0.798 -0.489 -0.352 37 38 42 0 0
0.6765 1.8579 1.1073 -0.478 -0.758 -0.444 42 42 44 0 0
0.5933 2.2407 1.0746 -0.900 -0.383 0.209 16 16 18 0 0
0.6156 2.3848 1.0617 -0.345 -0.444 -0.827 19 19 21 0 0
0.6820 2.6620 1.0368 -0.970 0.238 -0.044 18 16 20 0 0
0.6702 2.6714 1.0361 -0.661 -0.152 0.735 18 16 19 0 0
0.6017 2.9010 1.0166 -0.889 0.369 0.271 47 47 49 0 0
0.6192 3.4995 0.9639 -0.731 0.671 0.124 15 15 17 0 0
0.7225 3.7203 0.9436 -0.838 0.461 -0.291 37 38 42 0 0
0.7199 3.7372 0.9568 -0.797 0.580 -0.170 37 37 41 0 0
0.6424 1.8743 1.1326 -0.419 -0.904 -0.091 30 28 31 0 0
0.5498 2.5049 1.0789 -0.941 0.154 0.300 43 42 48 0 0
0.5549 2.5377 1.0760 -0.948 0.116 0.298 43 42 47 0 0
0.6865 2.6511 1.0654 -0.895 0.137 0.425 42 41 46 0 0
0.6936 3.2638 1.0125 -0.267 -0.935 -0.231 23 23 25 0 0
0.7113 3.7156 0.9734 -0.834 0.431 -0.345 37 37 39 0 0
0.6226 1.8813 1.1453 -0.525 -0.810 -0.261 29 27 32 0 0
0.6166 1.9072 1.1432 -0.787 -0.292 -0.543 12 12 14 0 0
0.6134 1.9201 1.1421 -0.791 -0.273 -0.548 11 11 13 0 0
0.5022 2.2597 1.1136 -0.360 -0.088 0.929 28 28 31 0 0
0.6981 2.6582 1.0786 -0.739 0.271 0.616 44 43 48 0 0
0.7029 3.7114 0.9885 -0.834 0.431 -0.345 36 36 38 0 0
0.6082 1.9047 1.1566 -0.917 -0.301 -0.263 13 13 15 0 0
0.6160 1.9222 1.1551 -0.928 0.119 -0.353 11 11 13 0 0
0.5373 2.2922 1.1240 -0.433 -0.189 0.881 39 39 43 0 0
0.5947 2.5450 1.1024 -0.834 -0.548 -0.058 39 39 41 0 0
0.6011 2.5635 1.1008 -0.479 -0.815 0.327 39 38 41 0 0
0.7427 3.0164 1.0619 -0.553 -0.560 0.617 23 22 27 0 0
0.6696 3.2685 1.0408 -0.626 -0.740 -0.248 26 26 28 0 0
0.6758 3.6604 1.0076 -0.928 0.305 0.215 40 39 44 0 0
0.6955 3.6905 1.0050 -0.924 0.324 -0.202 39 39 41 0 0
0.5703 2.2942 1.1371 -0.613 -0.206 0.763 40 39 44 0 0
0.5641 2.3061 1.1362 -0.585 -0.261 0.768 42 41 46 0 0
0.6840 2.6069 1.1106 -0.795 -0.598 -0.106 19 19 21 0 0
0.6957 2.7687 1.0970 -0.767 -0.522 -0.373 22 22 25 0 0
0.6471 3.1415 1.0658 -0.892 0.231 0.390 14 14 16 0 0
0.6745 3.2727 1.0547 -0.996 -0.074 0.040 25 25 27 0 0
0.6895 3.6190 1.0256 -0.339 -0.871 0.356 37 37 39 0 0
0.6033 1.8764 1.1853 -0.775 -0.631 -0.031 17 15 18 0 0
0.6139 1.8950 1.1838 -0.863 -0.287 0.415 14 12 15 0 0
0.5945 2.2772 1.1520 -0.660 -0.312 0.684 41 40 45 0 0
0.5790 2.2847 1.1513 -0.568 -0.504 0.651 41 41 46 0 0
0.6904 2.5958 1.1254 -0.795 -0.598 -0.106 17 17 19 0 0
0.6821 2.6070 1.1244 -0.795 -0.598 -0.106 18 18 20 0 0
0.6709 2.6168 1.1236 -0.962 -0.082 0.260 20 20 22 0 0
0.7271 2.7550 1.1121 -0.911 0.312 0.271 18 18 20 0 0
0.7170 2.8921 1.1007 -0.569 -0.183 0.802 32 32 34 0 0
0.7233 2.9115 1.0991 -0.740 -0.150 0.655 37 36 40 0 0
0.7336 2.9332 1.0973 -0.716 0.363 0.596 39 38 42 0 0
0.7377 2.9515 1.0957 -0.714 0.530 0.457 31 31 33 0 0
0.7423 2.9701 1.0942 -0.741 0.451 0.497 19 19 21 0 0
0.7951 3.0319 1.0890 -0.773 0.394 0.497 13 13 15 0 0
0.6937 3.6230 1.0398 -0.154 -0.970 0.186 37 37 39 0 0
0.6076 2.2845 1.1648 -0.727 -0.316 0.609 43 42 47 0 0
0.6959 2.3862 1.1565 -0.360 0.322 0.876 17 19 21 0 0
0.7557 2.8984 1.1143 -0.474 -0.422 -0.773 36 36 38 0 0
0.7135 2.9073 1.1135 -0.491 -0.006 -0.871 31 31 35 0 0
0.7191 2.9264 1.1119 -0.493 -0.428 -0.757 18 17 21 0 0
0.8516 3.0810 1.0993 -0.302 0.094 0.949 13 13 15 0 0
0.8326 3.8904 1.0325 -0.912 0.400 0.085 60 59 64 0 0
0.8381 1.8028 1.2182 -0.080 -0.869 0.488 24 23 29 0 0
0.8113 1.8065 1.2178 -0.017 -0.816 0.578 25 24 29 0 0
0.7768 1.8071 1.2177 -0.017 -0.816 0.578 48 46 51 0 0
0.6232 1.8584 1.2131 -0.851 -0.282 0.443 22 21 23 0 0
0.6181 1.8705 1.2121 -0.807 -0.417 0.418 20 18 21 0 0
0.6314 1.9044 1.2094 -0.507 -0.422 0.752 18 16 19 0 0
0.6225 2.2040 1.1849 -0.887 -0.013 0.462 19 18 20 0 0
0.7177 2.3676 1.1717 -0.458 0.333 0.825 17 15 21 0 0
0.7383 2.8901 1.1290 -0.291 -0.759 -0.583 41 41 43 0 0
0.8724 3.0774 1.1140 -0.534 0.372 0.759 13 13 15 0 0
0.6753 3.2934 1.0959 -0.929 -0.283 -0.237 16 16 18 0 0
0.8245 3.8686 1.0492 -0.913 0.385 0.136 63 62 67 0 0
0.8353 3.8935 1.0472 -0.901 0.426 0.080 85 84 88 0 0
0.8510 1.8089 1.2312 -0.080 -0.869 0.488 29 28 32 0 0
0.8314 1.8155 1.2306 -0.007 -0.753 0.658 28 27 31 0 0
0.6319 2.2094 1.1979 -0.905 -0.235 0.355 26 25 28 0 0
0.6269 2.3106 1.1897 -0.335 -0.307 0.891 15 13 16 0 0
0.6722 3.2928 1.1103 -0.981 0.009 -0.195 16 16 18 0 0
0.6826 3.6713 1.0796 -0.319 -0.657 -0.683 39 40 44 0 0
0.8281 3.8723 1.0639 -0.937 0.335 0.098 76 76 78 0 0
0.8382 3.8968 1.0620 -0.912 0.400 0.085 75 75 77 0 0
0.8006 1.8330 1.2425 -0.095 -0.524 0.846 33 31 34 0 0
0.7784 1.8384 1.2419 -0.106 -0.470 0.876 29 27 30 0 0
0.6201 1.8875 1.2371 -0.819 -0.354 0.452 35 35 37 0 0
0.7879 2.4032 1.1966 -0.539 0.397 0.743 59 58 55 0 0
0.8018 2.4251 1.1949 -0.543 0.420 0.727 76 75 71 0 0
1.0236 2.6895 1.1749 0.064 -0.766 0.640 56 56 56 0 0
0.9900 2.6887 1.1748 0.125 -0.863 0.489 47 47 47 0 0
0.7501 2.8351 1.1617 -0.990 -0.017 0.141 28 28 30 0 0
0.7494 2.8506 1.1605 -0.978 0.024 0.207 20 19 22 0 0
0.6745 3.2954 1.1244 -0.922 0.214 -0.323 17 17 19 0 0
0.6731 3.6665 1.0946 -0.426 -0.686 -0.590 39 40 44 0 0
0.8308 3.8754 1.0786 -0.937 0.335 0.098 56 56 59 0 0
0.8391 3.8988 1.0768 -0.925 0.379 0.022 62 62 64 0 0
0.8550 3.9273 1.0746 -0.876 0.482 -0.024 76 76 77 0 0
0.9458 4.0610 1.0644 -0.844 0.515 -0.152 171 171 171 0 0
0.6140 1.9286 1.2470 -0.649 -0.310 -0.694 40 40 42 0 0
0.6353 2.1252 1.2315 -0.985 0.061 0.162 16 16 18 0 0
1.0619 2.5821 1.1980 -0.640 0.325 0.696 164 162 159 0 0
0.6766 3.2648 1.1412 -0.628 -0.461 -0.627 18 18 20 0 0
0.6747 3.6861 1.1076 -0.626 -0.208 -0.751 40 39 44 0 0
0.8268 3.8741 1.0937 -0.927 0.366 -0.078 53 53 57 0 0
0.8365 3.8984 1.0918 -0.927 0.366 -0.078 59 59 61 0 0
0.8584 3.9309 1.0894 -0.863 0.490 -0.121 74 74 75 0 0
0.9494 4.0648 1.0794 -0.834 0.549 -0.061 171 171 171 0 0
0.6011 1.9242 1.2605 -0.698 -0.190 -0.691 42 42 44 0 0
0.6410 1.9554 1.2583 -0.898 0.438 -0.024 38 38 40 0 0
0.6602 2.0501 1.2510 -0.041 -0.992 -0.118 17 17 19 0 0
0.6365 2.1268 1.2448 -0.966 -0.133 -0.223 18 16 20 0 0
0.6541 2.1787 1.2408 -0.872 -0.040 0.488 24 24 26 0 0
0.8859 2.7976 1.1940 -0.652 0.570 0.500 15 15 17 0 0
0.8224 2.8762 1.1873 -0.630 0.620 0.468 27 27 29 0 0
0.8524 2.9084 1.1850 -0.630 0.620 0.468 26 26 28 0 0
0.7713 3.6117 1.1289 -0.340 -0.919 0.199 23 24 27 0 0
0.6662 3.6646 1.1239 -0.716 -0.579 -0.389 40 41 45 0 0
0.6959 3.7012 1.1212 -0.867 -0.098 0.488 40 40 44 0 0
0.8258 3.8748 1.1086 -0.927 0.366 -0.078 51 51 55 0 0
0.8355 3.8991 1.1068 -0.927 0.366 -0.078 57 57 59 0 0
0.8604 3.9336 1.1043 -0.880 0.469 -0.072 73 73 74 0 0
0.6493 1.9313 1.2736 -0.326 -0.785 0.527 43 43 45 0 0
0.6227 1.9344 1.2731 -0.808 0.541 0.233 40 40 42 0 0
0.6470 2.1326 1.2578 -0.772 -0.023 0.636 28 27 32 0 0
0.8980 2.9017 1.2002 -0.124 -0.114 0.986 30 30 32 0 0
0.6897 3.2586 1.1704 -0.912 0.364 -0.189 19 20 22 0 0
0.6631 3.6638 1.1385 -0.854 -0.213 0.475 40 41 45 0 0
0.6455 3.6695 1.1379 -0.779 0.547 0.306 40 41 45 0 0
0.8379 3.8842 1.1230 -0.974 0.225 0.005 50 50 54 0 0
0.6611 1.9373 1.2865 -0.254 -0.827 0.501 41 41 43 0 0
0.6407 1.9431 1.2858 -0.434 -0.768 0.470 39 39 41 0 0
0.6280 1.9520 1.2850 -0.714 -0.593 0.373 35 35 37 0 0
0.6892 2.2709 1.2610 -0.679 0.542 0.495 15 13 15 0 0
0.6712 3.6877 1.1513 -0.683 0.249 -0.687 39 40 44 0 0
0.8397 3.8689 1.1392 -0.829 0.553 0.078 46 45 50 0 0
0.8593 3.8999 1.1370 -0.954 -0.168 -0.249 50 50 54 0 0
0.6342 1.9556 1.2980 -0.370 -0.816 0.444 36 36 38 0 0
0.7060 2.0151 1.2944 -0.321 -0.185 0.929 34 34 36 0 0
0.6653 2.1283 1.2852 -0.891 0.175 0.418 37 37 41 0 0
1.1122 2.7234 1.2453 0.020 -0.980 -0.195 52 53 56 0 0
1.0834 2.7252 1.2448 -0.220 -0.975 -0.024 32 33 37 0 0
0.8576 3.9001 1.1520 -0.989 -0.114 -0.096 59 58 62 0 0
0.7838 1.8755 1.3195 -0.213 -0.942 0.257 64 64 66 0 0
0.6537 1.9363 1.3130 -0.896 -0.366 -0.253 41 41 43 0 0
0.6615 1.9683 1.3107 -0.809 0.449 -0.380 38 38 40 0 0
0.6424 1.9745 1.3100 -0.810 -0.389 0.439 37 37 39 0 0
0.6219 2.0520 1.3038 -0.487 -0.628 -0.607 40 40 42 0 0
0.6742 2.1334 1.2984 -0.849 0.146 0.508 40 39 44 0 0
1.1311 2.7340 1.2593 -0.459 -0.639 -0.618 47 48 51 0 0
1.0081 2.9477 1.2413 -0.615 -0.746 0.256 31 31 33 0 0
1.0425 3.0321 1.2354 -0.839 -0.393 -0.376 30 30 32 0 0
0.8561 3.9005 1.1670 -0.989 -0.114 -0.096 75 76 79 0 0
0.7782 1.8743 1.3329 -0.178 -0.825 0.537 55 54 59 0 0
0.6795 1.9770 1.3237 -0.249 -0.646 0.721 40 40 43 0 0
0.6855 2.1395 1.3116 -0.780 0.219 0.586 42 41 46 0 0
1.0135 2.9518 1.2557 -0.930 -0.362 -0.063 32 32 34 0 0
0.8520 3.8812 1.1834 -0.829 0.553 0.078 55 56 60 0 0
0.6561 2.0113 1.3341 -0.239 -0.935 0.263 39 38 44 0 0
0.6042 2.0176 1.3327 -0.547 -0.525 0.652 38 38 40 0 0
0.6303 2.0578 1.3302 -0.832 0.225 -0.507 42 42 44 0 0
1.0331 2.9635 1.2697 -0.320 -0.947 0.015 34 34 36 0 0
0.6568 3.1794 1.2472 -0.633 -0.770 -0.085 27 28 30 0 0
0.8427 3.9121 1.1960 -0.997 0.070 -0.020 62 63 65 0 0
0.6236 2.0270 1.3456 -0.816 0.149 0.559 23 22 26 0 0
1.1487 2.7139 1.3048 -0.062 -0.808 -0.586 58 58 60 0 0
0.7892 1.9396 1.3686 -0.130 -0.391 0.911 50 49 52 0 0
0.6886 2.1001 1.3549 -0.537 0.335 0.774 41 41 43 0 0
0.6948 2.1175 1.3538 -0.615 0.497 0.612 42 42 44 0 0
0.7114 2.1396 1.3525 -0.615 0.497 0.612 41 41 43 0 0
0.7811 2.2451 1.3462 -0.821 0.308 0.481 46 42 42 0 0
1.1662 2.7076 1.3202 0.047 -0.841 -0.539 64 64 66 0 0
0.9020 2.7515 1.3117 -0.037 -0.658 -0.752 11 11 13 0 0
0.8596 3.9261 1.2253 -0.998 0.064 -0.011 56 55 59 0 0
0.7758 2.0076 1.3769 -0.410 0.236 0.881 35 34 39 0 0
0.6877 2.0280 1.3735 -0.248 -0.349 0.904 15 15 17 0 0
0.7212 2.0571 1.3722 -0.080 -0.579 0.811 24 22 27 0 0
0.7368 2.1520 1.3657 -0.669 0.569 0.479 29 29 31 0 0
0.7332 2.1651 1.3646 -0.600 0.598 0.532 21 21 24 0 0
0.7734 2.2278 1.3610 -0.519 -0.657 -0.547 54 49 52 0 0
1.1501 2.7008 1.3350 -0.038 -0.825 -0.564 60 60 62 0 0
0.7246 3.5764 1.2627 -0.548 -0.831 -0.099 30 31 35 0 0
0.7478 3.6084 1.2609 -0.937 -0.325 -0.129 34 35 39 0 0
0.8669 3.9323 1.2401 -0.961 -0.232 -0.150 58 58 60 0 0
0.7208 2.0434 1.3866 -0.277 -0.114 0.954 32 32 34 0 0
0.7515 2.0713 1.3853 -0.080 -0.579 0.811 46 44 49 0 0
0.7564 2.1766 1.3779 -0.600 0.598 0.532 17 16 18 0 0
0.7693 2.2121 1.3757 -0.246 -0.626 -0.740 65 62 64 0 0
1.1481 2.6849 1.3506 0.052 -0.803 -0.594 59 60 62 0 0
0.9773 2.8735 1.3333 -0.165 -0.964 -0.208 28 28 30 0 0
1.0102 2.9891 1.3258 -0.909 0.417 -0.028 29 33 35 0 0
0.6594 3.6904 1.2677 -0.700 0.705 -0.115 35 36 40 0 0
0.7541 2.0589 1.3998 -0.262 -0.231 0.937 54 51 59 0 0
0.7461 2.0701 1.3988 -0.254 -0.243 0.936 50 48 55 0 0
0.7366 2.1099 1.3958 -0.316 0.024 0.949 28 27 33 0 0
0.7691 2.1685 1.3924 -0.666 0.592 0.453 21 19 23 0 0
0.7748 2.2008 1.3903 -0.462 -0.464 -0.756 87 84 83 0 0
1.0359 2.9546 1.3434 -0.432 -0.902 0.009 33 32 37 0 0
0.7256 3.5969 1.2905 -0.619 -0.770 0.154 37 38 42 0 0
0.8003 3.8372 1.2754 -0.661 0.747 0.077 46 46 48 0 0
0.8608 3.9310 1.2702 -0.997 -0.057 -0.047 84 82 82 0 0
1.1770 1.9987 1.4284 0.072 -0.577 0.814 168 168 168 0 0
1.1183 1.9901 1.4275 0.072 -0.577 0.814 169 169 169 0 0
1.0862 1.9920 1.4266 0.041 -0.490 0.871 167 167 167 0 0
1.0422 2.0189 1.4236 -0.106 -0.093 0.990 153 153 151 0 0
0.7825 2.0722 1.4131 -0.248 -0.279 0.928 57 55 61 0 0
0.7793 2.0855 1.4121 -0.203 -0.324 0.924 50 48 55 0 0
0.7652 2.1088 1.4101 -0.295 -0.006 0.956 33 32 39 0 0
0.7729 2.1269 1.4090 -0.311 0.023 0.950 24 23 30 0 0
0.7755 2.1428 1.4080 -0.412 0.112 0.904 31 29 34 0 0
0.7660 2.1682 1.4060 -0.305 -0.331 -0.893 60 58 61 0 0
1.0374 2.9567 1.3579 -0.339 -0.773 -0.536 34 33 38 0 0
1.0141 2.9936 1.3547 -0.826 0.556 0.089 24 25 27 0 0
0.7270 3.5990 1.3050 -0.568 -0.806 0.168 37 38 42 0 0
0.9046 4.0704 1.2767 -0.931 0.308 -0.194 171 171 171 0 0
1.1677 2.0716 1.4373 -0.105 -0.058 0.993 168 168 166 0 0
0.7971 2.1091 1.4245 -0.216 -0.134 0.967 34 33 39 0 0
0.8098 2.1294 1.4235 -0.277 0.025 0.961 29 28 34 0 0
1.0098 2.9432 1.3727 -0.599 -0.465 -0.652 34 33 38 0 0
1.0097 2.9760 1.3704 -0.842 0.524 0.130 30 31 34 0 0
1.0248 3.0006 1.3691 -0.842 0.524 0.130 20 21 23 0 0
1.0400 3.0253 1.3678 -0.842 0.524 0.130 14 14 16 0 0
0.7286 3.6013 1.3195 -0.510 -0.821 0.257 38 39 43 0 0
0.8991 4.0680 1.2919 -0.887 0.358 -0.291 172 172 172 0 0
1.1266 2.1011 1.4482 0.096 -0.581 0.809 167 167 167 0 0
0.9655 2.9863 1.3830 -0.554 -0.536 -0.637 13 13 15 0 0
0.9625 3.0011 1.3819 -0.655 -0.487 -0.578 11 11 13 0 0
0.6855 3.6093 1.3324 -0.248 -0.968 -0.031 40 40 44 0 0
0.8837 4.0589 1.3073 -0.974 0.209 -0.089 172 172 171 0 0
0.9588 3.0003 1.3964 -0.911 -0.070 -0.407 11 11 13 0 0
0.8672 3.9407 1.3300 -0.910 -0.208 0.360 62 63 67 0 0
0.8739 3.9632 1.3287 -0.910 -0.312 0.272 70 72 72 0 0
0.9037 4.0740 1.3221 -0.954 0.291 -0.074 172 172 170 0 0
1.0605 2.9080 1.4203 -0.240 -0.397 0.886 36 35 40 0 0
0.9594 3.0019 1.4108 -0.985 0.149 0.091 11 11 13 0 0
0.8793 3.9682 1.3437 -0.861 -0.439 0.255 71 72 73 0 0
0.8737 3.9824 1.3425 -0.943 -0.286 0.169 92 94 92 0 0
1.1065 2.6248 1.4552 0.024 -0.738 -0.675 58 58 61 0 0
0.6895 3.5644 1.3792 -0.960 0.196 -0.199 36 37 41 0 0
0.8768 3.9859 1.3576 -0.957 -0.288 0.043 99 101 99 0 0
0.6850 3.5458 1.3948 -0.914 0.347 -0.212 29 30 35 0 0
0.6681 3.5521 1.3938 -0.963 0.123 -0.241 38 39 44 0 0
0.8497 3.8973 1.3776 -0.786 0.510 -0.349 53 52 57 0 0
0.8871 3.9775 1.3887 -0.830 -0.550 0.092 99 99 99 0 0
0.6345 3.4993 1.4250 -0.110 -0.830 -0.547 28 27 33 0 0
0.8959 3.9668 1.4049 -0.830 -0.550 0.092 84 84 86 0 0
0.8876 3.9793 1.4038 -0.830 -0.550 0.092 94 94 94 0 0
0.8736 2.6101 1.5049 -0.830 -0.374 -0.413 12 12 14 0 0
0.6141 3.5724 1.4340 -0.974 0.192 0.120 54 55 60 0 0
1.0310 2.6417 1.5234 -0.325 -0.776 -0.540 12 12 14 0 0
0.8831 2.6317 1.5180 -0.853 0.036 0.520 14 14 16 0 0
0.6317 3.4833 1.4547 0.199 -0.953 -0.228 24 25 30 0 0
0.5932 3.4758 1.4536 -0.678 -0.727 0.107 31 32 37 0 0
0.8886 3.9827 1.4339 -0.830 -0.550 0.092 81 80 80 0 0
1.1065 2.5522 1.5465 0.207 -0.875 -0.437 77 75 76 0 0
0.9016 2.6579 1.5313 -0.637 -0.520 0.569 19 19 21 0 0
0.8765 2.6150 1.5471 -0.306 -0.186 0.934 15 15 17 0 0
0.6344 3.5044 1.4823 -0.793 -0.024 0.609 31 32 37 0 0
0.8985 3.9740 1.4652 -0.935 -0.085 -0.345 62 60 61 0 0
0.8940 4.0071 1.4630 -0.793 -0.511 -0.331 90 90 90 0 0
0.9747 2.6017 1.5664 -0.982 -0.188 -0.009 13 13 15 0 0
0.6967 3.0466 1.5271 -0.771 0.615 0.166 18 19 21 0 0
1.0340 2.5369 1.5873 -0.040 -0.991 -0.124 42 40 45 0 0
1.0175 2.5448 1.5860 -0.315 -0.905 -0.286 39 38 43 0 0
0.9989 2.5516 1.5848 -0.545 -0.774 -0.323 38 37 42 0 0
0.9996 2.5677 1.5838 -0.852 -0.349 -0.391 29 28 33 0 0
0.9942 2.5808 1.5828 -0.870 -0.357 -0.339 16 16 19 0 0
0.9754 2.5875 1.5815 -0.936 -0.012 0.351 14 14 16 0 0
0.7671 2.7031 1.5650 -0.435 0.284 -0.854 35 34 39 0 0
0.6139 2.9529 1.5430 -0.773 0.634 -0.030 14 14 16 0 0
0.6170 3.5637 1.5069 -0.893 -0.011 -0.450 46 47 51 0 0
0.8817 4.0015 1.4931 -0.933 -0.293 -0.210 104 104 102 0 0
0.8614 4.0601 1.4887 -0.934 0.233 -0.270 174 174 174 0 0
1.0627 2.5360 1.6030 0.022 -0.987 -0.162 55 53 57 0 0
1.0351 2.5386 1.6015 -0.160 -0.967 -0.196 39 37 42 0 0
1.0163 2.5454 1.6002 -0.349 -0.721 -0.598 39 38 43 0 0
0.8206 2.7162 1.5808 0.061 -0.923 -0.380 65 64 68 0 0
0.7585 2.6998 1.5788 -0.661 -0.275 -0.698 66 65 70 0 0
0.6092 3.5769 1.5202 -0.768 -0.347 -0.539 51 52 56 0 0
1.0350 2.5397 1.6158 -0.184 -0.963 -0.199 52 50 54 0 0
0.6291 2.9797 1.5702 -0.684 0.670 0.287 17 18 20 0 0
0.7399 3.5936 1.5401 0.145 -0.963 0.225 36 37 42 0 0
0.6067 3.5766 1.5345 -0.054 -0.989 -0.141 52 53 57 0 0
1.0287 2.5379 1.6298 -0.242 -0.962 -0.127 68 68 70 0 0
0.7627 2.7044 1.6068 -0.227 -0.903 -0.365 82 82 83 0 0
0.7240 2.7000 1.6051 -0.702 -0.275 -0.657 82 82 82 0 0
0.7188 2.7129 1.6041 -0.788 -0.209 -0.579 84 84 84 0 0
0.7132 2.7257 1.6031 -0.610 -0.761 0.222 86 85 88 0 0
0.6127 2.9239 1.5866 -0.159 -0.827 0.540 13 13 15 0 0
0.6272 3.1413 1.5749 0.231 -0.843 -0.486 19 20 22 0 0
1.0226 2.5361 1.6439 -0.085 -0.951 0.298 62 61 66 0 0
1.0017 2.5418 1.6425 -0.547 -0.831 -0.102 67 65 70 0 0
0.7315 2.7207 1.6183 -0.465 -0.773 0.431 87 86 89 0 0
0.7223 2.7316 1.6172 -0.356 -0.823 0.443 98 98 99 0 0
0.6933 3.5665 1.5685 -0.870 0.490 0.051 37 38 43 0 0
0.9769 2.5468 1.6552 -0.382 -0.923 0.048 57 55 61 0 0
0.5902 2.9296 1.6130 -0.896 -0.406 0.181 18 19 22 0 0
0.7058 2.7724 1.6420 -0.350 -0.510 0.786 71 70 73 0 0
0.7850 3.5931 1.6013 -0.660 -0.738 -0.141 28 29 33 0 0
0.8310 2.5872 1.6731 -0.453 0.022 -0.891 42 42 44 0 0
0.8413 2.6079 1.6726 -0.411 0.072 -0.909 28 28 30 0 0
0.8457 2.6257 1.6719 -0.432 0.118 -0.894 23 23 26 0 0
0.8488 2.6430 1.6711 -0.437 0.067 -0.897 21 20 25 0 0
0.7982 2.7116 1.6645 -0.621 -0.126 -0.774 39 38 43 0 0
0.6407 3.1215 1.6334 -0.048 -0.357 -0.933 23 23 25 0 0
0.7540 3.5747 1.6152 -0.961 -0.155 0.229 30 31 35 0 0
0.8869 3.9966 1.5999 -0.984 0.140 -0.112 76 76 76 0 0
1.1347 2.5626 1.7062 -0.876 -0.392 0.282 45 44 49 0 0
1.0445 2.5829 1.6998 -0.030 -0.781 0.624 43 42 47 0 0
0.9687 2.5620 1.6965 0.151 -0.979 0.138 46 45 50 0 0
0.9335 2.5606 1.6946 0.087 -0.958 0.273 49 48 53 0 0
0.7836 2.7052 1.6781 -0.680 0.480 -0.554 32 32 35 0 0
0.7461 2.7645 1.6727 -0.382 -0.921 -0.077 25 24 30 0 0
0.7594 3.5623 1.6309 -0.771 -0.636 -0.043 22 23 28 0 0
0.8763 3.9728 1.6157 -0.910 0.415 -0.000 65 65 64 0 0
0.9279 4.0987 1.6120 -0.956 -0.293 -0.018 176 176 176 0 0
1.1798 2.5372 1.7247 0.050 -0.904 -0.425 53 52 56 0 0
1.1361 2.5644 1.7206 -0.428 -0.891 -0.150 44 43 48 0 0
1.0444 2.5840 1.7141 -0.559 0.274 0.783 43 42 47 0 0
0.8323 2.5745 1.7020 -0.367 -0.891 0.268 37 37 39 0 0
0.7927 2.5704 1.6998 -0.645 -0.210 -0.735 36 36 38 0 0
0.7984 2.5888 1.6992 -0.635 0.009 -0.772 43 43 46 0 0
0.7956 2.6029 1.6983 -0.554 -0.027 -0.832 49 49 51 0 0
0.7824 2.6587 1.6945 -0.377 -0.489 -0.786 33 33 35 0 0
0.7683 2.6828 1.6924 -0.572 -0.279 -0.771 24 24 26 0 0
0.7563 3.5787 1.6445 -0.980 0.169 -0.109 31 32 36 0 0
0.8926 4.0395 1.6283 -0.832 0.555 -0.008 169 169 168 0 0
1.0750 2.5841 1.7304 -0.505 -0.227 0.833 46 46 48 0 0
1.0079 2.5833 1.7263 -0.070 -0.575 0.815 44 43 48 0 0
0.7756 2.5941 1.7115 -0.587 -0.002 -0.810 32 31 36 0 0
0.7567 2.6781 1.7060 -0.814 -0.107 -0.570 34 35 39 0 0
0.7571 2.7726 1.7011 -0.405 -0.430 -0.807 23 24 29 0 0
0.7478 2.7835 1.7000 -0.405 -0.430 -0.807 22 23 28 0 0
0.6312 3.5516 1.6529 -0.540 -0.837 0.087 39 40 44 0 0
0.6192 3.5610 1.6517 -0.309 -0.933 0.184 48 49 53 0 0
0.9028 4.0660 1.6428 -0.908 0.412 -0.082 177 177 175 0 0
0.9611 4.1243 1.6433 -0.998 -0.021 0.054 176 176 174 0 0
1.1130 2.5876 1.7470 -0.499 -0.789 0.359 54 53 58 0 0
1.0276 2.5941 1.7413 -0.265 -0.120 0.957 46 45 51 0 0
0.7839 2.6618 1.7225 -0.897 -0.291 0.332 35 36 40 0 0
0.8888 4.0034 1.6604 -0.913 -0.408 -0.005 101 102 97 0 0
0.9010 4.0662 1.6579 -0.878 0.429 -0.211 176 176 174 0 0
1.1685 2.5673 1.7660 -0.318 -0.857 0.406 47 46 51 0 0
1.1488 2.5739 1.7644 -0.318 -0.857 0.406 51 50 55 0 0
0.7845 2.6633 1.7365 -0.751 -0.349 0.560 33 34 38 0 0
0.6419 3.5440 1.6829 -0.980 -0.196 0.043 38 39 43 0 0
0.6673 2.9343 1.7294 -0.226 -0.047 0.973 22 22 26 0 0
0.5509 3.1410 1.7115 -0.664 -0.292 -0.688 29 29 32 0 0
0.5525 3.3218 1.7026 -0.479 -0.574 0.665 14 15 17 0 0
0.6400 3.5441 1.6973 -0.887 -0.434 -0.159 39 40 44 0 0
0.8399 3.9550 1.6899 -0.839 0.492 -0.230 77 78 78 0 0
0.8760 3.9975 1.6902 -0.994 -0.014 -0.112 86 87 84 0 0
0.5411 3.2995 1.7171 0.083 -0.985 0.154 14 15 17 0 0
0.6368 3.5434 1.7116 -0.756 -0.600 -0.264 38 39 44 0 0
0.9126 4.0783 1.7039 -0.758 0.628 -0.177 176 176 174 0 0
1.1806 2.5606 1.8108 -0.675 -0.631 -0.381 50 49 54 0 0
0.6366 2.8246 1.7607 -0.505 -0.086 -0.859 24 26 31 0 0
0.6585 3.0119 1.7532 -0.250 -0.552 -0.796 37 38 41 0 0
0.6460 3.0209 1.7519 -0.525 -0.851 -0.017 36 37 41 0 0
0.5658 3.0554 1.7447 -0.831 -0.424 0.360 62 62 63 0 0
0.5492 3.1424 1.7394 -0.634 -0.591 0.499 42 43 45 0 0
0.5123 3.3159 1.7285 -0.587 -0.241 -0.773 18 18 20 0 0
0.6329 3.5422 1.7258 -0.728 -0.674 -0.128 39 40 44 0 0
0.8748 4.0175 1.7195 -0.577 -0.812 0.084 93 93 91 0 0
0.5656 3.0564 1.7587 -0.770 -0.563 -0.299 39 38 45 0 0
0.6045 3.5253 1.7391 -0.950 0.061 -0.307 46 47 49 0 0
0.6008 3.5398 1.7382 -0.888 -0.352 -0.294 46 46 50 0 0
0.5984 3.5722 1.7365 -0.413 -0.910 0.034 47 50 53 0 0
0.8657 4.0127 1.7343 -0.988 -0.123 -0.092 91 91 89 0 0
1.2537 2.4852 1.8486 0.307 -0.892 -0.333 89 89 89 0 0
1.2187 2.5489 1.8431 -0.964 0.215 0.156 45 46 48 0 0
1.1898 2.5513 1.8409 -0.753 -0.578 -0.314 48 49 51 0 0
1.1542 2.5664 1.8377 -0.922 -0.089 -0.378 62 62 64 0 0
0.7621 2.7361 1.8017 0.067 -0.979 -0.190 32 33 37 0 0
0.6077 2.8901 1.7835 -0.276 0.039 -0.960 25 26 31 0 0
1.2050 2.5277 1.8577 -0.828 -0.075 0.555 46 46 49 0 0
1.1892 2.5522 1.8554 -0.866 -0.488 -0.105 54 55 57 0 0
0.6115 2.7675 1.8033 -0.844 0.371 0.388 17 16 22 0 0
1.2103 2.5153 1.8732 -0.870 -0.351 0.345 49 48 53 0 0
1.2065 2.5295 1.8723 -0.732 -0.357 0.580 45 45 49 0 0
1.1918 2.5386 1.8708 -0.638 -0.751 0.173 47 48 50 0 0
0.7374 2.7256 1.8285 0.109 -0.834 0.541 26 27 31 0 0
0.5765 3.5619 1.7786 -0.895 -0.007 -0.446 49 50 52 0 0
1.2116 2.5171 1.8878 -0.673 -0.681 0.288 45 46 51 0 0
1.2004 2.5279 1.8864 -0.678 -0.731 0.077 44 45 49 0 0
1.1811 2.5507 1.8840 -0.869 -0.402 -0.290 64 65 67 0 0
0.6322 2.7809 1.8320 -0.297 -0.208 0.932 19 18 24 0 0
0.5345 2.9794 1.8158 -0.592 -0.185 -0.785 32 33 36 0 0
0.5200 2.9870 1.8143 -0.660 -0.357 -0.661 23 24 28 0 0
0.5177 3.0016 1.8135 -0.826 -0.374 -0.421 16 18 23 0 0
0.5203 3.0991 1.8094 -0.912 -0.401 -0.083 19 18 22 0 0
0.5185 3.2603 1.8021 -0.816 -0.366 0.448 80 78 79 0 0
0.5129 3.2732 1.8011 -0.898 -0.174 0.404 73 72 72 0 0
1.2122 2.4550 1.9051 0.249 -0.943 -0.219 91 91 93 0 0
1.1924 2.5094 1.9012 -0.191 -0.981 0.020 44 45 49 0 0
0.6660 2.7531 1.8498 -0.668 0.669 -0.327 16 15 21 0 0
0.7013 2.7876 1.8510 -0.648 0.691 -0.321 16 15 21 0 0
0.6953 2.8002 1.8500 -0.888 0.400 -0.228 18 17 23 0 0
0.6679 2.8013 1.8478 -0.864 -0.487 0.128 20 19 25 0 0
0.6470 2.8373 1.8446 -0.359 0.067 0.931 22 21 27 0 0
0.5038 3.0267 1.8252 -0.987 0.067 0.145 21 20 25 0 0
0.5126 3.1280 1.8215 -0.936 -0.331 -0.120 21 21 23 0 0
0.5205 3.2627 1.8162 -0.826 -0.372 0.424 72 70 74 0 0
0.5184 3.2778 1.8154 -0.898 -0.174 0.404 76 74 77 0 0
0.5168 3.2933 1.8146 -0.641 -0.267 0.720 75 73 74 0 0
1.2133 2.5043 1.9176 -0.172 -0.971 -0.165 45 46 50 0 0
0.8503 2.5516 1.8869 -0.638 0.455 0.621 38 39 43 0 0
0.5756 3.5822 1.8209 -0.742 -0.412 -0.529 33 34 39 0 0
1.2250 2.4790 1.9341 -0.243 -0.747 -0.619 63 64 66 0 0
0.7737 2.7808 1.8851 0.147 -0.763 0.630 17 16 22 0 0
0.4957 2.9293 1.8565 -0.891 0.029 -0.453 20 21 23 0 0
0.4986 3.0260 1.8526 -0.928 0.053 -0.368 40 44 43 0 0
0.5046 3.0455 1.8523 -0.901 0.267 -0.342 40 44 43 0 0
0.5096 3.0644 1.8519 -0.875 0.288 -0.389 41 45 43 0 0
0.4955 3.0721 1.8504 -0.992 -0.036 -0.120 42 44 45 0 0
0.4978 3.1056 1.8492 -0.802 -0.531 -0.274 26 27 29 0 0
0.5979 3.4290 1.8436 -0.998 0.030 -0.059 66 67 66 0 0
0.5582 3.5384 1.8358 -0.880 0.146 0.451 57 58 60 0 0
0.5728 3.5987 1.8344 -0.992 0.127 -0.007 36 38 40 0 0
0.5748 3.6170 1.8338 -0.981 0.176 -0.075 30 32 34 0 0
0.5162 2.9738 1.8702 -0.836 0.401 0.374 26 27 29 0 0
0.4974 2.9788 1.8684 -0.974 0.228 0.015 22 22 25 0 0
0.4938 3.0244 1.8662 -0.854 -0.164 -0.493 27 29 32 0 0
0.5047 3.0467 1.8662 -0.766 -0.031 -0.642 38 39 42 0 0
0.4998 3.0598 1.8652 -0.727 0.140 -0.672 40 42 45 0 0
0.5016 3.0769 1.8647 -0.633 0.169 -0.756 42 43 47 0 0
0.5011 3.2382 1.8579 -0.863 -0.207 -0.460 17 18 19 0 0
0.5013 3.2547 1.8573 -0.739 -0.067 -0.671 16 15 20 0 0
0.5778 3.6032 1.8490 -0.996 0.086 -0.020 50 54 57 0 0
1.0076 2.7443 1.9343 0.198 -0.614 -0.764 43 44 48 0 0
0.6700 3.0143 1.8952 -0.180 -0.128 0.975 33 34 36 0 0
0.4983 3.0762 1.8784 -0.347 -0.516 -0.783 33 33 38 0 0
0.4830 3.1960 1.8722 -0.812 -0.118 -0.572 22 22 27 0 0
1.1671 2.4559 1.9738 -0.254 -0.713 -0.654 52 53 57 0 0
0.6003 3.6376 1.8785 -0.899 0.299 0.321 61 61 65 0 0
0.4749 3.0968 1.9034 -0.277 -0.643 0.714 23 24 26 0 0
0.8529 2.5754 1.9706 -0.270 0.152 -0.951 28 29 31 0 0
0.8780 4.0014 1.9178 -0.845 -0.280 -0.455 94 94 94 0 0
0.8746 4.0171 1.9169 -0.320 -0.795 -0.515 117 117 117 0 0
0.8309 2.5501 1.9836 -0.296 -0.949 0.108 48 49 53 0 0
0.5317 3.4617 1.9225 -0.992 0.114 0.056 30 29 32 0 0
0.8106 3.9391 1.9293 -0.778 0.590 -0.215 84 84 85 0 0
0.8712 3.9981 1.9325 -0.845 -0.280 -0.455 93 93 93 0 0
1.0015 2.4309 2.0176 -0.115 -0.909 0.400 61 62 65 0 0
0.7974 2.5039 1.9964 -0.797 -0.333 -0.503 50 51 55 0 0
0.8183 2.5296 1.9973 -0.770 -0.594 0.234 52 53 57 0 0
0.5287 3.4611 1.9365 -0.990 -0.060 0.129 45 44 47 0 0
0.5292 3.4781 1.9359 -0.984 -0.049 0.170 40 39 43 0 0
0.5981 3.6585 1.9355 -0.714 0.469 -0.520 45 44 51 0 0
0.8644 3.9949 1.9472 -0.845 -0.280 -0.455 96 96 96 0 0
0.8279 2.4890 2.0136 -0.627 -0.513 -0.586 49 50 54 0 0
0.8185 2.4999 2.0124 -0.195 -0.819 0.540 49 50 54 0 0
0.8373 2.5400 2.0127 -0.462 -0.823 0.332 51 52 56 0 0
0.5345 3.4828 1.9505 -0.938 -0.337 0.080 51 52 54 0 0
0.5264 3.4944 1.9494 -0.966 0.096 -0.241 51 51 54 0 0
0.5281 3.5123 1.9489 -0.978 0.102 -0.182 47 48 52 0 0
0.5399 3.5367 1.9491 -0.903 0.084 0.421 44 45 50 0 0
0.7987 3.9338 1.9585 -0.809 0.496 -0.315 81 81 81 0 0
0.9526 2.4880 2.0393 -0.222 -0.457 0.861 47 48 52 0 0
0.8443 2.4981 2.0288 -0.294 -0.629 0.720 46 47 51 0 0
0.8456 2.5142 2.0284 -0.166 -0.862 0.478 49 50 54 0 0
0.8601 2.5368 2.0289 -0.297 -0.895 0.333 50 51 55 0 0
0.8449 2.5449 2.0272 -0.240 -0.966 -0.097 52 53 57 0 0
0.8237 2.5500 2.0251 -0.240 -0.968 0.075 53 54 58 0 0
0.5512 3.5622 1.9635 -0.872 -0.183 -0.453 54 55 59 0 0
1.1508 2.5040 2.0718 -0.731 0.513 0.449 55 56 59 0 0
1.0267 2.5245 2.0593 -0.815 0.459 0.354 44 45 49 0 0
1.1736 2.5158 2.0881 -0.731 0.550 0.404 49 50 54 0 0
1.0600 2.5415 2.0762 -0.652 0.056 0.756 43 43 47 0 0
1.1983 2.5126 2.1051 -0.619 0.227 0.752 51 50 55 0 0
1.2003 2.5147 2.1198 -0.386 -0.386 0.837 52 51 56 0 0
0.7826 2.7375 2.0710 -0.588 0.706 -0.394 31 32 34 0 0
