ply
format ascii 1.0
element vertex 731
property float x
property float y
property float z
property uchar diffuse_red
property uchar diffuse_green
property uchar diffuse_blue
end_header
0.5411494626714346 3.0877651231416525 0.8731780636677344 38 37 42
0.4961429807558773 3.133939455437831 0.8674958743557422 39 38 42
0.504417155820728 3.1463870773690013 0.865399489724849 41 41 43
0.5111414296268969 3.1590434101217095 0.8633146731629844 40 40 42
0.5109909460765528 3.1725318780462457 0.8612952141786564 35 35 37
0.5066140827316508 3.186509007067167 0.8593193718577934 32 32 34
0.5010028736162713 3.2006091770988077 0.8573592200393502 29 29 31
0.5335992238098497 3.2103464002094357 0.8549965597058341 27 27 29
0.5489344575970228 3.222118207328011 0.8528062110802117 26 26 28
0.4265039435492848 3.275731539041343 0.8481500195317262 28 28 30
0.4553066407549716 3.565054801254839 0.8039471110812818 11 11 13
0.7167738649153358 3.7780990212489094 0.7647510675366436 32 32 34
0.7156379752195818 3.7917276818725716 0.762737838598073 29 29 31
0.8207968753464703 3.8834443898887065 0.7460685730616098 38 38 39
0.8416685864275424 3.896552911827448 0.7435245080904364 45 43 47
0.85256268417007 3.909995841352228 0.7412063175882996 52 50 53
0.826574340395398 3.924414513821885 0.739762143425397 68 66 68
0.8461832118483799 3.9376492397909857 0.7372340827427158 71 71 71
0.8658770960466101 3.9509404695493613 0.7346951930225398 69 69 69
0.8478952417406393 3.9650738724689787 0.7330723062436434 164 164 162
0.5729558767686393 3.031296700376918 0.8945551719304607 33 33 36
0.5646677654699368 3.0460163387958508 0.8925598314750464 36 35 40
0.5518503636690322 3.0612991627306965 0.8905977421725555 37 36 41
0.5453211656585453 3.0757185866448022 0.8886017316228869 38 37 42
0.5437507103787009 3.0894761396824064 0.8865761194037551 39 38 43
0.5057909969305097 3.1213086355254944 0.8827823274679479 39 38 43
0.5111424506868499 3.1341259508588806 0.8807178474706682 41 40 44
0.516748574876861 3.146925146844932 0.8786494629790145 39 39 41
0.5236626698823754 3.159581168283395 0.8765685528168271 35 35 37
0.529503527597895 3.1723820907644185 0.8744938015854674 32 32 34
0.5095095403197232 3.188210376122351 0.8726365042945522 29 29 31
0.4975627667263284 3.203042822799741 0.8707194121361356 28 28 30
0.49882313858072835 3.2163343828710533 0.8686901412487046 26 26 28
0.5510278994394358 3.223935389208869 0.8661901327249804 25 25 27
0.5006408182997004 3.2429929803717448 0.864638554943399 26 26 28
0.46383235913042414 3.2604082508077568 0.8629803692373683 27 27 29
0.4240638983181725 3.278013859230034 0.861370608277157 28 28 30
0.4910378104303056 3.311048960644523 0.8546659640232779 27 27 29
0.4495492806597722 3.567501276621062 0.8172246428146213 11 11 13
0.6282810823307968 3.7033011137891294 0.7921763031919653 18 18 20
0.6455808306560399 3.7158810643889364 0.7898366004685216 24 24 26
0.8099643540969003 3.885914063308932 0.760019539823532 42 41 44
0.8279717395594508 3.89909276264143 0.7575714895428473 55 53 56
0.8341494496289491 3.9126441082868713 0.7553752555333896 72 70 71
0.8203480456948904 3.9267176504450023 0.7536204103801689 66 65 65
0.8410266978606566 3.9399223141925743 0.7510989577834793 67 67 67
0.8602065940014734 3.9532220476830098 0.7486022204495756 59 59 59
0.8568367859068922 3.9670420382679543 0.7466140461300986 127 127 126
0.9493282415449902 1.900172034863529 1.0692768695350805 24 23 29
0.5729929826714325 3.0333423732475597 0.9080344013383425 38 37 40
0.5660991782823819 3.0478752377483644 0.9060168542896643 39 38 43
0.5611429929223721 3.0621262555886157 0.903994472913198 39 38 43
0.5454363523916901 3.077748865863857 0.9020278138927766 40 39 44
0.5503621210248961 3.090675774898299 0.8999637348787333 39 38 43
0.5071047127535278 3.1096976019767317 0.8981572988316673 39 38 43
0.520989911842454 3.121451480543182 0.8960512841618647 40 39 44
0.5239795553209692 3.1345860565074384 0.894003158722332 38 37 42
0.5331487314556203 3.1469760224061893 0.8919164157798012 35 35 37
0.5364925467088801 3.160088486088284 0.8898629844651722 31 31 33
0.5457079256108749 3.172514195835034 0.8877697401443873 28 28 30
0.5343035758044441 3.1873650252395223 0.8858142986912092 27 27 29
0.4927836355094593 3.205628626646569 0.8840795471751078 26 26 28
0.5072581551555069 3.2174188018833374 0.8819537120491348 24 24 26
0.4971943829910541 3.231986332175695 0.880008204772429 24 24 26
0.4895512331458839 3.2462502290803665 0.8780493686716242 26 26 28
0.4472659998065319 3.2642308805565867 0.8763758195095006 27 27 29
0.41977922358956654 3.3070535801170724 0.8706057112811066 28 28 30
0.43355567932053396 3.5574598034784337 0.832612182500831 10 10 12
0.43593704986896276 3.570499076707397 0.8305932131261187 11 11 13
0.42990950254750504 3.584120776379245 0.8286915823068596 12 12 14
0.4557218163969632 3.5955763847681945 0.8263397562321011 15 15 17
0.46555618049348707 3.6081601531819087 0.8242076571212412 21 21 23
0.4755004159426244 3.6207642175224852 0.8220698281734662 29 29 31
0.6286204675839497 3.6918983108364314 0.8076406181585847 17 17 19
0.6507467605052446 3.704206247156166 0.8052504426246738 27 27 29
0.666042362267272 3.716929699542391 0.8029642449144008 33 33 35
0.8127446537970344 3.887970540563686 0.7736667807784849 67 66 69
0.836476799917488 3.900996397126211 0.7711295043951535 71 69 71
0.8393274344023669 3.9146524610098976 0.7690063417424841 61 59 61
0.8437936639489041 3.9282722912318495 0.7668492556263403 57 55 55
0.8438988705581597 3.94200424694533 0.7647815867307902 64 63 64
0.8603253866275578 3.955374220114088 0.7623706001088568 44 44 44
0.8710518654076688 3.9689079772312295 0.7600738941318239 74 74 73
0.9190347405880026 1.9101497951976563 1.0830775767576484 24 23 29
0.5758500579409579 3.0213826936726926 0.9235601248159848 39 38 43
0.5721226403480175 3.0355101527568666 0.9215176864877077 41 40 45
0.5708696932492026 3.0492923030708523 0.9194710158614846 41 40 45
0.5640302669478434 3.0637970635301053 0.9174424788229615 40 39 44
0.5553882591856661 3.078507486405078 0.9154239337017178 38 37 42
0.5507813845358259 3.0926694319349664 0.9133962857111482 38 37 42
0.5446138261749705 3.1070080064169487 0.9113775047680793 38 37 42
0.5435248180976173 3.1206898471480753 0.9093422124824451 37 36 41
0.5428379476377168 3.134313929636443 0.9073064793952407 33 32 37
0.5650644670119792 3.1451569503085417 0.905168849081971 29 29 31
0.5686520536918205 3.1582941732279037 0.9031092976314379 27 27 29
0.5503362023601356 3.1740179539693343 0.901157981385791 26 26 28
0.537864961481807 3.1889979154485917 0.8991858597379428 26 26 28
0.5101505148185705 3.2056770487888864 0.8973042519178801 24 24 26
0.5005859227905484 3.2202122916897533 0.8953330459500739 23 23 25
0.4903916763197331 3.234781310416841 0.8933710613457805 24 24 26
0.45230174358161623 3.2523679089193376 0.8915885689650719 26 26 28
0.4324978027481693 3.267851459361522 0.8897072356270945 27 27 29
0.41428901395636264 3.283095712380837 0.8878256878749401 28 28 30
0.4273177114554355 3.2950074154405664 0.8857361402991444 28 28 30
0.44994829808088804 3.3059683920453242 0.883571568547066 28 28 30
0.4541378626825041 3.5580134524431695 0.8455266534816928 10 10 12
0.4528700670653285 3.5713437551086757 0.8435483536788091 20 20 22
0.4477532307396379 3.584929459017749 0.8416190560367847 12 12 14
0.4512971333947653 3.597913403406879 0.8395835758868615 14 14 16
0.4613745775406335 3.610476991512571 0.8374629336503383 15 15 17
0.47679409689257035 3.6227280864210414 0.8352679609668799 15 15 17
0.6670744677618208 3.691909000835979 0.8205280675218318 24 24 26
0.7508241087685967 3.864738564874146 0.7926026586311369 59 59 61
0.8226996940299532 3.8898154574091777 0.7871937568322113 50 49 51
0.8559015463470645 3.902597699796674 0.784514763777143 47 45 48
0.853127512960899 3.9164352925108554 0.7824943071933871 50 48 51
0.8455145796596817 3.9303794583631144 0.7805677528058313 57 55 58
0.8524131736490703 3.9439566391359575 0.7783667260164053 60 58 63
0.8647731138968497 3.9574329911552466 0.7760567890006969 42 42 45
0.8755325110552328 3.9709764253411524 0.7737731188635494 60 60 60
0.8968540787927921 1.9180068871064713 1.0969260973642643 20 19 25
0.6056047627495456 2.9920294905800797 0.9411572411608463 38 37 41
0.5659452482535066 3.0111618819766437 0.9391088254989359 40 39 44
0.5761016227495704 3.0233999806666625 0.9370499352104458 41 40 45
0.5729476582124036 3.037450551445687 0.9349983085418455 42 41 46
0.5677497265595672 3.0517563882470604 0.9329512737546851 41 40 45
0.5653671094142272 3.065672217806275 0.9309037043606706 39 38 43
0.5559944973056512 3.080477458355821 0.9288693589087265 37 36 41
0.5495333914784934 3.094875973271389 0.9268349720534605 38 37 40
0.5487163859221622 3.1085385398084497 0.924792589242675 36 36 38
0.5546169198395257 3.121359867083367 0.9227354621851037 33 33 35
0.5521580046440582 3.1352195390507362 0.9206979662483193 29 29 31
0.5703227684057831 3.146574644085903 0.9186034239406884 27 27 29
0.5358904598819583 3.1642526187809783 0.9166641049612181 25 25 27
0.5197485108793212 3.1796628769494175 0.9146812051403396 24 24 26
0.5087835198183805 3.1944153109034694 0.9126883764467374 24 24 26
0.5034680708305087 3.208481523431724 0.910679940901629 24 24 26
0.4856849878070856 3.223929125790482 0.9087259952394324 23 23 25
0.47339627307148024 3.2387039225406418 0.9067576903086715 25 25 27
0.44312798107897494 3.2553986602985137 0.9048788434251416 27 27 29
0.46098067706230234 3.2668087853637306 0.9027825831994087 28 28 30
0.45823809838713747 3.2804561436410173 0.9007830707056397 28 28 30
0.4761178010102195 3.291937423885236 0.8986755148924508 28 28 30
0.4949679070120048 3.3033729691973317 0.8965544041486336 28 28 30
0.48375889498105074 3.4114296642912625 0.8805013208825595 49 49 51
0.46942258968580475 3.5589572578942343 0.8585639945790107 11 11 13
0.47084809937764155 3.572124007847896 0.856549098299645 12 12 14
0.46567960952918563 3.58574169731977 0.8546051796671958 12 12 14
0.44737951680263655 3.600214594845316 0.8528090634286568 13 13 15
0.5232971047984287 3.648478437623375 0.8439335877127435 14 14 16
0.8272470459819502 3.891825004493972 0.8008445141545611 47 47 49
0.8608119285276072 3.9046133174563016 0.7982093915927064 49 47 50
0.8512193028879074 3.9186374961679764 0.7962974257239527 51 49 52
0.8586355198610606 3.932207047331691 0.7940955656115412 55 53 56
0.8452823585746544 3.9462735947826992 0.7922564587291276 59 58 62
0.8625435133136568 3.9596371521627685 0.7898781887799617 55 55 58
0.8798687109653884 3.973050258414804 0.7874910998756492 57 57 57
0.8789602877478262 1.924741558138473 1.1107873402978907 20 20 26
0.8737458056454671 1.940594156773928 1.1084960238104895 17 16 21
0.6369216928624042 2.907208199630719 0.9672068749355178 25 26 28
0.6121375394337369 2.9794787893054835 0.9567806195634015 41 40 45
0.60296607392392 2.994453657561284 0.9546986376887538 42 41 46
0.5740140854820888 3.0121046188511014 0.952596975005254 43 42 47
0.5792145549593661 3.0250301686675103 0.9505451324394231 43 42 47
0.5693213989650636 3.0399870346606974 0.9484798857261093 40 39 44
0.5661740405214073 3.0540151545361205 0.9464237825448811 39 38 43
0.5596542491318082 3.068468000500404 0.9443690823911521 39 38 43
0.5542004502574784 3.0827571653814787 0.9423183804763325 37 36 41
0.553939589511484 3.0963631582659192 0.9402699207956815 34 34 37
0.5562355190251791 3.1096425537674843 0.9382210907498747 31 31 33
0.5642324167277234 3.1222185611163797 0.9361676861496808 29 29 31
0.5567992509768692 3.1367018575173504 0.9341261315506115 27 27 29
0.5451890292237149 3.1516594330373753 0.9320941300305212 25 25 27
0.5262588272193345 3.1674444115628657 0.9300794334248746 23 23 25
0.5082985639782364 3.1830484864824835 0.9280732001685652 23 23 25
0.49972267257777064 3.197503562820049 0.926058101070012 23 23 25
0.49743460143747165 3.2112089440850866 0.9240340174193681 24 24 26
0.4698379689725818 3.2411309398516637 0.9200539844003865 26 26 28
0.46239890701916553 3.255323277036646 0.9180564582504541 28 28 30
0.4769869841627319 3.267120616365682 0.9159925494821014 28 28 30
0.48238551141492464 3.2799330275311047 0.9139539356440747 29 29 31
0.5074711637530074 3.290708605953359 0.9118403344340447 29 29 31
0.4350710211456176 3.4045551519008703 0.8960639918714912 20 20 22
0.4596698915424317 3.41562413752826 0.8939155625209398 35 35 37
0.4500128503117663 3.5623862321894855 0.8719526169329843 11 11 13
0.4666768358080855 3.574458937050789 0.869806825330001 11 11 13
0.461162825872065 3.5880925269865256 0.8678562376348421 12 12 14
0.46446957407893186 3.6011167601807634 0.8658262846113559 13 13 15
0.4856479020449342 3.612987458307755 0.863623294924543 13 13 15
0.8189222436313677 3.8942131545801875 0.8147049153069841 54 54 56
0.8588986669232757 3.9068200026148276 0.8120256857602279 50 48 51
0.8655381038708798 3.9204173435570975 0.8098445005366036 48 46 49
0.8208624478502133 3.9352818627438966 0.8084688067397622 53 51 54
0.8442562116374515 3.948448280902156 0.8060272238724467 57 56 60
0.8677717707153045 3.96168275111139 0.8035730042870517 60 60 62
0.8935522347817999 3.9749439634683292 0.8010707550516328 54 54 54
1.2161696319459179 1.7186041424620864 1.1504446638826344 171 169 170
0.6219968911302595 2.925230324294651 0.9786742905730178 37 37 40
0.6012485704189614 2.941979768189109 0.9765120997732181 39 38 43
0.5870357155889545 2.971389412240608 0.9723206783311974 43 42 47
0.6097628574097256 2.9818710715456755 0.9703328425872307 44 43 48
0.6104284895120768 2.9954780173769433 0.9682648847690319 44 43 49
0.5969897019051333 3.0110120616249874 0.9661564269198428 43 42 47
0.576981305385121 3.027384790483006 0.9640380091069597 41 40 44
0.5165468986195375 3.049084006906888 0.9618332713653454 39 38 41
0.5366034031897822 3.0599648953171905 0.9598325783107731 38 37 40
0.5616399888948553 3.0702587415424887 0.9578320731842819 37 37 39
0.560644068393916 3.083977187909525 0.9557768001901229 33 33 36
0.5660629427682682 3.096873399730385 0.9537317531787317 28 28 30
0.5671620642693525 3.110323750074128 0.9516797531627478 25 25 27
0.5726616688752776 3.123228934291381 0.9496319153936881 25 25 27
0.5430681542788909 3.1404275008507216 0.9475590785101903 25 25 27
0.5076085492602704 3.158229481292452 0.9454993282979156 23 23 25
0.5317484490476561 3.1688372349805984 0.9434673273331444 22 22 24
0.4554071384941698 3.2447572012987953 0.9333521079754076 27 27 29
0.4689618980753488 3.2566403538183644 0.9313155304317536 28 28 30
0.47446286638558344 3.269426300056542 0.9292856863065978 28 28 30
0.49078128576002067 3.2810842022530853 0.9272340229415511 29 29 31
0.4310991543852119 3.420206196767952 0.9072723229678473 28 28 30
0.40681894116037665 3.435586831064268 0.905379749207938 21 21 23
0.4418116713870629 3.578230681005681 0.883203054248757 11 11 13
0.44499758310020576 3.5912321712676745 0.8811817888861795 12 12 14
0.48486120861320336 3.6150875130594238 0.8768684798258354 13 13 15
0.7168351205214443 3.845082086060037 0.8379910687704263 61 61 63
0.8309360604626563 3.8960083257346603 0.8282675722617715 49 47 51
0.8686391179499904 3.9087072948103834 0.82567849032401 43 41 44
0.8438506610126691 3.9231312047166664 0.8239395196939491 45 43 48
0.850727439835774 3.936706536928169 0.8217659380169314 50 48 53
0.8381128927503689 3.9507378730280913 0.8198699016965515 57 55 60
0.8606262691249322 3.9639897732319893 0.8174672583532863 59 59 61
0.8804336394017063 3.977361603366505 0.8150945908735814 62 62 61
0.6481436679210835 2.9096723566340343 0.9945064443076094 41 41 42
0.631103864849203 2.925956426520311 0.9923176086667925 43 43 44
0.6180494487287348 2.9416018414389953 0.9901611301791651 44 43 48
0.6048526869628175 2.957219490129896 0.9880111477442868 45 44 49
0.613168122283209 2.983453924953056 0.9839080767456816 45 44 49
0.5965017231579677 2.9994628853941547 0.9817548410291218 43 42 48
0.5799083669315559 3.0154018569739303 0.9796110160484669 39 38 43
0.5654075350274301 3.030998767606964 0.9774851991968474 40 39 43
0.5639695716957316 3.0448020457268123 0.9754201005750595 41 41 43
0.585542199028942 3.0555671982345234 0.9734435913548612 37 37 39
0.6122448070571559 3.0657320488613196 0.9714751803004555 31 31 33
0.5734374875716182 3.0843859168461876 0.9692788213574163 26 26 28
0.5985440077792741 3.094811391310433 0.9672967176802155 24 24 26
0.5793780687303425 3.11084944631978 0.9651793853720388 23 23 25
0.550597394964258 3.128005532136254 0.9630479448369462 22 22 24
0.5274102286975513 3.144381072875415 0.9609443969289102 22 22 24
0.48180039667210917 3.243878052131537 0.9466270454395176 27 27 29
0.5075569077816452 3.2544839686319698 0.9446071617374019 28 28 30
0.5130636265278129 3.267334555792452 0.9425742118413716 28 28 30
0.5219483165591854 3.2798428884740476 0.940538571511779 29 29 31
0.4386521437658444 3.421563996318883 0.9204408613188609 47 47 49
0.42018668566501916 3.436444135898362 0.9184874137558482 36 36 38
0.479719841578244 3.564357187904167 0.8981755881758983 11 11 13
0.501419074191998 3.5761387869800703 0.8960432601384065 12 12 14
0.499791976769085 3.616175476300627 0.8900123816264174 12 12 14
0.8253002681692614 3.898316527552239 0.8420786868051378 39 37 42
0.8566819220842516 3.9111876457199295 0.8396253972676961 40 38 42
0.8814529043735855 3.924323694237957 0.8372386237803359 44 41 47
0.8824908320506888 3.938101254704521 0.8351374921986032 47 44 51
0.8408441270322646 3.9528271416999283 0.8335811791533795 57 56 59
0.8751990129024249 3.9658451871144664 0.8310577177346018 62 62 63
0.8884012344336727 3.9793716549515574 0.828798424406151 86 86 85
0.679272507078351 2.7962384693311826 1.0251860741688026 40 39 44
0.6530143508778092 2.8834112665218905 1.0123621274658425 43 43 43
0.6501237281711061 2.8976497007155024 1.0102472784100744 44 44 45
0.6480974843248379 2.9117457674016336 1.0081414817660217 45 45 44
0.6369305878908632 2.9271670633607454 1.0059672647020432 44 44 44
0.542779162318999 3.008931994575368 0.994945205873036 41 40 46
0.561785048285778 3.01992545225428 0.9930049187607701 40 39 44
0.5783717398493096 3.0313027041762144 0.9910415164784243 39 39 42
0.5906157930634479 3.0433075763584077 0.9890459087729528 34 34 36
0.5610604328340707 3.0608390405698844 0.9868182395947191 26 26 28
0.5678374335102047 3.073555209349094 0.9847940280179585 24 24 26
0.5361556765316657 3.091214050951471 0.982577844779581 23 23 25
0.5457940400412714 3.1035400941713753 0.9805713069541961 22 22 24
0.5591503556612226 3.1154292532475134 0.9785771261939686 22 22 24
0.5215086539887557 3.1606430682180564 0.9722734706707811 22 22 24
0.5152947701897446 3.2153027890653516 0.9640841268131929 23 23 25
0.5315333393656072 3.226957607455153 0.962083720725096 24 24 26
0.549534196270879 3.238467296793259 0.9600797880408064 27 27 29
0.5519109331197346 3.251723427241884 0.9580374827925153 28 28 30
0.44363814776788657 3.4231533048975313 0.9336383111801695 27 27 29
0.4734150772325306 3.4338413076772563 0.9315883795617542 24 24 26
0.49803397661739246 3.4450622244738898 0.9295323905007121 22 22 24
0.5114596347396658 3.5774981197735767 0.9092780307388527 13 13 15
0.5044286007263336 3.617931381341685 0.9032553923912982 11 11 13
0.7813471437016994 3.8880568669247775 0.85833115554908 35 33 37
0.812908728418861 3.9008143901129753 0.8559419213233144 37 35 40
0.839579644427555 3.9138003214384884 0.8535888829864408 38 35 42
0.8615565668576741 3.9269859603181003 0.8512735409193102 45 43 49
0.8698646356513953 3.9405604609959113 0.8490971557609924 55 53 58
0.8363222009225729 3.9550776202531366 0.8473837755841275 68 68 70
0.871729707810738 3.9680760531697494 0.8449023808280534 75 75 76
0.886462675280584 3.9815719839754564 0.8426448957334556 97 97 96
1.0600995440996026 1.9751296907000142 1.1588461404177335 17 16 21
1.0059983639646672 2.003252901494041 1.1552750875156157 17 16 21
0.5999052254533623 2.8385738954137287 1.033806518975652 46 45 48
0.5318202213561931 2.985336829184913 1.0124230607822553 44 43 48
0.550018889656181 2.9963766784914596 1.0105154694818983 44 43 48
0.5652852488253991 3.0078757680746206 1.0085758406966037 42 41 47
0.5761686743537235 3.0200169119107327 1.006595054680259 35 34 39
0.5893643202178467 3.0318783752779788 1.0046270284019776 28 27 30
0.616623358635125 3.0419114208330686 1.0027559212686872 25 25 27
0.5281269747081967 3.0672070978343213 1.0000547779660007 25 25 27
0.5468346079225704 3.1054563660490686 0.9940143436071502 22 22 24
0.5469488718061598 3.118999855401672 0.9919590044049094 21 21 23
0.5544405219033226 3.131632476033938 0.9899471848133765 21 21 23
0.5917193228685218 3.140674303042675 0.9880978942822332 21 21 23
0.5588411872492884 3.1582226768645865 0.9858583358662425 21 21 23
0.5272849102471824 3.202500008655158 0.9795483711817015 20 20 22
0.5529927680205833 3.2130873028117586 0.9776131057593526 22 22 24
0.5676305563019645 3.2249868827652386 0.975620803829815 24 24 26
0.544983506415371 3.254526141449864 0.9714316123712976 28 28 30
0.43879298709813164 3.4256140993571815 0.9468479552894429 30 30 32
0.46859785777902646 3.4362996642305186 0.9448452435089866 20 20 22
0.49913608723110703 3.447015627818292 0.9428285165388224 21 21 23
0.5287475591902112 3.5783643638469096 0.9225296828687086 13 13 15
0.5254464588200627 3.591946780238329 0.9205122419062192 13 13 15
0.525309515959582 3.6186521668980007 0.9164641191436945 12 12 14
0.5429253363794638 3.630896537335023 0.9143813368283957 16 16 18
0.8195495319276727 3.9164824680808854 0.8675244900739908 39 37 43
0.8423159106337933 3.929622061286467 0.8652398918467649 55 54 58
0.8544393303617337 3.9430789378053426 0.8630436718768397 73 71 74
0.831804595291833 3.957325980923238 0.8611733910660602 81 80 82
0.9159161905528695 3.9693459175314043 0.858271845836594 51 51 53
0.8807827731901627 3.9838408928423306 0.8565242597729531 91 91 91
0.8743770497446768 1.9218662906545598 1.1838105975765516 37 36 41
0.8268372516889799 1.9486472197023736 1.1802756508718786 34 35 40
0.6954727948913834 2.8255862974856267 1.0485971208021645 50 49 54
0.6394670126553201 2.8482044235600785 1.0457888179109345 50 49 55
0.6358495787617261 2.8625610548170886 1.0436494602286712 48 47 52
0.6179762572525922 2.879073232408845 1.0413421240775682 47 46 49
0.5988752124622554 2.8957062280613743 1.0390301630027463 46 46 47
0.569486386880653 2.913804587164653 1.0366106735896172 46 46 44
0.5469718628869991 2.9716368801333832 1.02808152990545 44 44 46
0.5610737798060366 2.9832583200392646 1.0261594568161887 43 43 46
0.5775217501103542 2.994595171205704 1.0242543775044475 44 43 48
0.5928111801721803 3.0061408668620087 1.0223305350635643 32 32 35
0.6025226300735685 3.0184899053447154 1.020347050579687 24 24 26
0.6405588395685615 3.0270657859449113 1.018619937691376 23 23 25
0.6745929032539778 3.036292885246755 1.0168386710019937 22 22 24
0.5241797918451659 3.1103569924501357 1.0072742180484595 21 21 23
0.5181687133201636 3.1246247637087268 1.0051750994432742 21 21 23
0.5333119608568296 3.1362740544537804 1.0032371615602529 21 21 23
0.5866277394301578 3.1433508795385396 1.0015669125970954 21 21 23
0.536131339051173 3.1629853106587484 0.9991500630926046 21 21 23
0.5704346805352212 3.172470067520379 0.9973266670266395 20 20 22
0.538827346962858 3.189710206073318 0.9950622723523657 20 20 22
0.5668872030962484 3.200016864302927 0.9931838530607663 23 23 25
0.6017554730259354 3.209643550190525 0.9913325950854093 21 21 23
0.43749199053069987 3.4277604203103706 0.9600512516486038 34 34 36
0.4682407502494781 3.438370151322451 0.9580967698401899 20 20 22
0.5002380014210385 3.4489698512051867 0.9561298600066456 21 21 23
0.6919284625431072 3.705298169060025 0.9150692902285441 17 17 19
0.7239122425449487 3.7172580589260997 0.9128960120710391 20 20 22
0.709467674373637 3.731591993092941 0.9108810865222728 26 26 28
0.7991434949033493 3.9191646574002554 0.8813996944545269 64 64 66
0.8039742907000768 3.9327209107213523 0.8792874555265399 78 78 79
0.8373775554889491 3.9456276959453707 0.8769545476073586 78 78 78
0.8738679796183928 3.958571096091319 0.8745815834625871 60 60 61
0.907560705027973 3.9716829934699973 0.8722142986528381 26 26 30
0.9415092009689389 3.984894012155887 0.8698291061014977 53 53 56
0.8508709595839831 1.9445272817918706 1.1950974777817116 42 42 47
1.01763996928706 2.004640003615447 1.1843714212324419 19 18 23
1.076423892039403 2.03459132165678 1.1792586449565696 19 18 22
0.6818274394395493 2.829806521033407 1.0621347042928089 54 53 58
0.635630700883659 2.850863609125552 1.0593737396418996 56 55 60
0.6382325302719318 2.8642569090153422 1.0573130248620988 49 49 52
0.6372818542423915 2.8781944102221466 1.055203417575801 46 46 47
0.6036133684057484 2.897047351406835 1.0526581955651202 45 45 45
0.6047904859247107 2.924320385149948 1.0485011692959865 43 43 43
0.5907162629502639 2.9400860593571814 1.0462386410431674 44 43 45
0.5891513112016096 2.9540006994695625 1.044138358977572 44 43 46
0.5875739261053105 2.9679070371659795 1.0420394573843454 43 43 45
0.5820862472496906 2.9823528240741646 1.039895793065855 36 36 38
0.6073190406864828 2.9925089382855576 1.0381116413160223 28 27 32
0.6405839950756028 3.0016414215369482 1.0364065987992899 23 22 25
0.6667872103752582 3.0118364708599676 1.0346072866257203 22 22 24
0.686622492681034 3.0229660843509016 1.03272655508228 21 21 23
0.5815414593357251 3.1460245294539186 1.0150209927738143 20 20 22
0.5457635293187346 3.1774235319421744 1.0105887139624645 20 20 22
0.579639777434694 3.187034311441647 1.0088051432233496 19 19 21
0.605704854891183 3.1976432946709976 1.0069442238769581 44 44 46
0.4797354741607517 3.439418746775158 0.9713912367797309 21 21 23
0.4838366046096406 3.5988383480177597 0.9471185598797229 13 13 15
0.4686041707251747 3.613112361388699 0.9450938115443808 14 14 16
0.7461487123080188 3.7045844826214136 0.9285457906838147 21 21 23
0.7523555151128338 3.7179393597332084 0.9264565845537073 28 28 30
0.7961365003742862 3.9077068675261213 0.897192783423717 69 68 72
0.8023827153967735 3.9212200419033487 0.8950791389386703 73 73 75
0.8401586643732601 3.933977065767368 0.8927801638364469 61 61 63
0.8342145803420125 3.9478504353083146 0.8907278601518954 56 56 56
0.8657860315620701 3.9609028996991076 0.8884430633714572 53 53 54
0.9010088105888794 3.9739807063858903 0.8861196407561668 27 27 30
0.9364485864563175 3.98716333939346 0.8837782167550982 41 41 43
0.8980815878950675 1.9489930387037169 1.2085135755165688 51 51 53
0.9732980805857203 2.046933509179424 1.1930156607538722 22 19 26
0.6223237275875472 2.854991144023808 1.072798586824281 39 39 42
0.6317468030795881 2.8673160356809344 1.0708486516288902 41 41 43
0.6239656660711916 2.8822805334217807 1.0686324277681833 43 43 43
0.5933354772506081 2.900647034065364 1.0660783229436548 43 43 41
0.6249751002226067 2.9234117073380386 1.0623646360064753 43 43 45
0.5862174344738225 2.983826342400515 1.0534751148026604 28 28 31
0.6293623278519549 2.991512776100221 1.0519656443889194 25 24 29
0.6683988520858993 2.999899889424323 1.0503818788082022 23 22 25
0.7186908127799774 3.0068880709504304 1.0489224121992897 21 21 23
0.5584898443921862 3.1508601326152488 1.0282721532090415 20 20 22
0.5230921670223683 3.182130616549359 1.0237916940912464 20 20 22
0.6136011701867128 3.1851705075154975 1.0226165209814988 21 21 23
0.5857027165138058 3.647897630292353 0.9524126769178393 15 15 17
0.5741408326119894 3.662002222346424 0.9503570876667032 15 15 17
0.6698418341946967 3.710652330806442 0.9421995202435139 21 21 23
0.7401253568851316 3.802521765595086 0.9276644043740443 13 13 15
0.8148767697026098 3.909331437132281 0.9108203274327702 52 51 55
0.837760676238589 3.922447147944346 0.9086440663261117 45 45 47
0.846818011964201 3.935966758099167 0.9065151835175554 48 48 49
0.8609742746808815 3.949395519972983 0.9043599861918943 52 52 52
0.8687635447609954 3.962998756751274 0.9022283588125517 62 62 62
0.8995892491248729 3.976175927418544 0.8999802227869202 49 49 51
0.9319089626658792 3.9894211171898877 0.8977099733072076 46 46 47
0.8492986899596906 1.9780214644355165 1.2189410385936978 43 43 48
0.9956225140435485 2.0289781627225327 1.2102663310755288 26 24 30
0.6196785339212801 2.8574600931228047 1.0863668568389453 39 39 42
0.6244770297416327 2.870492395777673 1.0843512348728528 41 41 41
0.6186164792219194 2.8851521235980253 1.0821539476061568 42 42 42
0.5953401824485913 2.9023996262750846 1.0796706973723669 43 43 43
0.6638439482833326 2.975009654553546 1.0681807292140215 27 27 29
0.6862650607125933 2.985703717861151 1.0664117608068027 23 23 26
0.7229008131330509 2.99452345085014 1.064839959904096 22 22 24
0.5489566493355716 3.181151729793296 1.0374849711498761 20 20 22
0.6314302085175862 3.185183569277631 1.0363575572284474 20 20 22
0.5223657158901908 3.6270794856825987 0.9697030676083271 13 13 15
0.5403513209014594 3.6393159385942395 0.9677266741845628 13 13 15
0.5696734873205801 3.650930323315168 0.9657745420127947 13 13 15
0.8498677533132575 3.924287624686009 0.9223791867405979 47 46 50
0.8604180196556153 3.9377937559006844 0.9202555841714252 48 47 49
0.8703258598319762 3.951343456863002 0.9181293393051443 52 52 53
0.8820646298899801 3.964882315350334 0.9159933562652638 59 58 59
0.9221196347361584 3.977912706473635 0.913758693692285 64 62 63
0.9407719848142564 3.991442179810219 0.9115811310926092 59 57 58
0.8460632439359623 1.9809280185559464 1.2329763005448844 44 43 49
0.7524535934161649 2.2894793605879062 1.1863333874052857 42 41 47
0.634233325190614 2.857266809484026 1.1002555020748852 37 37 39
0.6254822797502385 2.8723988343214715 1.0979870422974298 42 42 42
0.6199039134072282 2.887016534971815 1.0957825475048202 47 47 47
0.8111840492867224 2.9985950397875945 1.0778868087168305 20 20 22
0.5477343005814955 3.183346291493805 1.0509061154533712 21 21 23
0.7917969400787197 3.3495724807867497 1.0244324887621683 18 18 20
0.4998814741903149 3.617241401233856 0.9849324682782169 12 12 14
0.5157339145386185 3.6295552411873278 0.982981511161821 12 12 14
0.571371597333906 3.6394892501790506 0.9812118134809323 12 12 14
0.635865405168053 3.7705251559611708 0.9609271069553428 25 23 26
0.8442769603076274 3.9265826917580116 0.9361676481286496 47 46 51
0.8150628276819356 3.9410257646479065 0.9340977934637841 46 46 48
0.8041773952511726 3.954964674291136 0.9320211005755583 49 49 51
0.8950249016273527 3.966779845217022 0.9298035387850019 55 55 56
0.916782813166032 3.980186994863941 0.9276588090853696 59 58 59
0.9429542770966847 3.993583282876036 0.9254955693160153 62 61 62
0.8481604804422032 4.022679209230385 0.9214900239149099 169 169 167
0.8632344745534888 1.9786597518716462 1.2477332216868757 45 44 49
1.062801440755138 2.0168794403302037 1.2413135468729237 32 32 34
0.778312312860671 2.285870342712998 1.2010593213310592 42 41 47
0.8008908954221949 2.295177736736114 1.1995718912802364 38 37 43
0.6440823879910929 2.88542185507252 1.10987873146173 39 39 39
0.8717591192019025 2.992555126516222 1.092851569848422 20 20 22
0.8896444233317353 3.4406645452916016 1.0243576329772204 15 15 17
0.4937574706115534 3.6063861702776285 1.000201175387947 13 13 15
0.5766723844914485 3.627813394767787 0.9966866059633133 12 12 14
0.6191304304751647 3.65215333680974 0.9928451917741531 12 12 14
0.679425663357542 3.811292374936609 0.9683632701432855 36 36 38
0.8615406819027506 3.928302167996204 0.9499605434951841 43 42 47
0.8908849975477037 3.9413925305963367 0.947875585564133 44 44 46
0.8599858585316376 3.955888715363623 0.9457516625365672 48 48 50
0.9020845492960834 3.9688035636333487 0.9436563024697635 53 53 54
0.9275341496144469 3.9821593379712286 0.9415421693390116 59 59 59
0.9539839986725951 3.995575312115107 0.9394159235270064 62 62 62
1.017607562898205 2.0152948934398287 1.2564277657521086 38 38 40
0.6486360469087596 2.8453483984999215 1.129966676230052 54 54 56
0.6627841155679358 2.856988872288494 1.1281687710476893 41 41 42
0.6900149615527121 2.8666754662427834 1.1266530929557639 33 33 33
0.7046626647001113 2.8783463513095655 1.124849905336428 34 34 34
0.6646219971271131 2.898222701203337 1.1218611628970687 36 36 35
0.5709270812184386 3.1983325202834405 1.0760883152656187 25 25 27
0.4815237744962221 3.6225211329859217 1.0113364931871107 13 13 15
0.5318792048497654 3.632670595108392 1.0097207805685924 13 13 15
0.5688139174695112 3.6437911800919247 1.007973546958865 13 13 15
0.5465531812381328 3.6585118162529855 1.0057506986118363 12 12 14
0.557711315732881 3.7113763660239574 0.9976527843196232 31 31 33
0.574289182319002 3.723903783737838 0.9957161779100399 36 36 38
0.6950070623972562 3.812785632385204 0.9819720637903505 24 24 26
0.8424585999135257 3.9171795270888192 0.9658220998543631 36 36 39
0.8487024153416987 3.9307777666070236 0.963734822019437 38 37 42
0.8928761506349367 3.9435111570268204 0.9617318077077568 40 40 42
0.9018710507366656 3.9709764129096974 0.9575205706002071 58 59 59
0.9247210206038401 3.984386480685207 0.955441058661461 65 67 66
0.9521741186895873 3.997788266940095 0.9533569896777233 83 84 83
0.9039584539890926 2.001623815008697 1.273219686503411 45 44 48
0.9898822162758256 2.7222776109316307 1.1629236647832943 51 51 53
0.9265235371931142 2.7469756109927888 1.1591179472023778 47 47 49
0.6970702107899838 2.812054706631101 1.1490656843133484 54 53 58
0.6956228589605509 2.8261957075546427 1.1469001908705347 38 37 42
0.7073887939702937 2.8382704595732746 1.1450561518131506 35 34 39
0.7330481641393928 2.8482401040639003 1.1435397797784435 34 33 37
0.7557930801916324 2.8587339183023297 1.1419420301368637 34 34 36
0.7813681636752678 2.868871896958523 1.140399854133344 36 36 36
0.7324505526356327 2.8901886962931367 1.1371173807045492 39 39 37
0.5697492200861789 3.186950692299904 1.0916212241185244 24 24 26
0.4855177773038234 3.6243180005727456 1.0246293412029315 15 15 17
0.49914570368330136 3.6367593884482834 1.022729893063416 15 15 17
0.47029555869021644 3.6650497377110325 1.0183875714565884 28 28 30
0.824740933746177 3.919795356453747 0.9795243350533579 34 33 38
0.8512420454725277 3.932869344639593 0.97753302612709 38 38 40
0.8723287839010855 3.9461483633378514 0.975508229953494 41 41 43
0.889939443360631 3.959564787992843 0.9734610506076274 53 53 55
0.9431132834987748 3.986228419452203 0.9693995544469859 74 74 76
0.9632995411735845 3.9997871642169174 0.9673315843898788 99 99 100
1.034022058296945 2.7027054887166067 1.1805855534448584 63 63 63
0.9700545887992656 2.7276720579081988 1.1766282382335465 30 30 32
0.9119126495091858 2.7514765204253173 1.172860933198837 21 21 23
0.8492802320738039 2.7758025111124462 1.1690045278802481 20 20 22
0.7577921071380003 2.804494793835373 1.1644199955341819 51 50 55
0.746909643402514 2.820218670207152 1.1619876829811233 20 19 24
0.7609294039308343 2.8320318623825056 1.1602055968834797 30 29 34
0.7809664388439137 2.842961629259755 1.1585711967313046 33 33 36
0.8102678775160601 2.852544157154958 1.1571621996778323 36 36 38
0.8338116995002977 2.8630849417598974 1.1555945765274809 39 39 39
0.7864800902569359 2.884241205626169 1.1522552359897493 43 43 41
0.6460504902356835 3.1801828089115025 1.1066076687558586 25 25 27
0.47144034186156564 3.627260082367703 1.0377247376142174 18 18 20
0.46641423893879486 3.6408318370707176 1.0356342446874105 23 23 25
0.6260243579743113 3.698494537019012 1.0271215333619061 16 16 18
0.6430902776066947 3.7110947254306246 1.0252250339605236 15 15 17
0.8353234768339822 3.9354112682815736 0.9912346801149506 40 40 42
0.8518767270001204 3.948773276765873 0.9892203651965668 49 49 51
0.8737212049571788 3.9620723271156724 0.9872264960983738 68 68 70
0.9224898276910638 3.9749127979066734 0.9853578505132607 85 85 87
0.9432785892594242 3.9884054229592887 0.9833321568652774 78 78 80
0.9556160297332614 4.002097508929762 0.9812586470636705 92 92 92
0.9883716281164981 2.058146448053952 1.293980603035789 44 43 49
1.0707578455698519 2.684237196770928 1.198206305060916 121 121 119
1.024091579494446 2.706504510034648 1.1946168490918738 59 59 59
0.9576411195255248 2.7318450421370786 1.190482711098359 25 25 27
0.9145466661011608 2.7531803621291546 1.1870494692507128 17 17 19
0.910241002608553 2.768155970616366 1.1847354405939838 22 22 24
0.8088256734097086 2.79850054381681 1.1797042512982698 21 20 25
0.8004544927723966 2.8139132957874846 1.177308123662606 20 19 24
0.8108697331100757 2.8263786662458568 1.1754336820765912 29 28 33
0.8498486019410119 2.8344897386726937 1.1743329408087193 34 34 37
0.8679899685415728 2.84588873818035 1.172650678476896 39 39 40
0.840018593106165 2.864267031263445 1.169727072411705 43 43 42
0.6537945595252203 3.181366422750169 1.1203778450611477 25 25 27
0.458952039830893 3.616848369305253 1.0528300441027576 15 15 17
0.4565925179610301 3.6302438625762554 1.0507656846583322 23 23 25
0.6007551600143723 3.6750263066845648 1.0444259233052504 14 14 16
0.6075219443390654 3.688109180978347 1.0424432454152932 13 13 15
0.6088547512000653 3.70149855428512 1.0403934626155094 13 13 15
0.581315127211168 3.7297856849294964 1.035950861535134 16 16 18
0.581371791959886 3.7431864239341404 1.033894621192451 18 18 20
0.8079606048861625 3.938220769845712 1.0048019526079244 52 52 54
0.8326841215594554 3.951359837025913 1.0028769740398378 73 73 75
0.857563288234306 3.9645706671891405 1.0009415577609808 75 75 77
0.8969723741796483 3.9775777306325364 0.9990910768515553 50 50 52
0.9309426031894682 3.990802855337258 0.9971870444842091 31 31 33
0.9602404014333787 4.00420740478925 0.995238220506682 62 62 62
0.9014780987850828 2.1246713467504326 1.297989886721271 46 46 51
0.8912712431638948 2.343651426600848 1.2642914597562704 33 32 38
1.1053519436343402 2.6660189874581053 1.2159079414787972 162 162 162
1.0570272369128448 2.6886920351948644 1.212166092419355 95 95 95
1.03424586216671 2.7069874318137996 1.2092333985106565 43 44 46
1.0180081972265396 2.724133764384861 1.2065122341011283 19 19 23
1.0048825430127077 2.740718123501516 1.2038940502850524 18 17 20
0.9154465352496972 2.7694540675042085 1.1990008864560608 17 17 19
0.831501938119421 2.797018471640983 1.1943170787412547 18 17 21
0.8100684560306887 2.8145122888956338 1.1915147456344455 19 19 22
0.7955464670018207 2.830859266680399 1.1889255667474705 29 29 32
0.8281949744125473 2.8399250520204955 1.18770727822276 38 37 40
0.8542061891952737 2.8501002713434946 1.1862830485387448 41 40 41
0.9051789783175006 2.8566148998912273 1.185554695062092 46 45 45
0.9975319447768836 2.972083697044885 1.1683080022114438 17 17 19
0.5949524736329872 3.1766002784059673 1.1347337514973466 25 25 27
0.6989972820305772 3.288418040880621 1.1181105146608241 36 36 37
0.48986605006689177 3.630201131976604 1.0644811420529379 12 12 14
0.617074059668199 3.743549432734572 1.0477466064934662 14 13 16
0.7824036973334306 3.9136528480283017 1.0224961120519451 48 48 51
0.7969774789045214 3.9269451534311335 1.020531821912281 63 63 66
0.824982455891259 3.953681926559814 1.0165737542854707 79 79 80
0.848469631984766 3.9669157196056917 1.0146661129965355 57 57 59
0.8908704164956813 3.9798618004125643 1.0129038047679226 46 46 49
0.9210945437871041 3.9931511388754113 1.0110236513854698 32 31 35
0.9515232609341042 4.006529884566167 1.0091308555002394 37 35 38
0.8343893361867543 2.113775754613384 1.3137377505706977 53 52 58
1.082258353736768 2.672074219302176 1.2295956095981502 140 140 141
1.0391950537654786 2.693822385045368 1.2259488395465514 71 72 74
1.0265578920159864 2.7104129423519625 1.2233084144167254 30 31 34
1.0089078279757264 2.7277731167894843 1.2205145133827282 16 17 21
1.0037641882624642 2.743052117042658 1.2181282911935913 19 19 21
0.881666547564579 2.776978310265396 1.2120550080004056 19 19 21
0.8360867592442683 2.7984057828423734 1.2084399498957616 19 19 21
0.8035082547230452 2.81764441415854 1.2052525963011735 20 20 22
0.8369766929267128 2.826556026260865 1.204116113965965 31 31 33
0.8444166249291332 2.8395556851528037 1.2021685927467944 39 38 40
0.9102108431491037 2.8579941963595386 1.199792985388986 51 49 50
0.8898002929464469 2.8752591650038717 1.1969944037290117 54 52 53
0.8777428890959557 2.8912289107534495 1.1944535304112254 50 50 51
0.995618656861547 2.960156381531674 1.1846763233090642 17 17 19
0.5694899470077457 3.1680470245431858 1.149715444034917 26 26 28
0.6347872667849503 3.269742058964338 1.1345298527088425 44 44 46
0.7183266919949071 3.274758718881183 1.134343020196667 41 41 43
0.7112163619573916 3.2892696265553014 1.1320611777994118 33 33 35
0.632396139466713 3.71792645042677 1.065573460387087 13 13 15
0.6330375284400682 3.744875237772967 1.0614326922704662 13 13 14
0.6966664760990042 3.768999561887572 1.0581673357848205 13 13 14
0.8332518592896463 3.928173558722982 1.0346394014355325 69 69 70
0.8729697207518967 3.9547785437430663 1.0308250772032477 52 52 54
0.8535487420930138 3.968968359905217 1.0285064426492903 53 52 55
0.8906171293481455 3.982033606581789 1.0267562508369217 56 56 60
0.9182785134375123 3.9953744657698658 1.0248978093210699 46 43 49
0.9461090876676945 4.008797068157699 1.0230279785180765 32 28 34
0.9176530806933509 2.11055757252988 1.329389123968568 55 55 60
1.1094780525946684 2.655042003066262 1.2471982399394443 163 164 164
1.0616812710864694 2.6776962227430405 1.2432958057460104 102 104 104
1.0671071880473348 2.6913486344967392 1.2412402822302144 43 46 47
1.0598200307303978 2.7071036498155223 1.2387509285838696 23 26 27
0.9871266381275514 2.747885139162636 1.2318414076404742 14 15 17
0.910010915574823 2.774584494197642 1.2270622735610122 16 16 19
0.8478297216211931 2.7986666571302328 1.2228154426263207 17 17 19
0.8306576553365479 2.81551295059208 1.2200724806460574 22 22 24
0.9115489805816389 2.8599281392159277 1.2139325911653176 53 51 52
0.8849442959884353 2.8781059351466096 1.2109029405249043 55 53 54
0.8833732003260348 2.892533167413371 1.2086675371936313 50 50 51
0.5370891047020455 3.1603894656727474 1.1644204669732252 26 26 28
0.6438151520875877 3.1613369550736126 1.1651982309569322 26 26 28
0.6413288177920021 3.175335400800489 1.1630209400335545 26 26 29
0.6176656617637766 3.191749201501656 1.1602884041004842 29 29 32
0.6294132148336647 3.2587320740401853 1.1500746559603172 47 46 51
0.7334189848484756 3.2753015224771866 1.148423081892961 38 38 41
0.7188885362924926 3.29058914219166 1.1459430193096374 29 29 32
0.8674198340694919 3.345601333974659 1.138756583623691 24 24 26
0.45995674200220604 3.622920262038423 1.0925227766731256 13 13 15
0.6394150594384368 3.7601600736360274 1.0729408806687313 13 14 15
0.8665895422284264 3.9708640211678174 1.0424584127349086 52 51 56
0.9019824765627326 3.9839910847674647 1.0407431477689577 54 54 57
0.9224884392531063 3.9974782788552785 1.0388435806537173 57 54 59
0.9429646975226977 4.011027201783228 1.0369342501628542 40 36 41
1.1060928284807252 2.6431537150001168 1.2637911027279338 168 168 166
1.0863739182663381 2.6611271101135126 1.2608166488167265 140 142 141
1.0411311637745582 2.683303768994612 1.2569310028680285 70 73 73
1.0585711313565196 2.6949319234191544 1.2553179404106223 30 34 35
1.049974024689853 2.7108864220241022 1.2527694182659348 22 25 24
1.041422295382795 2.7267997052267585 1.2502277185842363 16 18 17
0.9707409189667631 2.7526696716838654 1.2455103851621698 16 16 18
0.9220281699296303 2.774803223757456 1.2415956133851176 17 16 20
0.8974283598311539 2.849939767865255 1.2297573201385703 50 48 49
0.9003490726314222 2.863733204348053 1.2276607316447543 57 55 56
0.8880583120896686 2.879774964450341 1.225060677539986 55 53 54
0.9046168821583711 2.8915634048260244 1.2234138155794405 46 46 47
0.9536192362378978 2.9130258072284065 1.2206098663337221 28 27 32
0.9427971449217721 2.928847117681011 1.2180589420592318 19 19 20
0.5780297732080107 3.1303254820154334 1.1832342466190242 20 20 22
0.5973151054021655 3.141607339802956 1.181693600664573 24 24 26
0.620093672140069 3.152530996991858 1.1802441944526594 26 26 28
0.6184663477260554 3.1663980305856305 1.1780893729757045 25 25 28
0.6244773123087117 3.1793682299941133 1.1761515700833598 27 26 31
0.6294817369534347 3.1924685483778092 1.1741833287979513 31 30 35
0.6345303641872075 3.2602653595740603 1.163782334684843 48 47 52
0.7397111542173145 3.2767576974629242 1.162323821949861 36 35 40
0.7328819886742626 3.29127266932213 1.1600154744324793 27 26 31
0.8316393178589241 3.337121081683189 1.1539645673670766 24 24 26
0.45579393363510756 3.598730112687148 1.1097546091814163 15 15 17
0.5460782766051013 3.6462640260353885 1.1033564805150955 16 16 18
0.8914666231192272 3.958706101454679 1.0587441743798143 50 49 54
0.8650403536431313 3.9730557144792944 1.0562592959741128 53 52 57
0.8966767967223452 3.9862580849342493 1.0545498691524275 53 53 55
0.9275156134260885 3.999570929279353 1.052815186540493 56 54 57
0.9538065540394337 4.013046510721751 1.0510085288350839 57 53 56
0.9135465922761247 2.246237354318433 1.3375507153469866 33 32 37
1.1297335073422201 2.6266147126049093 1.2814209140597939 168 168 166
1.0872121670860362 2.6485502328799098 1.277526174138977 159 159 157
1.062372133748445 2.6673526214621464 1.2743266057029157 101 101 102
1.053639324514231 2.6833736035874773 1.2717490837132779 47 47 49
1.0604222040862001 2.6967916896850013 1.269758975883013 25 25 27
1.0325971949853896 2.7303942412840434 1.2642390994623398 15 15 17
0.9578066124349641 2.7568922071683932 1.2592540307704954 15 15 17
0.9107617983952868 2.7787276274836716 1.2553206255636218 16 16 18
0.8716736052643899 2.8417565777843707 1.2451236550170346 45 45 46
0.8915591944934279 2.8529542321887984 1.2436330551129353 53 53 55
0.8833510874010304 2.8683963691217724 1.2411511627037106 58 58 60
0.8887540872070612 2.8818018984396785 1.2391464848513263 51 51 53
0.8973538124879998 2.894754863303015 1.2372499105182484 42 42 44
0.9467958241101855 2.9161438130638344 1.2345397532084073 23 23 25
0.941523812730807 2.9311711747541347 1.2321570129948396 17 17 19
0.5771135990028555 3.132497029014049 1.1967201021233256 21 21 23
0.5809728043184481 3.145645692185717 1.1947366055557949 23 23 25
0.6133512017724423 3.15540500331885 1.1936174914815016 24 24 26
0.6103108040980996 3.169426977691834 1.191416643952435 25 25 27
0.6179333576352537 3.1821990455095275 1.1895363029346395 29 29 31
0.6345560920254035 3.1939637881195546 1.1879191301412915 35 35 37
0.6455319676047511 3.2474943172742896 1.1797873102602932 51 50 55
0.6527893100702056 3.260409199371436 1.1778805547702458 49 48 53
0.6912518757530761 3.2838376555250757 1.174724219567636 35 33 38
0.7359149456666746 3.293070569917021 1.1738333305071202 26 24 29
0.8102142620516388 3.3412753699542175 1.1672811819758944 26 26 28
0.5423484685150509 3.554795645268489 1.1311169226194684 11 11 13
0.49207518280969675 3.571718027722387 1.1279032843392627 12 12 14
0.4544563231441755 3.600863646684162 1.1229542235543566 15 15 17
0.4602825544133288 3.613736120810262 1.1210368930482717 17 17 19
0.48075259037162543 3.6522595217507026 1.1153352021656462 34 34 36
0.8689332250310537 3.9751404050552743 1.0701383901674748 49 49 51
0.8867464364806581 3.988605686020035 1.068272959629957 51 51 54
0.9156091897775481 4.0019430622043775 1.0665594651050416 55 54 59
0.9590767481726978 4.015153623682003 1.065040272058203 56 56 59
1.11202594568368 2.6318419282913075 1.295210642150776 167 167 165
1.068409109712911 2.6539244394444292 1.2912039252928904 135 135 134
1.056962124807438 2.670431315525415 1.2884969948659795 75 74 77
1.0537237509881243 2.685524244355243 1.286120370566413 29 29 32
1.0612874750464 2.6988155944638703 1.2841692779378784 17 17 21
1.039298900671351 2.716962652456292 1.2810653064922404 15 14 18
0.9736743399408981 2.742098836240289 1.2762869504459688 15 15 17
0.8710157501102986 2.8297842696245357 1.2613376314387217 41 41 41
0.8913585516194877 2.8408888243363166 1.2598985269286174 50 50 51
0.8864645107884691 2.855849616752406 1.2575197758241081 57 57 59
0.8864714918847676 2.8700604610730447 1.2553236693151957 57 57 59
0.8941651034293441 2.883136283553765 1.253407654074235 47 47 49
0.9014180929940772 2.8962966057010133 1.2514725793008523 38 38 40
0.9468370795506098 2.918283719407824 1.248693139988447 20 20 22
0.5706468826281457 3.13534649355302 1.2100242309742508 22 22 24
0.6255114588309495 3.1423386809480527 1.2096908032292109 24 24 26
0.6063670947986279 3.158304619840162 1.2069626446665915 25 25 27
0.6131212656436063 3.171166650965979 1.2050668758355725 27 27 29
0.6212233303100403 3.1838903117865716 1.2032108476066767 32 32 34
