ply
format ascii 1.0
element vertex 795
property float x
property float y
property float z
property float nx
property float ny
property float nz
property uchar diffuse_red
property uchar diffuse_green
property uchar diffuse_blue
property uchar class
property uchar detection
end_header
0.9518 2.6117 -0.1975 -0.432 0.729 -0.530 173 173 173 0 0
0.9539 2.7402 -0.2150 -0.255 -0.768 0.588 173 173 173 0 0
0.9250 2.7851 -0.1880 -0.843 -0.308 -0.441 92 92 94 0 0
0.9205 2.9292 -0.1923 -0.964 -0.182 -0.193 64 64 66 0 0
0.8175 3.1643 -0.1944 -0.933 0.129 0.337 58 56 57 0 0
0.8112 3.1779 -0.1953 -0.923 0.211 0.322 71 69 70 0 0
0.7613 3.0344 -0.1548 -0.876 0.135 -0.463 60 59 65 0 0
0.7684 3.0631 -0.1597 -0.810 0.234 -0.538 57 54 61 0 0
0.8199 3.1663 -0.1808 -0.981 0.144 0.131 83 81 82 0 0
0.8481 2.4081 -0.0694 -0.739 -0.641 0.207 170 170 170 0 0
0.8357 2.4361 -0.0714 -0.718 -0.692 0.082 129 129 131 0 0
0.8614 2.4504 -0.0769 -0.810 -0.122 0.574 104 104 106 0 0
0.8713 2.4787 -0.0821 -0.899 0.150 0.411 87 87 89 0 0
0.7534 3.0356 -0.1397 -0.911 0.149 -0.384 74 73 78 0 0
0.7636 3.0504 -0.1432 -0.851 -0.158 -0.501 76 74 80 0 0
0.8066 3.1527 -0.1629 -0.964 0.167 -0.209 80 80 78 0 0
0.8109 3.1955 -0.1693 -0.930 0.362 -0.054 87 85 85 0 0
0.7924 3.2078 -0.1683 -0.935 0.191 -0.298 83 82 82 0 0
0.7942 3.2221 -0.1704 -0.941 0.168 -0.294 82 81 81 0 0
0.8772 2.4523 -0.0652 -0.949 -0.315 -0.012 63 63 65 0 0
0.8715 2.4804 -0.0681 -0.838 -0.059 -0.543 66 66 68 0 0
0.8744 2.5087 -0.0723 -0.867 0.487 0.103 64 65 67 0 0
0.7505 3.0371 -0.1254 -0.688 -0.183 -0.703 80 79 82 0 0
0.9206 3.3370 -0.1893 -0.565 0.499 -0.658 173 172 170 0 0
0.8841 2.7086 -0.0861 -0.889 -0.277 -0.365 63 64 65 0 0
0.7386 3.0379 -0.1098 -0.768 -0.218 -0.602 77 76 80 0 0
0.7286 3.0388 -0.0945 -0.710 -0.278 -0.647 71 69 74 0 0
0.8052 2.5266 -0.0226 -0.887 -0.431 -0.165 49 49 51 0 0
0.7176 2.8584 -0.0549 -0.877 -0.478 -0.049 49 48 51 0 0
0.7481 2.9021 -0.0649 -0.783 -0.304 -0.543 68 67 70 0 0
0.8087 3.3015 -0.1263 -0.717 0.041 -0.696 67 65 66 0 0
0.6386 2.9522 -0.0428 -0.806 0.272 -0.526 68 67 69 0 0
0.7353 2.6677 -0.0039 -0.841 -0.294 -0.453 32 31 36 0 0
0.6496 3.1626 -0.0583 -0.448 -0.438 -0.780 46 45 51 0 0
0.9893 2.3229 0.0372 -0.555 -0.832 -0.009 173 173 173 0 0
0.9675 2.3373 0.0381 -0.546 -0.838 -0.003 172 172 172 0 0
0.9845 2.3247 0.0520 -0.562 -0.820 0.110 171 172 172 0 0
0.9638 2.3390 0.0528 -0.562 -0.820 0.110 172 172 172 0 0
0.8609 2.4377 0.0528 -0.834 0.151 -0.531 31 31 33 0 0
0.7163 2.7695 0.0272 -0.767 -0.234 -0.598 58 58 60 0 0
0.9730 2.3265 0.0677 -0.678 -0.734 0.052 171 173 172 0 0
0.7296 2.7718 0.0392 -0.982 0.029 0.186 54 54 56 0 0
0.9583 2.3282 0.0836 -0.852 -0.523 0.022 171 173 172 0 0
0.9495 2.3425 0.0828 -0.852 -0.523 0.022 170 171 171 0 0
0.4042 2.9508 0.1105 -0.771 0.241 -0.589 53 52 55 0 0
0.9087 2.4502 0.1452 -0.508 -0.205 -0.836 46 44 48 0 0
0.8629 2.4796 0.1608 -0.437 -0.266 -0.859 50 50 52 0 0
0.6174 2.5447 0.1803 -0.598 -0.026 -0.801 54 54 56 0 0
0.8721 3.5465 0.0192 -0.517 0.638 -0.571 61 60 60 0 0
0.8038 2.3406 0.2000 -0.586 -0.673 -0.451 68 68 70 0 0
0.7945 2.4804 0.1827 -0.326 -0.462 -0.825 51 51 53 0 0
0.7723 2.4940 0.1834 -0.302 -0.506 -0.808 52 52 54 0 0
0.8226 2.3283 0.2137 -0.682 -0.695 -0.229 68 68 70 0 0
0.7976 2.3423 0.2146 -0.707 -0.696 0.123 67 64 67 0 0
0.7433 2.4813 0.2024 -0.326 -0.462 -0.825 51 51 53 0 0
0.7290 2.4950 0.2021 -0.229 -0.452 -0.862 51 51 53 0 0
0.6194 2.5893 0.2019 -0.427 0.015 -0.904 49 49 51 0 0
0.6099 2.6028 0.2012 -0.410 -0.381 -0.829 48 48 50 0 0
0.8285 2.3299 0.2270 -0.865 -0.389 -0.316 64 64 66 0 0
0.7955 2.3999 0.2214 -0.930 -0.314 -0.194 56 55 58 0 0
0.8202 2.2897 0.2474 -0.550 -0.818 -0.169 71 71 73 0 0
0.7991 2.3038 0.2478 -0.550 -0.818 -0.169 68 68 70 0 0
0.8125 2.2914 0.2621 -0.558 -0.819 -0.135 67 67 69 0 0
0.7920 2.3055 0.2625 -0.556 -0.821 -0.127 64 64 66 0 0
0.7885 2.3195 0.2610 -0.660 -0.751 0.037 60 60 62 0 0
0.7070 2.4305 0.2550 -0.087 -0.974 0.209 43 42 48 0 0
0.4603 2.6438 0.2532 -0.667 -0.237 -0.707 75 75 75 0 0
0.4866 3.2701 0.1682 -0.931 -0.358 -0.073 25 24 26 0 0
0.7651 2.3074 0.2791 -0.524 -0.852 -0.020 60 60 62 0 0
0.3925 3.0323 0.2229 -0.881 0.376 -0.289 31 31 33 0 0
0.8187 2.3088 0.2875 -0.525 -0.812 -0.255 56 56 58 0 0
0.7751 2.3229 0.2901 -0.897 -0.407 0.173 52 52 54 0 0
0.5341 2.5681 0.2828 -0.916 -0.126 -0.381 82 80 83 0 0
0.3895 3.0203 0.2383 -0.942 0.004 -0.334 35 34 38 0 0
0.7848 2.3246 0.3031 -0.935 -0.348 0.072 48 48 50 0 0
0.5259 2.5832 0.2953 -0.915 0.306 -0.263 91 90 92 0 0
0.4750 2.6764 0.2883 -0.429 -0.706 -0.564 69 69 69 0 0
0.5403 3.4188 0.1845 -0.910 0.146 -0.387 44 43 46 0 0
0.6194 2.4364 0.3190 -0.296 0.935 -0.197 53 52 57 0 0
0.6598 3.5196 0.1732 -0.820 0.514 -0.251 44 44 46 0 0
1.0157 3.7288 0.1105 -0.436 0.716 -0.545 171 171 171 0 0
0.4249 2.6912 0.3185 -0.500 -0.348 -0.793 31 32 34 0 0
0.4872 3.1422 0.2535 -0.836 0.334 0.436 27 27 31 0 0
0.6562 3.5209 0.1875 -0.820 0.514 -0.251 45 45 47 0 0
0.3718 3.0121 0.2953 -0.988 0.075 -0.137 21 21 23 0 0
0.5267 3.4223 0.2268 -0.895 0.294 0.336 63 61 62 0 0
0.5387 3.4376 0.2237 -0.681 0.643 0.350 61 59 60 0 0
0.4271 2.6543 0.3503 -0.899 -0.153 0.410 46 48 50 0 0
0.3690 3.0136 0.3089 -0.986 -0.156 0.055 16 16 18 0 0
0.5698 3.3328 0.2482 -0.669 -0.583 -0.461 12 12 15 0 0
0.6151 2.4157 0.3775 -0.597 -0.065 -0.800 50 50 52 0 0
0.4191 2.5215 0.3819 -0.968 -0.177 -0.177 26 25 29 0 0
0.4165 2.5348 0.3804 -0.971 -0.016 -0.240 23 20 26 0 0
0.4011 2.6684 0.3644 -0.690 -0.498 -0.525 27 30 29 0 0
0.3915 2.5092 0.3996 -0.994 -0.071 -0.082 21 21 23 0 0
0.4076 2.5229 0.3963 -0.997 -0.054 -0.054 14 14 16 0 0
0.4141 2.5364 0.3940 -0.968 -0.177 -0.177 13 13 15 0 0
0.4316 2.5502 0.3906 -0.974 -0.017 -0.224 15 15 17 0 0
0.4224 2.6440 0.3792 -0.970 0.205 0.128 36 36 40 0 0
0.4233 2.6709 0.3756 -0.520 -0.816 -0.252 27 27 29 0 0
0.3804 3.0447 0.3308 -0.983 0.184 -0.013 25 25 27 0 0
0.7162 3.5786 0.2306 -0.907 0.018 -0.421 38 39 41 0 0
0.9800 2.2361 0.3960 -0.802 -0.547 0.240 52 52 53 0 0
0.4319 2.4847 0.4127 -0.981 -0.186 0.056 31 31 33 0 0
0.3692 3.0186 0.3488 -0.968 0.001 0.251 25 25 27 0 0
0.3789 3.0328 0.3460 -0.959 -0.267 -0.096 18 18 20 0 0
0.3576 3.2057 0.3254 -0.165 -0.799 0.579 31 31 31 0 0
0.6620 3.5446 0.2541 -0.544 0.642 -0.540 54 55 57 0 0
0.6900 3.5626 0.2492 -0.623 0.576 -0.529 40 41 43 0 0
0.7035 3.5786 0.2459 -0.746 -0.078 -0.661 38 39 41 0 0
0.8404 3.6554 0.2237 -0.867 0.161 -0.472 56 56 58 0 0
0.4289 2.6206 0.4088 -0.909 -0.089 -0.408 17 17 19 0 0
0.3722 3.0340 0.3600 -0.968 0.001 0.251 11 11 13 0 0
0.6135 3.5257 0.2748 -0.505 0.664 -0.551 67 65 68 0 0
0.6411 3.5435 0.2701 -0.531 0.563 -0.633 53 53 55 0 0
0.8367 3.6567 0.2382 -0.866 -0.127 -0.484 49 48 52 0 0
0.8966 3.7377 0.2224 -0.658 0.652 -0.377 85 85 83 0 0
0.3864 2.4339 0.4503 -0.962 0.265 0.068 25 25 27 0 0
0.4082 2.5278 0.4362 -0.984 -0.077 0.161 17 15 19 0 0
0.6058 3.5264 0.2894 -0.537 0.506 -0.675 56 56 58 0 0
0.4780 2.6390 0.4294 -0.977 -0.146 -0.158 15 15 17 0 0
0.2952 2.9112 0.4095 -0.532 -0.019 -0.847 17 17 19 0 0
0.4271 2.4912 0.4665 -0.861 -0.289 -0.418 36 36 38 0 0
0.4849 2.6544 0.4405 -0.983 0.044 0.181 16 16 18 0 0
0.5354 3.4374 0.3347 -0.920 -0.310 0.241 27 26 31 0 0
0.4241 2.4928 0.4801 -0.919 -0.325 -0.225 19 19 21 0 0
0.4874 2.6562 0.4538 -0.983 0.044 0.181 12 12 14 0 0
0.3501 3.0656 0.4118 -0.985 0.089 0.150 12 12 14 0 0
0.7275 3.6475 0.3057 -0.873 -0.472 0.121 43 43 45 0 0
0.4235 2.4944 0.4935 -0.961 -0.261 -0.090 19 19 21 0 0
0.4200 2.5078 0.4921 -0.961 -0.261 -0.090 16 16 18 0 0
0.4109 3.0321 0.4249 -0.806 -0.581 -0.110 16 16 18 0 0
0.4384 3.1156 0.4118 -0.608 0.787 -0.107 10 10 12 0 0
0.4679 3.1320 0.4074 -0.713 0.530 -0.459 10 10 12 0 0
0.4887 3.2022 0.3966 -0.517 -0.782 0.348 18 18 20 0 0
0.4109 2.6299 0.4905 -0.906 0.408 -0.117 17 17 19 0 0
0.4213 3.1022 0.4286 -0.989 -0.147 0.018 12 12 14 0 0
0.4872 3.1628 0.4156 -0.649 0.467 -0.601 10 10 12 0 0
0.4353 2.4979 0.5193 -0.925 -0.376 0.057 22 22 24 0 0
0.5063 2.6755 0.4909 -0.731 0.473 -0.493 13 13 15 0 0
0.4992 2.6888 0.4897 -0.903 0.363 -0.231 15 15 17 0 0
0.4353 3.1188 0.4390 -0.834 0.544 0.088 11 11 13 0 0
0.5387 3.5001 0.3817 -0.903 0.413 -0.123 41 41 43 0 0
0.4977 2.4059 0.5401 -0.989 -0.024 -0.143 21 21 23 0 0
0.4972 2.4194 0.5384 -0.929 0.272 -0.252 16 15 18 0 0
0.4676 2.4327 0.5389 -0.949 -0.223 0.222 21 20 22 0 0
0.4105 2.6332 0.5173 -0.866 0.415 0.279 18 18 20 0 0
0.4073 3.0503 0.4636 -0.396 -0.663 0.636 25 25 27 0 0
0.4980 2.4076 0.5536 -0.999 -0.032 0.039 21 21 23 0 0
0.4784 2.4209 0.5533 -0.990 0.007 0.143 14 13 17 0 0
0.4722 2.4344 0.5520 -0.893 -0.269 0.360 17 16 18 0 0
0.4092 2.6214 0.5325 -0.985 0.049 0.164 21 21 23 0 0
0.4371 2.7166 0.5181 -0.336 -0.923 0.190 31 31 33 0 0
0.5565 2.3143 0.5751 -0.612 0.135 0.779 27 27 29 0 0
0.4873 2.4091 0.5678 -0.952 0.302 0.037 26 26 28 0 0
0.4823 2.4226 0.5664 -0.957 -0.070 0.281 15 15 18 0 0
0.3981 2.6093 0.5484 -0.982 0.006 0.187 23 23 25 0 0
0.3979 2.6227 0.5467 -0.982 0.006 0.187 23 23 25 0 0
0.4390 2.7183 0.5314 -0.290 -0.745 0.601 34 34 36 0 0
0.6032 3.3612 0.4367 -0.442 0.026 0.896 13 13 15 0 0
0.6461 2.2606 0.5896 -0.494 0.161 0.854 27 27 29 0 0
0.6090 2.2747 0.5903 -0.472 -0.629 0.618 25 25 27 0 0
0.5050 2.3703 0.5853 -0.831 -0.538 0.143 39 39 41 0 0
0.4581 3.0325 0.5032 -0.457 -0.568 0.684 34 34 36 0 0
0.4490 3.0725 0.4986 -0.948 0.309 0.074 28 28 30 0 0
0.3972 3.0815 0.5011 -0.568 -0.493 0.659 26 26 28 0 0
0.5915 3.5978 0.4209 -0.661 0.744 -0.096 59 58 59 0 0
0.6576 2.2484 0.6043 -0.460 0.426 0.779 27 27 29 0 0
0.6601 2.2621 0.6023 -0.559 -0.077 0.826 26 26 28 0 0
0.5883 2.2902 0.6036 -0.296 -0.665 0.686 24 24 26 0 0
0.5026 2.3719 0.5989 -0.791 -0.490 -0.367 42 42 44 0 0
0.4948 2.3854 0.5977 -0.791 -0.490 -0.367 43 43 45 0 0
0.3947 2.6124 0.5753 -0.961 0.266 -0.080 32 32 34 0 0
0.4017 2.6395 0.5713 -0.961 0.269 0.056 38 37 42 0 0
0.4236 2.7210 0.5593 -0.322 -0.700 -0.638 36 36 38 0 0
0.5483 3.5517 0.4438 -0.675 0.707 0.211 37 34 40 0 0
0.8108 3.7605 0.3990 -0.996 -0.062 -0.071 55 55 55 0 0
0.6813 2.2497 0.6165 -0.507 0.415 0.756 25 25 27 0 0
0.5797 2.3464 0.6108 -0.302 -0.561 0.771 34 34 36 0 0
0.5295 2.3601 0.6124 -0.467 -0.239 0.852 37 37 39 0 0
0.6071 3.4504 0.4668 -0.807 0.528 -0.263 9 9 11 0 0
0.5870 3.4617 0.4667 -0.889 -0.238 -0.390 10 10 12 0 0
0.5701 3.5288 0.4592 -0.892 0.145 0.428 19 17 22 0 0
0.5734 3.5570 0.4553 -0.933 -0.163 0.320 37 34 40 0 0
0.7975 3.7459 0.4161 -0.874 -0.015 -0.485 44 44 46 0 0
0.6996 2.2374 0.6308 -0.381 0.743 0.551 26 26 28 0 0
0.5724 2.3209 0.6284 -0.223 -0.838 0.499 28 28 30 0 0
0.4359 3.1579 0.5296 -0.554 0.067 0.830 16 16 18 0 0
0.3977 3.2895 0.5151 -0.447 0.839 -0.309 16 16 18 0 0
0.5894 3.4499 0.4820 -0.984 -0.017 -0.178 10 10 12 0 0
0.5678 2.3634 0.6370 -0.560 -0.110 0.821 33 33 35 0 0
0.4976 2.4445 0.6310 -0.784 0.338 0.521 43 42 46 0 0
0.3991 3.1425 0.5475 -0.544 0.469 0.696 19 19 21 0 0
0.5588 3.1853 0.5319 -0.358 0.803 0.477 15 15 17 0 0
0.4177 3.2935 0.5270 -0.512 0.786 -0.347 17 17 19 0 0
0.5625 3.4620 0.4961 -0.482 -0.732 -0.481 10 10 12 0 0
1.0431 2.0064 0.6674 -0.459 -0.466 -0.757 167 167 169 0 0
0.6424 2.3514 0.6478 -0.224 0.818 0.529 34 34 36 0 0
0.5858 2.3651 0.6495 -0.560 -0.110 0.821 35 35 37 0 0
0.4295 3.1335 0.5604 -0.570 0.236 0.787 22 22 24 0 0
0.6071 3.4696 0.5063 -0.353 -0.817 -0.456 9 9 11 0 0
0.6077 3.5812 0.4920 -0.853 0.181 0.490 31 30 35 0 0
0.7620 3.7599 0.4595 -0.948 -0.313 0.059 51 50 55 0 0
1.0142 1.9950 0.6851 -0.623 -0.246 -0.742 167 167 169 0 0
0.6440 2.3393 0.6631 -0.209 0.911 0.355 33 33 35 0 0
0.4745 3.1395 0.5706 -0.421 0.717 0.555 21 21 23 0 0
0.9887 1.9835 0.7026 -0.793 0.016 -0.610 167 167 169 0 0
0.9950 1.9975 0.7004 -0.623 -0.246 -0.742 161 161 163 0 0
0.5516 2.4500 0.6683 -0.772 -0.294 0.564 43 43 45 0 0
0.4770 3.1414 0.5840 -0.300 -0.708 0.639 21 21 23 0 0
0.4573 3.2485 0.5714 -0.897 -0.004 0.443 19 19 21 0 0
0.9773 1.9857 0.7174 -0.793 0.016 -0.610 147 146 148 0 0
0.9773 1.9999 0.7156 -0.707 -0.220 -0.672 107 105 108 0 0
0.5576 2.4381 0.6833 -0.725 -0.552 0.412 40 40 42 0 0
0.5844 2.4520 0.6800 -0.669 0.714 -0.209 42 42 44 0 0
0.5194 3.1197 0.5981 -0.354 0.038 0.935 27 27 29 0 0
0.5948 2.4128 0.6983 -0.831 -0.538 -0.139 38 38 40 0 0
0.5847 2.4264 0.6971 -0.803 -0.595 -0.046 39 39 41 0 0
0.5743 2.4399 0.6959 -0.777 -0.546 -0.314 39 39 41 0 0
0.5763 2.4536 0.6941 -0.349 0.538 -0.768 40 40 42 0 0
0.5306 3.1636 0.6057 -0.271 -0.488 0.830 21 21 23 0 0
0.4636 3.2527 0.5980 -0.534 0.776 0.336 22 22 24 0 0
0.4457 3.2643 0.5975 -0.740 -0.017 0.672 19 19 21 0 0
0.4237 3.2755 0.5973 -0.128 -0.842 0.524 15 15 17 0 0
0.3687 3.2829 0.5993 -0.122 -0.774 0.621 16 16 18 0 0
0.5810 2.4280 0.7109 -0.828 -0.557 0.068 37 37 39 0 0
0.4366 3.0613 0.6376 -0.350 -0.760 0.547 31 31 33 0 0
0.5565 3.1679 0.6176 -0.286 -0.431 0.856 21 21 23 0 0
0.4627 3.2543 0.6116 -0.845 0.379 0.378 24 24 26 0 0
0.4513 3.2667 0.6106 -0.845 -0.240 0.478 18 18 20 0 0
0.4232 3.2772 0.6107 -0.106 -0.967 0.230 16 16 18 0 0
0.4579 3.2691 0.6237 -0.627 -0.243 0.740 17 17 19 0 0
0.7525 2.3213 0.7437 -0.570 0.092 -0.817 31 30 35 0 0
0.7114 2.3354 0.7439 -0.650 -0.575 0.496 33 32 37 0 0
0.5552 2.9373 0.6749 -0.018 -0.998 0.062 36 36 38 0 0
0.5033 3.5922 0.5939 -0.908 0.028 0.419 27 27 29 0 0
0.8206 3.8416 0.5605 -0.834 0.437 -0.338 51 51 52 0 0
0.5234 3.1990 0.6708 -0.887 0.154 -0.435 22 22 24 0 0
0.5807 2.8478 0.7267 -0.352 -0.896 -0.270 31 31 33 0 0
0.5398 3.2024 0.6834 -0.927 -0.058 -0.371 22 22 24 0 0
0.5168 3.1744 0.7019 -0.910 0.413 0.032 23 23 25 0 0
0.5300 3.2169 0.6959 -0.925 -0.184 -0.333 28 28 30 0 0
0.5254 3.2302 0.6944 -0.918 -0.386 -0.089 32 32 34 0 0
0.7751 3.7679 0.6151 -0.786 0.530 -0.319 51 52 52 0 0
0.7846 3.7837 0.6126 -0.749 0.384 -0.540 64 66 65 0 0
0.5388 2.4528 0.8065 -0.162 -0.976 0.148 30 29 34 0 0
0.5160 3.1623 0.7173 -0.873 0.364 0.325 22 22 24 0 0
0.5203 3.1764 0.7153 -0.950 0.288 0.120 25 25 27 0 0
0.7848 3.7856 0.6267 -0.808 0.568 -0.160 69 69 69 0 0
0.5228 3.1509 0.7323 -0.822 0.569 0.017 21 21 23 0 0
0.5235 3.1647 0.7305 -0.980 0.185 0.080 23 23 25 0 0
0.5265 3.1788 0.7286 -0.978 0.191 -0.081 25 25 27 0 0
0.5236 3.2197 0.7235 -0.957 -0.277 0.082 35 35 37 0 0
0.6062 2.8699 0.7786 -0.781 0.336 -0.526 25 25 27 0 0
0.5073 3.1512 0.7467 -0.860 0.505 0.075 22 22 24 0 0
0.5216 3.2212 0.7372 -0.964 -0.218 0.150 37 37 39 0 0
0.5183 3.2346 0.7357 -0.964 -0.218 0.150 36 35 38 0 0
0.9177 3.9421 0.6304 -0.362 0.871 -0.331 107 108 107 0 0
0.5200 3.2365 0.7492 -0.964 -0.218 0.150 34 33 36 0 0
0.4254 3.2810 0.7471 -0.234 -0.931 0.281 20 20 22 0 0
1.0134 1.7655 0.9466 -0.259 -0.961 -0.094 162 162 164 0 0
0.4928 3.2371 0.7778 -0.899 -0.337 0.280 26 26 29 0 0
0.9997 1.7681 0.9612 -0.298 -0.953 -0.048 152 152 153 0 0
0.5213 3.2471 0.8310 -0.808 -0.418 0.416 16 16 18 0 0
0.5258 3.5926 0.7873 -0.814 -0.092 0.574 12 12 14 0 0
0.4993 3.2602 0.8438 -0.656 -0.512 0.554 17 17 19 0 0
0.5190 3.5795 0.8030 -0.810 0.420 -0.410 12 12 14 0 0
0.4770 3.5614 0.8202 -0.863 -0.498 0.082 11 11 13 0 0
1.0240 1.8052 1.0430 -0.317 -0.938 0.143 51 50 52 0 0
0.4999 3.5526 0.8346 -0.988 0.107 0.107 11 11 13 0 0
0.4846 3.5780 0.8318 -0.751 0.627 -0.209 17 17 19 0 0
1.0261 1.8067 1.0573 -0.316 -0.935 0.160 63 63 63 0 0
0.5721 3.2041 0.8909 -0.933 -0.105 0.344 14 14 16 0 0
0.4966 3.5539 0.8484 -0.951 0.282 0.129 11 11 13 0 0
0.5003 3.5683 0.8465 -0.963 -0.206 0.173 13 13 15 0 0
1.0225 1.8086 1.0717 -0.307 -0.945 0.116 55 55 59 0 0
0.9310 1.8426 1.0692 -0.302 -0.860 0.411 58 60 65 0 0
0.8561 1.9031 1.0630 -0.740 -0.330 -0.586 18 17 23 0 0
0.5769 3.2063 0.9045 -0.933 -0.105 0.344 13 13 15 0 0
0.5795 3.2343 0.9009 -0.709 -0.224 0.669 13 13 15 0 0
0.4990 3.5560 0.8620 -0.951 0.282 0.129 11 11 13 0 0
0.8920 1.8747 1.0802 -0.744 0.110 -0.659 47 49 54 0 0
0.5015 3.5582 0.8755 -0.951 0.282 0.129 11 11 13 0 0
0.9089 1.8613 1.0960 -0.410 -0.775 0.480 46 45 50 0 0
0.8877 1.8766 1.0944 -0.994 0.100 0.050 51 51 54 0 0
0.6392 2.9516 0.9634 -0.912 0.409 -0.044 18 17 20 0 0
0.4571 3.4438 0.9045 -0.880 0.101 0.464 12 12 14 0 0
0.4356 3.4547 0.9034 -0.615 -0.516 0.596 11 11 13 0 0
0.9217 1.8623 1.1101 -0.463 -0.751 0.471 35 34 39 0 0
0.8849 1.8784 1.1086 -0.875 0.030 0.484 43 42 47 0 0
0.7280 2.2612 1.0628 -0.381 0.133 -0.915 26 27 29 0 0
0.6076 3.2007 0.9466 -0.978 -0.207 0.039 12 12 14 0 0
0.6277 3.2167 0.9444 -0.817 -0.563 0.124 12 12 14 0 0
0.5805 3.2257 0.9439 -0.805 -0.445 0.392 14 14 16 0 0
0.5030 3.2452 0.9425 -0.280 -0.952 -0.127 19 19 21 0 0
0.4819 3.2567 0.9414 -0.255 -0.963 -0.089 21 21 23 0 0
0.6305 3.6363 0.8917 -0.568 0.804 0.174 12 12 14 0 0
0.9346 1.8632 1.1242 -0.463 -0.751 0.471 36 35 41 0 0
0.6333 2.9130 0.9964 -0.960 -0.114 -0.255 34 35 40 0 0
0.5249 3.2493 0.9556 -0.270 -0.963 -0.015 20 20 22 0 0
0.6658 3.6717 0.9010 -0.701 0.619 -0.354 21 21 23 0 0
0.7548 2.3340 1.0816 -0.377 0.888 0.264 33 33 38 0 0
0.5715 2.8280 1.0217 -0.622 0.783 0.036 29 31 33 0 0
0.6108 2.8717 1.0158 -0.834 0.416 0.362 36 38 41 0 0
0.6280 2.9144 1.0103 -0.843 -0.337 -0.419 40 43 48 0 0
0.8614 2.1942 1.1123 -0.230 -0.776 0.587 19 19 22 0 0
0.8635 2.1818 1.1282 -0.228 -0.400 0.887 18 17 22 0 0
0.7022 2.9699 1.0734 -0.705 0.052 0.707 28 28 30 0 0
0.8811 3.4275 1.0159 -0.541 0.790 -0.288 18 18 20 0 0
0.5711 3.5841 0.9971 -0.331 -0.446 0.832 14 14 16 0 0
0.6207 3.6474 0.9891 -0.487 0.743 -0.459 12 12 14 0 0
1.0044 1.8712 1.2242 -0.577 -0.812 0.090 52 50 54 0 0
0.6497 2.7733 1.1121 -0.980 0.199 0.028 21 20 25 0 0
0.6525 2.7873 1.1103 -0.980 0.199 0.028 23 22 28 0 0
0.6561 2.8431 1.1034 -0.900 -0.185 0.395 32 32 34 0 0
0.8420 3.4102 1.0326 -0.555 0.786 -0.272 22 22 24 0 0
0.5823 3.5876 1.0107 -0.468 -0.282 0.837 14 14 16 0 0
0.5333 3.6081 1.0082 -0.653 0.183 -0.735 14 14 16 0 0
0.6183 3.6629 1.0013 -0.389 0.509 -0.768 14 14 16 0 0
0.9386 3.9454 0.9659 -0.909 0.392 -0.140 45 44 49 0 0
1.0573 1.7982 1.2478 -0.875 -0.305 -0.376 155 155 157 0 0
1.0609 1.8123 1.2461 -0.903 -0.105 -0.416 94 93 96 0 0
1.0019 1.8730 1.2385 -0.497 -0.863 -0.094 55 52 59 0 0
0.8555 2.9702 1.1018 -0.594 -0.719 -0.360 26 27 29 0 0
0.8330 2.9828 1.1002 -0.251 -0.960 -0.124 28 29 31 0 0
0.7590 3.8148 0.9967 -0.405 0.914 -0.017 38 38 42 0 0
1.0461 1.8149 1.2604 -0.619 0.279 -0.734 137 137 139 0 0
0.9483 1.9060 1.2488 -0.387 -0.487 0.783 57 56 63 0 0
0.9372 2.4329 1.1833 -0.223 0.199 0.954 90 88 87 0 0
0.7075 2.8775 1.1274 -0.713 0.701 0.004 26 26 27 0 0
0.8374 3.4133 1.0611 -0.572 0.770 -0.282 21 21 23 0 0
0.6920 2.8643 1.1432 -0.507 0.862 0.012 28 28 32 0 0
0.8242 2.9005 1.1392 -0.301 0.319 0.899 26 26 27 0 0
0.9181 2.9495 1.1335 -0.522 0.204 0.828 26 27 29 0 0
0.8945 2.9622 1.1318 -0.470 -0.359 0.806 28 29 31 0 0
0.9236 2.3793 1.2189 -0.285 0.237 0.929 50 50 53 0 0
0.7563 2.8699 1.1570 -0.356 0.578 0.734 34 33 38 0 0
0.8987 2.9213 1.1514 -0.261 0.462 0.848 28 28 30 0 0
0.8870 2.9491 1.1479 -0.251 -0.043 0.967 27 28 30 0 0
0.8347 3.8043 1.0415 -0.383 0.825 0.415 18 18 20 0 0
1.0422 1.8633 1.2982 -0.910 0.310 -0.275 164 164 165 0 0
0.9015 1.9982 1.2804 -0.613 -0.585 0.531 40 39 45 0 0
1.0184 2.6266 1.2034 -0.344 -0.507 0.790 166 166 165 0 0
1.0317 2.6994 1.1945 -0.982 0.065 -0.179 50 50 51 0 0
1.0229 2.7135 1.1926 -0.936 -0.307 -0.173 32 32 36 0 0
1.0170 2.7278 1.1908 -0.903 -0.367 -0.224 17 17 21 0 0
0.4843 3.5958 1.0792 -0.973 0.132 -0.187 15 15 17 0 0
1.0372 2.7014 1.2090 -0.997 0.072 0.038 48 48 49 0 0
1.0388 2.7160 1.2072 -0.987 -0.113 -0.117 23 22 27 0 0
1.0127 2.7294 1.2053 -0.903 -0.367 -0.224 12 13 17 0 0
1.0160 2.9615 1.1765 -0.912 -0.262 -0.315 28 28 30 0 0
0.9780 2.9878 1.1729 -0.957 -0.247 0.151 33 34 36 0 0
1.0226 3.0783 1.1621 -0.415 0.890 -0.188 16 17 19 0 0
1.0493 1.9094 1.3218 -0.971 -0.053 -0.234 93 93 95 0 0
0.8824 2.0447 1.3033 -0.775 -0.405 0.486 42 43 48 0 0
0.8717 2.0733 1.2996 -0.916 -0.363 0.169 41 42 47 0 0
0.8874 2.1293 1.2929 -0.983 -0.182 -0.002 39 38 44 0 0
0.8681 2.1439 1.2909 -0.823 0.332 0.460 39 38 44 0 0
0.9254 2.3132 1.2705 -0.739 -0.535 0.408 29 28 30 0 0
0.9276 2.3275 1.2688 -0.679 -0.438 0.589 43 43 45 0 0
0.9283 2.3417 1.2670 -0.641 -0.185 0.745 52 52 52 0 0
0.9269 2.3560 1.2652 -0.643 -0.036 0.765 54 54 54 0 0
0.9679 2.3703 1.2639 -0.288 0.648 0.705 58 58 56 0 0
1.0236 2.7026 1.2234 -0.934 -0.336 -0.120 48 48 50 0 0
1.0148 2.7168 1.2215 -0.874 -0.395 -0.282 16 15 21 0 0
1.0038 2.7308 1.2197 -0.807 -0.440 -0.394 11 12 15 0 0
1.0013 3.0348 1.1820 -0.846 -0.215 -0.488 25 26 28 0 0
1.0319 1.8976 1.3377 -0.918 0.138 -0.372 166 166 168 0 0
0.8706 2.1738 1.3016 -0.615 0.405 0.677 39 40 45 0 0
0.9109 2.2866 1.2881 -0.945 -0.253 0.208 18 16 19 0 0
0.9145 2.3008 1.2864 -0.812 -0.383 0.441 37 35 38 0 0
0.9271 2.3149 1.2848 -0.732 -0.446 0.515 50 50 52 0 0
0.9338 2.3292 1.2831 -0.658 -0.223 0.719 55 55 57 0 0
0.9433 2.3434 1.2815 -0.700 -0.149 0.698 59 59 59 0 0
1.0293 2.6902 1.2397 -0.998 0.062 -0.005 74 74 74 0 0
0.9922 3.0359 1.1964 -0.712 -0.188 -0.677 25 26 28 0 0
1.0081 3.0517 1.1947 -0.783 -0.135 -0.607 21 22 24 0 0
0.8413 3.3530 1.1553 -0.814 -0.580 -0.037 33 33 35 0 0
0.4731 3.6270 1.1169 -0.468 0.360 -0.807 24 24 26 0 0
0.7624 3.7853 1.1009 -0.373 0.706 -0.602 34 35 40 0 0
1.0308 1.9137 1.3503 -0.895 -0.339 -0.289 160 160 162 0 0
0.8746 2.1472 1.3193 -0.495 0.363 0.789 43 42 48 0 0
0.8924 2.1609 1.3178 -0.637 0.077 0.767 42 41 46 0 0
0.8987 2.1749 1.3162 -0.702 0.163 0.693 40 39 44 0 0
0.9065 2.1890 1.3146 -0.700 0.253 0.668 34 33 38 0 0
0.9212 2.2882 1.3025 -0.989 -0.066 0.131 34 34 35 0 0
0.9415 2.3023 1.3011 -0.918 -0.267 0.293 49 49 49 0 0
0.9511 2.3308 1.2977 -0.736 0.181 0.653 57 57 57 0 0
1.0072 3.0534 1.2092 -0.687 -0.020 -0.726 18 19 21 0 0
0.8422 3.3549 1.1696 -0.836 -0.439 -0.328 31 31 33 0 0
0.7853 3.8053 1.1131 -0.335 0.776 -0.535 38 38 40 0 0
0.9120 2.1764 1.3307 -0.563 0.296 0.772 32 32 35 0 0
0.9153 2.1905 1.3290 -0.513 0.298 0.805 17 17 20 0 0
0.9526 2.2897 1.3173 -0.825 0.520 0.220 54 54 54 0 0
0.9527 2.3040 1.3155 -0.603 0.448 0.660 55 55 54 0 0
1.0163 3.0560 1.2237 -0.515 0.857 -0.009 17 18 20 0 0
0.8298 3.3267 1.1873 -0.790 -0.128 -0.600 38 37 41 0 0
0.8353 3.3559 1.1838 -0.845 -0.118 -0.521 29 29 31 0 0
0.9593 2.2771 1.3335 -0.510 0.785 0.353 65 65 65 0 0
0.9741 2.2913 1.3320 -0.465 0.721 0.513 62 62 61 0 0
0.9758 3.0111 1.2432 -0.879 0.111 -0.463 26 26 28 0 0
0.9823 3.0406 1.2397 -0.696 -0.565 -0.443 19 20 22 0 0
0.8378 3.3294 1.2016 -0.967 0.070 -0.246 38 38 41 0 0
0.8307 3.3572 1.1980 -0.919 -0.370 -0.138 31 31 33 0 0
0.9906 2.0351 1.3785 -0.992 0.119 0.049 98 97 99 0 0
0.9922 2.0493 1.3768 -0.992 0.119 0.049 90 89 92 0 0
0.9877 3.0283 1.2560 -0.907 -0.421 0.025 20 21 23 0 0
0.8411 3.3459 1.2141 -0.960 0.280 -0.005 33 34 38 0 0
0.8261 3.3585 1.2122 -0.897 -0.438 -0.058 31 32 34 0 0
0.9930 2.0510 1.3912 -0.968 0.181 -0.176 155 153 156 0 0
0.9952 2.0652 1.3894 -0.982 0.079 -0.170 120 118 121 0 0
0.9573 2.0950 1.3850 -0.712 -0.517 0.475 65 63 66 0 0
0.9255 2.9247 1.2821 -0.786 -0.400 0.471 24 24 26 0 0
1.0198 3.0326 1.2708 -0.612 0.431 0.663 18 19 21 0 0
0.8370 3.3472 1.2283 -0.987 -0.083 0.134 33 34 37 0 0
0.5793 3.6103 1.1905 -0.566 -0.041 -0.824 16 16 18 0 0
0.9908 2.0528 1.4055 -0.968 0.181 -0.176 168 166 169 0 0
0.9915 2.0814 1.4020 -0.972 -0.206 -0.110 122 120 123 0 0
0.9837 2.0959 1.4000 -0.859 -0.450 0.244 87 85 88 0 0
0.9872 2.1101 1.3983 -0.918 -0.362 0.159 73 71 74 0 0
0.9587 2.7413 1.3200 -0.730 -0.594 0.338 14 13 19 0 0
0.8239 3.9652 1.1664 -0.777 0.470 0.419 57 56 60 0 0
0.8878 2.8400 1.3208 -0.733 -0.563 -0.382 60 58 63 0 0
0.9454 2.9007 1.3147 -0.988 -0.051 0.149 25 25 27 0 0
0.6403 3.2025 1.2703 -0.986 0.104 -0.132 37 36 41 0 0
0.5210 3.5913 1.2196 -0.894 -0.448 -0.033 16 16 18 0 0
0.5242 3.6056 1.2179 -0.778 -0.176 0.603 16 16 18 0 0
0.9444 2.9025 1.3291 -0.979 0.052 -0.196 22 23 25 0 0
0.9477 2.9171 1.3273 -0.967 -0.076 0.245 25 27 27 0 0
0.8747 3.3138 1.2767 -0.700 0.699 -0.143 39 39 42 0 0
0.9401 2.7171 1.3663 -0.418 -0.901 -0.115 15 14 20 0 0
0.9747 2.9206 1.3423 -0.809 -0.078 0.583 30 32 32 0 0
0.8694 3.3438 1.2874 -0.747 -0.180 0.640 34 34 36 0 0
0.5695 3.6438 1.2424 -0.175 0.222 0.959 17 17 19 0 0
0.9441 2.7190 1.3807 -0.563 -0.826 0.022 17 16 22 0 0
0.8603 3.3015 1.3069 -0.970 0.112 -0.216 38 38 38 0 0
0.5469 3.4476 1.2799 -0.406 -0.536 0.740 12 12 14 0 0
0.5381 3.4604 1.2780 -0.513 -0.499 0.698 12 12 14 0 0
0.5293 3.6117 1.2592 -0.235 0.664 0.710 17 17 19 0 0
0.9158 2.8199 1.3821 -0.888 -0.376 -0.266 58 58 61 0 0
0.5912 3.1907 1.3267 -0.683 0.691 0.239 38 37 42 0 0
0.8583 3.3031 1.3211 -0.954 0.131 -0.269 41 41 42 0 0
0.5975 3.4560 1.2944 -0.513 -0.855 -0.077 11 12 14 0 0
0.8440 3.9783 1.2380 -0.824 0.321 -0.467 63 64 65 0 0
0.9362 2.8515 1.3934 -0.945 0.080 -0.316 31 29 32 0 0
0.9595 2.9972 1.3763 -0.678 0.735 -0.028 16 17 19 0 0
0.8603 3.3051 1.3354 -0.699 -0.468 -0.541 42 42 44 0 0
0.5164 3.5856 1.2900 -0.296 -0.162 -0.942 16 16 18 0 0
0.8260 3.9786 1.2664 -0.785 0.614 0.082 85 84 87 0 0
0.9072 3.3139 1.3651 -0.981 0.187 -0.057 41 41 43 0 0
0.8215 3.7779 1.3053 -0.447 0.378 0.811 31 31 33 0 0
0.8295 3.9812 1.2807 -0.785 0.614 0.082 70 68 73 0 0
0.9223 3.9274 1.3053 -0.552 0.833 -0.027 51 51 54 0 0
0.9177 3.9412 1.3034 -0.620 0.785 0.007 49 50 54 0 0
0.9680 2.7883 1.4607 -0.509 -0.860 -0.004 60 60 62 0 0
0.9459 2.8736 1.4495 -0.563 -0.689 0.457 29 30 32 0 0
1.0272 2.9803 1.4396 -0.106 -0.955 -0.277 17 17 19 0 0
0.9180 3.3042 1.3958 -0.657 -0.750 0.076 43 43 45 0 0
0.4782 3.4492 1.3610 -0.924 0.069 0.375 12 12 14 0 0
1.0580 2.6344 1.4978 -0.201 -0.575 -0.793 25 26 30 0 0
0.9873 2.7910 1.4758 -0.921 -0.388 -0.024 52 54 55 0 0
0.9560 2.9771 1.4519 -0.097 -0.924 -0.371 15 15 17 0 0
0.4583 3.4483 1.3742 -0.799 -0.193 -0.570 12 12 14 0 0
0.5736 3.6308 1.3567 -0.172 0.102 0.980 17 17 19 0 0
1.0558 2.6361 1.5123 -0.165 -0.736 -0.657 21 22 26 0 0
0.9809 2.8214 1.4865 -0.939 0.298 0.171 27 28 31 0 0
1.0144 3.9791 1.3469 -0.667 0.737 -0.111 45 43 48 0 0
0.8825 4.0132 1.3372 -0.787 0.342 -0.513 68 66 68 0 0
0.9943 2.8239 1.5015 -0.848 0.507 -0.156 22 23 25 0 0
1.0050 2.8390 1.5001 -0.818 0.367 -0.442 20 21 23 0 0
1.0105 2.8538 1.4986 -0.720 -0.659 0.217 21 22 24 0 0
1.0026 2.8678 1.4965 -0.578 -0.684 0.445 30 31 33 0 0
0.9594 2.9520 1.4844 -0.930 -0.363 0.051 17 17 19 0 0
0.5163 3.4595 1.4032 -0.662 -0.424 0.619 18 18 20 0 0
0.8619 3.9966 1.3530 -0.811 0.329 -0.484 59 57 58 0 0
0.9515 2.7802 1.5195 -0.553 -0.548 -0.628 44 45 50 0 0
0.9821 2.9264 1.5032 -0.693 -0.028 0.720 24 24 26 0 0
0.5156 3.4888 1.4135 -0.941 0.055 0.333 12 12 14 0 0
0.8541 3.9970 1.3672 -0.821 0.271 -0.503 72 70 71 0 0
0.9819 2.7835 1.5352 -0.863 0.474 0.174 37 37 41 0 0
1.0091 2.8283 1.5310 -0.772 -0.479 -0.419 18 19 21 0 0
0.6226 3.0162 1.4900 -0.651 -0.647 0.398 14 15 17 0 0
0.5318 3.4650 1.4312 -0.928 -0.155 0.338 22 22 24 0 0
0.8677 4.0015 1.3819 -0.981 -0.057 -0.185 90 88 89 0 0
0.8499 4.0126 1.3797 -0.700 0.673 0.239 88 86 87 0 0
0.9696 2.7846 1.5491 -0.873 0.358 0.333 39 40 42 0 0
1.0101 2.8156 1.5474 -0.572 0.805 0.160 19 20 24 0 0
1.0100 2.8301 1.5456 -0.979 -0.202 0.038 17 18 23 0 0
0.6291 3.0184 1.5041 -0.651 -0.647 0.398 15 16 18 0 0
0.5347 3.4672 1.4450 -0.931 -0.252 0.263 13 13 15 0 0
0.8649 4.0028 1.3962 -0.981 -0.057 -0.185 89 88 89 0 0
0.9251 2.7843 1.5616 -0.582 0.713 0.392 30 31 34 0 0
0.9628 2.8005 1.5615 -0.380 0.872 0.308 21 22 26 0 0
1.0136 2.8321 1.5603 -0.726 0.633 0.268 19 19 24 0 0
1.0241 2.8472 1.5590 -0.551 0.829 -0.090 20 20 24 0 0
1.0832 2.8797 1.5580 -0.505 0.270 0.820 24 24 26 0 0
0.5519 3.6382 1.4392 -0.133 -0.219 0.967 17 17 19 0 0
0.8625 4.0043 1.4105 -0.981 -0.032 -0.193 67 67 68 0 0
0.9333 2.7864 1.5763 -0.688 -0.010 0.726 30 29 34 0 0
0.9518 2.8018 1.5754 -0.501 0.812 0.300 24 23 29 0 0
0.9801 2.8176 1.5750 -0.535 0.828 0.168 22 21 27 0 0
1.0004 2.8332 1.5742 -0.591 0.806 0.038 22 20 27 0 0
0.9718 3.2811 1.5184 -0.852 0.503 0.147 43 42 47 0 0
0.9732 3.2958 1.5167 -0.802 -0.566 0.192 41 40 45 0 0
0.5723 3.5454 1.4655 -0.650 0.708 0.277 16 16 18 0 0
0.8620 4.0060 1.4249 -0.998 -0.032 -0.050 66 66 67 0 0
0.9388 2.8029 1.5892 -0.928 -0.134 0.347 28 27 33 0 0
0.9906 2.8489 1.5865 -0.429 0.713 -0.555 31 30 35 0 0
0.9801 3.2838 1.5332 -0.711 0.302 0.635 42 41 46 0 0
0.9793 3.2982 1.5315 -0.769 -0.264 0.582 40 39 44 0 0
0.5455 3.5295 1.4801 -0.858 -0.146 0.493 15 15 17 0 0
0.5817 3.5485 1.4798 -0.650 0.708 0.277 17 17 19 0 0
0.6490 3.6849 1.4669 -0.110 -0.199 0.974 34 34 36 0 0
0.9301 2.8042 1.6032 -0.865 -0.501 0.020 36 35 40 0 0
0.9482 2.9205 1.5902 -0.803 0.450 -0.391 19 19 20 0 0
0.5822 3.1049 1.5475 -0.719 -0.205 -0.664 47 46 51 0 0
0.9876 3.3010 1.5463 -0.775 -0.173 0.608 39 38 43 0 0
0.7107 3.6537 1.4883 -0.205 0.293 -0.934 13 13 15 0 0
0.9207 3.9479 1.4644 -0.584 0.469 0.663 51 51 55 0 0
0.8803 2.8464 1.6099 -0.595 -0.769 0.234 37 36 43 0 0
0.5894 2.9962 1.5751 -0.954 -0.104 -0.280 15 15 17 0 0
1.0376 4.0006 1.4794 -0.662 -0.205 -0.721 44 45 49 0 0
0.9998 4.0084 1.4763 -0.897 0.419 -0.144 47 48 52 0 0
0.5938 2.9844 1.5909 -0.966 -0.246 0.083 16 16 18 0 0
0.4978 3.4728 1.5263 -0.478 -0.613 0.629 13 13 15 0 0
1.0083 3.9676 1.4966 -0.612 -0.383 -0.692 42 42 46 0 0
0.7245 2.9114 1.6216 -0.324 0.104 -0.940 17 16 21 0 0
0.6990 2.9238 1.6186 -0.376 -0.185 -0.908 15 15 18 0 0
0.9610 3.9609 1.5094 -0.426 0.101 -0.899 41 40 45 0 0
0.9164 4.0112 1.5006 -0.436 0.881 0.185 64 64 67 0 0
0.6993 2.8554 1.6411 -0.946 0.128 -0.299 87 85 89 0 0
0.6985 2.8694 1.6394 -0.803 0.323 -0.501 60 59 65 0 0
0.5968 2.9604 1.6221 -0.809 -0.571 0.137 15 15 17 0 0
0.6549 2.9383 1.6425 -0.519 -0.249 -0.818 14 14 16 0 0
0.6403 2.9513 1.6400 -0.608 -0.239 -0.757 14 14 16 0 0
0.6115 2.9631 1.6368 -0.715 -0.453 -0.533 16 16 18 0 0
0.5102 3.5352 1.5614 -0.580 0.770 0.265 19 19 21 0 0
1.1530 2.4880 1.7435 -0.886 0.291 0.361 100 100 102 0 0
1.1589 2.4899 1.7586 -0.900 0.319 0.297 86 84 87 0 0
1.1636 2.5046 1.7571 -0.900 0.319 0.297 79 77 80 0 0
0.8811 3.2303 1.6510 -0.129 -0.775 -0.618 42 42 46 0 0
0.5584 3.5455 1.5914 -0.648 0.691 0.322 16 16 18 0 0
0.5618 3.5599 1.5899 -0.520 0.521 0.677 16 16 18 0 0
0.9367 3.9347 1.5700 -0.820 0.073 0.568 51 50 55 0 0
0.6684 3.0985 1.6667 -0.356 -0.424 -0.833 45 44 49 0 0
0.5835 3.5648 1.6049 -0.578 0.652 0.490 16 16 18 0 0
0.7202 3.6982 1.5983 -0.553 -0.654 0.516 33 33 38 0 0
0.6525 3.1129 1.6781 -0.647 -0.004 -0.763 42 41 46 0 0
0.5859 2.9561 1.7063 -0.720 -0.694 0.012 89 90 84 0 0
0.6082 3.1107 1.6894 -0.901 -0.420 0.107 42 42 45 0 0
0.9998 3.9813 1.6132 -0.709 0.703 -0.061 45 46 50 0 0
0.9899 3.9942 1.6110 -0.880 0.353 -0.318 46 47 52 0 0
0.7147 3.6885 1.6421 -0.264 0.455 -0.851 23 23 26 0 0
0.7008 3.7006 1.6396 -0.517 -0.164 -0.840 19 18 23 0 0
1.0020 3.9393 1.6333 -0.422 -0.727 -0.541 36 37 42 0 0
1.0025 3.9984 1.6262 -0.665 0.420 -0.617 43 43 51 0 0
1.0027 4.0132 1.6245 -0.872 0.487 -0.058 47 48 53 0 0
1.2529 2.5895 1.8286 -0.187 0.804 -0.564 46 45 50 0 0
1.1807 2.6024 1.8216 -0.125 -0.990 0.062 48 47 52 0 0
0.9763 3.9513 1.6448 -0.411 -0.364 -0.836 37 37 44 0 0
0.9605 3.9632 1.6421 -0.155 -0.185 -0.970 38 37 44 0 0
1.0043 4.0007 1.6410 -0.405 0.331 -0.852 43 42 50 0 0
0.9955 4.0138 1.6387 -0.656 0.459 -0.599 49 48 55 0 0
0.8836 2.6961 1.8025 -0.891 -0.417 0.179 60 60 62 0 0
0.8344 2.7084 1.7973 -0.366 0.849 -0.381 54 54 56 0 0
0.5787 3.5451 1.6775 -0.535 0.671 0.514 19 19 21 0 0
0.9419 3.9617 1.6557 -0.518 -0.084 -0.851 51 50 54 0 0
1.1012 2.6624 1.8382 -0.610 -0.474 0.635 67 67 69 0 0
0.8677 3.9064 1.6712 -0.410 0.563 0.717 56 57 59 0 0
0.9235 3.9456 1.6709 -0.568 0.694 0.443 63 63 65 0 0
1.1237 2.6649 1.8546 -0.850 0.133 0.511 68 68 70 0 0
1.0917 2.6785 1.8504 -0.776 -0.250 0.579 67 67 69 0 0
0.4593 3.4492 1.7076 -0.375 0.924 -0.071 13 13 15 0 0
0.9600 3.9541 1.6876 -0.569 0.659 0.492 64 64 66 0 0
0.5661 3.1867 1.7616 -0.766 -0.507 0.396 39 39 41 0 0
0.9715 3.9434 1.7046 -0.267 0.515 -0.814 48 49 51 0 0
0.9764 3.9590 1.7032 -0.532 0.731 -0.427 51 52 54 0 0
0.9779 2.4760 1.8948 -0.149 -0.988 -0.035 58 59 64 0 0
1.1311 2.6247 1.8899 -0.730 -0.151 0.666 64 63 67 0 0
1.1176 2.6390 1.8871 -0.541 0.503 0.673 70 70 73 0 0
0.7395 2.8241 1.8334 -0.207 0.072 -0.976 34 33 38 0 0
0.5152 2.9905 1.7948 -0.634 -0.766 0.104 29 32 33 0 0
0.4932 3.0026 1.7915 -0.879 -0.182 -0.441 32 33 34 0 0
0.4267 3.4072 1.7377 -0.631 0.129 -0.765 12 12 14 0 0
0.9800 3.9615 1.7180 -0.557 0.806 -0.201 51 52 55 0 0
1.0944 2.5377 1.9121 -0.265 0.168 0.950 44 45 49 0 0
1.1131 2.6846 1.8962 -0.998 0.067 -0.003 66 66 68 0 0
0.4954 3.0045 1.8054 -0.840 -0.477 0.259 25 26 28 0 0
0.5252 3.4909 1.7500 -0.910 0.189 0.368 15 15 17 0 0
0.5721 3.5391 1.7483 -0.531 -0.811 0.247 18 18 20 0 0
1.1712 2.4086 1.9490 -0.417 -0.908 0.034 148 147 148 0 0
0.9537 2.5079 1.9183 -0.413 -0.815 0.408 47 48 52 0 0
1.1955 2.6599 1.9212 -0.508 0.721 0.471 70 70 72 0 0
1.0956 2.6858 1.9095 -0.831 -0.282 -0.479 65 65 67 0 0
0.5080 3.0072 1.8201 -0.835 -0.501 0.228 24 25 27 0 0
0.5276 3.4097 1.7739 -0.951 0.106 0.289 13 13 15 0 0
0.5267 3.4234 1.7722 -0.930 0.041 0.364 13 13 15 0 0
0.4278 3.5343 1.7504 -0.612 -0.242 0.753 18 18 20 0 0
0.4361 3.5493 1.7494 -0.553 -0.225 0.802 18 18 20 0 0
0.9842 2.4813 1.9388 -0.231 -0.971 -0.067 54 53 59 0 0
0.5147 3.4237 1.7852 -0.850 0.527 0.027 13 13 15 0 0
0.5196 3.4520 1.7822 -0.843 -0.526 0.109 11 11 13 0 0
0.4541 3.5536 1.7643 -0.738 -0.586 0.334 20 21 23 0 0
1.0118 3.9730 1.7640 -0.471 0.848 0.245 42 43 47 0 0
1.0368 3.9924 1.7639 -0.580 0.800 -0.152 42 43 48 0 0
1.0403 4.0227 1.7606 -0.699 0.715 -0.022 44 47 52 0 0
1.0400 4.0375 1.7588 -0.555 0.726 0.406 48 52 56 0 0
1.0993 2.4409 1.9687 -0.418 -0.737 0.531 69 68 73 0 0
0.5088 3.3831 1.8034 -0.911 -0.413 -0.014 14 12 15 0 0
0.5171 3.5228 1.7876 -0.659 -0.752 0.009 18 18 20 0 0
0.5159 3.5365 1.7859 -0.741 -0.041 0.671 18 18 20 0 0
0.9433 2.5130 1.9607 -0.265 -0.906 -0.331 57 58 62 0 0
0.5755 3.6184 1.8098 -0.612 0.788 0.068 37 36 41 0 0
1.0493 2.4748 2.0046 -0.341 -0.809 0.478 81 82 84 0 0
1.0091 2.4887 1.9991 -0.232 -0.958 0.169 80 81 83 0 0
0.5317 3.5580 1.8270 -0.930 -0.211 -0.301 16 16 19 0 0
0.5292 3.5715 1.8251 -0.930 -0.211 -0.301 16 15 20 0 0
1.1193 2.4629 2.0276 -0.415 -0.846 0.335 93 93 95 0 0
1.0870 2.4771 2.0228 -0.470 -0.823 0.319 86 86 88 0 0
0.5322 3.5459 1.8425 -0.993 -0.068 -0.092 34 34 37 0 0
0.5314 3.5597 1.8408 -0.993 -0.068 -0.092 19 18 23 0 0
0.5286 3.5732 1.8389 -0.942 -0.054 -0.331 15 14 19 0 0
0.5266 3.5747 1.8526 -0.884 -0.093 -0.457 22 21 26 0 0
0.5055 3.6011 1.8614 -0.752 -0.193 0.630 29 29 31 0 0
0.5066 3.6448 1.8704 -0.779 0.507 -0.368 34 32 35 0 0
1.3313 2.8786 2.0603 -0.350 0.933 0.082 41 40 45 0 0
1.3060 2.8922 2.0561 -0.347 0.704 -0.619 44 43 48 0 0
1.3137 2.8644 2.0754 -0.534 0.839 -0.103 38 37 42 0 0
1.3514 2.8816 2.0774 -0.406 0.910 0.087 42 41 46 0 0
0.9136 4.0363 1.9248 -0.392 0.900 0.190 84 84 84 0 0
0.4962 3.5446 1.9793 -0.745 0.359 0.562 44 43 46 0 0
0.8498 4.0152 1.9644 -0.356 0.933 -0.054 69 69 70 0 0
0.4989 3.6161 1.9853 -0.247 0.144 -0.958 36 35 37 0 0
1.3486 2.4274 2.2379 -0.154 -0.953 -0.261 84 84 86 0 0
0.8342 2.5956 2.1725 -0.783 0.075 -0.618 50 50 53 0 0
0.4396 3.3356 2.0392 -0.835 -0.550 0.003 38 39 44 0 0
0.6433 2.7191 2.1638 -0.799 -0.472 0.372 32 33 36 0 0
0.6119 2.7455 2.1569 -0.532 -0.006 -0.846 27 28 30 0 0
0.8944 4.0478 2.0394 -0.546 0.800 0.248 88 88 90 0 0
0.6359 2.7484 2.1737 -0.804 -0.562 -0.194 32 33 36 0 0
0.9131 4.0533 2.0558 -0.573 0.723 0.386 93 93 95 0 0
0.8011 3.9901 2.0639 -0.527 0.849 -0.049 82 83 85 0 0
0.8455 4.0131 2.0668 -0.509 0.860 -0.039 87 87 89 0 0
0.8993 4.0379 2.0707 -0.550 0.787 0.280 94 93 94 0 0
1.2542 2.4524 2.3150 -0.769 0.131 -0.626 56 57 61 0 0
0.8413 4.0141 2.0808 -0.465 0.858 -0.220 95 94 93 0 0
0.9185 4.0582 2.0855 -0.492 0.805 0.332 115 113 114 0 0
0.8945 4.0408 2.0992 -0.457 0.884 -0.095 95 93 94 0 0
0.4667 2.8567 2.1958 -0.672 -0.651 -0.352 52 52 54 0 0
0.4466 2.8827 2.1901 -0.693 -0.608 -0.388 51 50 56 0 0
0.3967 2.9610 2.1745 -0.759 -0.592 -0.270 40 40 43 0 0
0.3410 2.9975 2.1630 -0.970 0.225 -0.096 27 28 30 0 0
0.3461 3.0114 2.1621 -0.998 -0.034 0.047 23 24 26 0 0
1.2651 2.4431 2.3631 -0.448 -0.787 0.424 57 58 61 0 0
0.4144 2.9096 2.1967 -0.762 -0.466 0.448 61 60 65 0 0
0.3492 3.0133 2.1760 -0.997 -0.020 -0.079 25 26 28 0 0
0.3312 3.0254 2.1722 -0.956 -0.292 -0.020 21 22 24 0 0
0.6186 2.8553 2.2441 -0.524 -0.652 0.547 52 51 55 0 0
0.3697 3.0031 2.1937 -0.833 -0.178 0.524 49 50 52 0 0
0.3857 3.0995 2.1847 -0.378 0.423 -0.824 26 26 28 0 0
0.6311 2.8578 2.2597 -0.521 -0.636 0.569 40 39 44 0 0
0.5935 2.8694 2.2533 -0.521 -0.673 0.524 42 41 47 0 0
0.5320 2.8795 2.2438 -0.552 0.480 0.682 45 44 49 0 0
0.3414 3.0296 2.2006 -0.884 -0.456 0.105 48 48 50 0 0
1.3949 2.4347 2.4275 -0.997 0.081 -0.004 57 58 63 0 0
0.4839 2.9056 2.2482 -0.537 -0.410 0.737 37 36 41 0 0
1.3796 2.4364 2.4407 -0.790 0.567 0.236 53 56 59 0 0
0.5186 2.9510 2.2617 -0.959 -0.147 0.243 33 34 39 0 0
0.4966 2.9632 2.2573 -0.682 -0.731 -0.018 35 36 41 0 0
1.3684 2.4382 2.4543 -0.863 0.494 0.105 52 53 55 0 0
0.4804 2.9637 2.2689 -0.806 -0.035 -0.592 35 36 41 0 0
0.5687 3.6255 2.2049 -0.198 0.067 -0.978 16 17 22 0 0
1.3788 2.4250 2.4727 -0.353 0.912 0.208 58 57 63 0 0
0.6715 3.5294 2.2448 -0.031 0.057 -0.998 13 12 18 0 0
0.5812 3.6151 2.2220 -0.187 -0.160 -0.969 15 16 21 0 0
0.5379 3.7624 2.1989 -0.591 0.348 -0.727 54 58 61 0 0
0.8515 3.9748 2.2189 -0.420 0.880 -0.221 55 56 60 0 0
0.5019 3.6051 2.2260 -0.201 -0.062 -0.978 17 16 21 0 0
1.2908 2.5626 2.4749 -0.394 0.912 0.118 39 40 45 0 0
0.3469 3.5155 2.2279 -0.490 0.592 -0.640 19 18 23 0 0
0.4588 2.9553 2.3226 -0.831 0.406 0.379 42 43 47 0 0
0.2686 3.3174 2.2530 -0.665 0.061 0.744 12 12 14 0 0
0.2974 3.3478 2.2537 -0.156 -0.499 -0.852 19 19 21 0 0
0.3136 3.4989 2.2387 -0.772 -0.635 0.011 40 39 44 0 0
0.3454 3.5170 2.2413 -0.726 0.555 -0.406 43 42 47 0 0
1.2786 2.4763 2.5136 -0.369 -0.929 0.028 42 42 46 0 0
0.4650 2.9711 2.3357 -0.970 0.052 -0.236 40 41 45 0 0
0.4681 2.9851 2.3345 -0.977 0.172 -0.129 40 41 45 0 0
0.3316 3.5168 2.2531 -0.580 0.814 0.006 49 50 53 0 0
1.3050 2.4953 2.5459 -0.591 -0.413 0.693 41 41 46 0 0
0.3068 3.3000 2.3018 -0.583 -0.523 -0.622 46 47 49 0 0
0.3151 3.3145 2.3014 -0.819 -0.302 0.488 47 48 48 0 0
0.3045 3.3268 2.2984 -0.684 0.172 0.709 50 50 50 0 0
0.3391 3.2919 2.3214 -0.749 -0.304 -0.589 46 46 48 0 0
0.4604 3.4730 2.3333 -0.343 -0.936 -0.078 28 28 31 0 0
0.6523 3.7678 2.3293 -0.347 0.546 0.763 46 47 51 0 0
0.6311 3.7291 2.3878 -0.081 -0.242 -0.967 64 64 66 0 0
0.5376 3.7298 2.3867 -0.413 0.751 -0.515 50 50 52 0 0
0.5161 3.7298 2.4115 -0.406 -0.150 -0.902 42 42 46 0 0
0.4810 3.6581 2.4420 -0.461 0.419 0.782 32 31 36 0 0
0.3799 3.4403 2.4773 -0.399 0.481 0.781 36 35 40 0 0
0.3040 3.2424 2.5002 -0.603 0.321 -0.730 31 31 33 0 0
0.3329 3.2999 2.4988 -0.618 0.616 -0.489 37 37 39 0 0
0.3446 3.4101 2.4884 -0.623 0.780 0.056 43 42 47 0 0
0.5692 3.7757 2.4864 -0.539 0.516 0.666 61 61 63 0 0
0.5863 3.7927 2.4875 -0.581 0.593 0.557 58 58 60 0 0
0.3148 3.2724 2.5125 -0.494 -0.211 -0.843 37 37 39 0 0
0.5190 2.9370 2.6007 -0.436 0.253 0.863 22 22 25 0 0
0.4255 3.3415 2.5383 -0.443 0.573 0.689 43 45 48 0 0
0.4629 3.5672 2.5194 -0.798 -0.360 0.483 32 31 34 0 0
0.5494 3.7059 2.5192 -0.661 0.129 0.740 20 20 22 0 0
1.0128 2.7338 2.8014 -0.261 -0.606 0.752 40 40 44 0 0
1.0598 2.9873 2.7968 -0.296 0.192 0.936 38 39 42 0 0
1.1215 2.9935 2.8229 -0.269 0.381 0.884 34 34 38 0 0
1.0065 2.8410 2.8328 -0.650 -0.022 0.759 22 22 27 0 0
0.5213 3.5935 2.6685 -0.689 -0.668 -0.280 21 20 25 0 0
0.5135 3.6063 2.6656 -0.401 -0.782 -0.477 21 20 25 0 0
0.5969 3.7739 2.6631 -0.685 0.684 0.251 58 58 60 0 0
0.4761 3.6164 2.6712 -0.169 -0.682 -0.712 37 37 39 0 0
0.4183 3.3615 2.7023 -0.448 -0.133 0.884 12 12 14 0 0
0.4077 3.3739 2.6988 -0.448 -0.133 0.884 12 12 14 0 0
0.4032 3.3871 2.6965 -0.434 0.020 0.901 12 12 14 0 0
0.4515 3.4622 2.6977 -0.527 0.843 -0.106 20 18 21 0 0
1.2881 2.3756 3.0623 -0.624 0.747 -0.229 206 206 206 0 0
1.2979 2.3924 3.0778 -0.826 0.402 -0.396 170 170 171 0 0
0.3955 3.2767 2.8188 -0.315 0.235 -0.920 14 18 21 0 0
0.4094 3.0881 2.8566 -0.762 -0.579 0.288 30 29 32 0 0
1.1567 4.1611 2.8977 -0.196 0.492 -0.848 66 65 69 0 0
0.2805 3.1862 2.8319 -0.906 -0.294 0.304 70 66 68 0 0
0.2754 3.1992 2.8294 -0.888 -0.312 0.337 42 38 40 0 0
0.2720 3.2123 2.8272 -0.961 -0.214 0.178 44 40 43 0 0
0.2878 3.2275 2.8289 -0.927 0.100 -0.361 40 38 42 0 0
1.0580 4.2481 2.8821 -0.269 0.943 -0.197 144 144 142 0 0
0.4011 3.1181 2.8794 -0.799 -0.349 0.490 67 69 68 0 0
0.4045 3.1458 2.8771 -0.602 0.545 -0.583 67 69 67 0 0
0.2776 3.1876 2.8449 -0.916 0.095 -0.391 74 73 73 0 0
0.2804 3.2014 2.8440 -0.885 0.066 -0.461 78 76 81 0 0
0.2790 3.2148 2.8422 -0.936 -0.174 -0.305 82 79 87 0 0
0.2830 3.2287 2.8415 -0.927 0.100 -0.361 82 80 87 0 0
0.3276 3.3014 2.8431 -0.191 0.366 -0.911 84 80 79 0 0
1.0550 4.2494 2.8965 -0.285 0.943 -0.172 145 145 144 0 0
1.2666 2.4481 3.1571 -0.654 -0.524 -0.545 67 68 71 0 0
0.3612 3.1706 2.8788 -0.428 -0.758 0.493 76 75 73 0 0
0.2724 3.1888 2.8574 -0.916 0.095 -0.391 73 73 73 0 0
0.2741 3.2025 2.8562 -0.885 0.066 -0.461 74 72 78 0 0
0.2754 3.2161 2.8550 -0.915 -0.201 -0.350 81 79 81 0 0
0.2732 3.2293 2.8530 -0.843 -0.356 -0.404 115 114 111 0 0
1.2519 2.4348 3.1706 -0.633 -0.736 -0.240 74 75 76 0 0
1.1623 2.4932 3.1444 -0.777 -0.457 -0.432 53 53 59 0 0
1.2421 2.5243 3.1586 -0.587 0.417 -0.693 50 48 55 0 0
0.2720 3.2174 2.8678 -0.883 -0.249 -0.397 125 121 114 0 0
0.9555 4.1433 2.9166 -0.292 0.403 -0.867 62 59 65 0 0
1.1698 2.4951 3.1610 -0.580 -0.614 -0.535 51 52 57 0 0
1.2556 2.9313 3.1320 -0.280 0.094 -0.955 62 62 64 0 0
1.0881 3.7525 3.0042 -0.425 0.357 0.832 65 65 67 0 0
1.2375 2.9320 3.1432 -0.423 0.185 -0.887 62 62 64 0 0
1.1625 2.5763 3.2112 -0.158 0.021 -0.987 43 43 48 0 0
1.1347 2.5774 3.2198 -0.150 -0.075 -0.986 42 41 47 0 0
1.0813 2.4934 3.2618 -0.197 -0.960 0.200 75 75 77 0 0
1.0239 2.6970 3.2260 -0.164 0.028 -0.986 46 47 51 0 0
1.1840 3.1979 3.2243 -0.595 0.487 0.640 34 35 37 0 0
0.6504 3.8466 3.0555 -0.281 0.393 -0.875 28 29 34 0 0
0.6324 4.0218 3.0899 -0.882 0.450 -0.139 69 69 73 0 0
0.2632 3.6126 3.0705 -0.521 0.641 0.563 22 23 27 0 0
0.2859 3.6297 3.0743 -0.545 0.535 0.645 23 24 28 0 0
0.4931 2.7349 3.2375 -0.255 -0.011 -0.967 53 52 57 0 0
0.2988 3.6335 3.0911 -0.376 0.394 0.839 30 31 35 0 0
0.5224 3.9634 3.1118 -0.551 -0.623 -0.555 67 66 70 0 0
1.1354 4.3252 3.2430 -0.311 0.948 -0.063 163 163 162 0 0
0.3790 3.6842 3.1899 -0.454 0.883 -0.119 47 47 51 0 0
1.1402 2.4806 3.5349 -0.148 -0.985 0.088 84 82 83 0 0
1.0570 2.4941 3.5114 -0.110 -0.993 0.042 79 77 78 0 0
1.1369 2.4824 3.5490 -0.148 -0.985 0.088 85 83 84 0 0
0.3775 3.6048 3.2261 -0.368 0.851 0.375 48 47 52 0 0
0.3434 3.6718 3.2378 -0.448 0.861 0.241 54 53 58 0 0
0.3892 3.6929 3.2479 -0.468 0.848 0.250 55 54 59 0 0
0.3276 3.5478 3.2607 -0.568 0.166 0.806 49 48 53 0 0
0.7549 4.1156 3.3159 -0.583 0.582 -0.567 67 67 69 0 0
0.7426 4.1150 3.3273 -0.562 0.587 -0.583 68 68 70 0 0
0.8615 4.2166 3.3787 -0.342 0.921 -0.187 82 80 82 0 0
0.7746 4.1563 3.3759 -0.736 0.657 -0.163 72 72 74 0 0
1.3551 2.3731 3.8210 -0.758 -0.649 -0.062 176 176 176 0 0
1.3342 2.3749 3.8304 -0.267 0.953 -0.142 176 176 176 0 0
0.4816 2.7993 3.5381 -0.916 0.235 0.326 47 47 49 0 0
1.2535 2.4079 3.9575 -0.838 -0.447 -0.312 185 185 185 0 0
1.2557 2.4379 3.9551 -0.419 -0.665 -0.618 178 179 181 0 0
1.2476 2.4097 3.9709 -0.838 -0.447 -0.312 186 186 186 0 0
0.4248 2.8063 3.7177 -0.181 0.939 -0.291 47 46 51 0 0
0.3115 3.4834 3.7510 -0.098 0.533 -0.840 38 37 42 0 0
0.1283 3.2964 3.8052 -0.937 0.261 -0.231 186 187 184 0 0
0.1236 3.2726 3.8334 -0.687 -0.547 -0.478 196 196 196 0 0
0.1360 3.3274 3.8320 -0.304 -0.939 0.160 178 178 180 0 0
0.0795 3.3736 3.8078 -0.559 0.237 0.795 196 196 196 0 0
0.1141 3.2732 3.8436 -0.653 -0.752 -0.085 198 198 198 0 0
0.1220 3.3007 3.8436 -0.984 0.157 -0.089 198 198 198 0 0
