ply
format ascii 1.0
element vertex 714
property float x
property float y
property float z
property uchar diffuse_red
property uchar diffuse_green
property uchar diffuse_blue
end_header
0.20323394295166453 3.9586264602675296 2.2291594096030423 191 191 191
0.1819082243967154 3.9492746117261928 2.2279024753405383 190 190 190
0.1724760670976393 3.9632291229646217 2.2286773025837197 190 190 190
0.15845239185150972 3.9681259865844427 2.2286633377315006 190 190 190
0.18473047203318926 4.053079694424737 2.2356136915857565 189 189 189
-0.15885930449631425 3.4006916552340063 2.178456318792466 189 189 189
-0.14498815470096194 3.4590961329527685 2.183122667566357 188 188 188
-0.15104696183556632 3.477812099122624 2.184337755437269 188 188 188
-0.13600578631945504 3.5391936827291604 2.1892543189865767 188 188 188
-0.17494903644583282 3.4915877003085942 2.184713336763468 189 188 186
-0.23042677841783 3.4098988231260896 2.1772240409722357 189 188 186
-0.21152352559816734 3.4794093259673353 2.182841616373585 188 187 185
0.2008129932099938 4.390814428377945 2.260886608218639 187 186 184
-0.33544649460672304 3.3791701381253043 2.172161507165676 186 186 186
-0.3459796738879055 3.388230621464543 2.172546951793254 186 186 186
-0.35703390049221273 3.396197782368086 2.172838068956328 185 185 185
-0.37060580308153446 3.398849967824756 2.1726710394977835 185 185 185
-0.3794710063236224 3.4114122987434357 2.173358585230953 185 185 185
-0.22302356904196374 3.7752426521649394 2.2042963048984747 185 185 185
-0.255270793522995 3.7393881246808 2.2007984238520657 185 185 185
-0.2234270638717939 3.8404369558083626 2.2090812389878067 185 185 187
-0.27611044727993805 3.7604610481466056 2.2017925082924816 185 185 187
-0.2607870352824191 3.8265907002214425 2.207065870890923 185 185 187
-0.30301724592361867 3.7684213868728724 2.201660146449305 185 185 186
-0.27776401440247556 3.8565775607959534 2.2088187291220853 185 185 185
0.1993475336417485 5.009034379030031 2.306323834142336 185 185 185
0.2324575458048339 5.1207401126753 2.3154243590504793 185 185 185
0.2392622986638835 5.174847523634972 2.3195860700379094 185 185 185
0.2286677574201046 5.190509108862482 2.320455455187214 185 185 185
0.21967774511846594 5.209802635668593 2.321634818280128 185 185 185
0.16856721570045297 5.13447092657875 2.314729682114841 185 185 185
4.386695495563612 1.753103537210561 2.195462281867839 178 178 180
4.352982466527736 1.7486988718742729 2.1941971082396816 178 178 180
4.319678917211468 1.7444957079656624 2.192958374960149 178 178 180
4.180687254200288 1.6620096609332575 2.182929430067335 178 178 180
3.9098312140859885 1.4810447070560924 2.1618727561532043 178 178 180
4.1856854139333235 1.7059124205743428 2.1863529388389518 178 178 180
4.138327394275255 1.6907284500898463 2.183902578077857 177 177 179
4.095983892162664 1.679133134483997 2.1818598847968995 178 178 180
4.014225053340532 1.6777340647902006 2.1794862031898288 178 178 180
4.142491748977866 1.7952156110580784 2.1918358625672867 178 178 180
4.014167384824696 1.7179171873893013 2.1824910979446575 178 178 180
3.9212054718894622 1.6670711745481572 2.176106891367062 177 177 179
3.7875608089713557 1.724275329438425 2.1766779384371793 180 180 182
3.7887808617765364 1.7454354190155181 2.178294992544277 181 181 183
3.468659543274755 1.6907003987446048 2.1653155939276947 186 187 189
3.293786875612793 1.56811024821438 2.1512902822972024 187 187 189
3.1901877391323943 1.5029875054673585 2.1435426845257433 188 187 189
3.0963548222071546 1.4453940233571396 2.1366294608664465 188 187 189
3.0010745638876584 1.3861682480574669 2.1295539420888976 188 188 190
2.93697442882309 1.352262200877644 2.125238164597293 189 188 191
2.8514943590494646 1.3003445109153553 2.1189814143500207 189 189 191
2.761476364929385 1.2442508603329805 2.1122862810970386 189 189 191
2.703728849504162 1.2146620715100234 2.1084698206234456 190 190 192
2.4794621049302736 1.0453921528413426 2.0895811319235853 191 190 192
2.3736410684426543 0.9744563275819597 2.0813369371500263 192 191 193
2.2411033104658022 0.8804832427984286 2.0706276451275762 192 191 193
2.191431496612266 0.8559041413047928 2.0674101287505406 192 192 194
2.162416168885077 0.8486302387421035 2.066060651677015 193 193 195
2.122346482287707 0.8318447122473491 2.063692731419028 193 193 195
2.125319602258884 0.8516437533902729 2.065256603895693 193 193 195
2.0066712152959156 0.767335706401469 2.0556559118309075 193 193 195
2.0417500797322194 0.8145325988871217 2.06016069866431 193 193 195
1.9753222809799897 0.7744644004815292 2.0553192717067073 194 194 196
1.9696577931072223 0.7866392881928612 2.0560729918822713 195 195 197
1.9789416710656287 0.8118107778494743 2.0582139687848873 195 195 197
1.9438840010777176 0.798485535268704 2.056244041903794 195 195 197
1.9273421973096005 0.8011912910003564 2.0559874115025982 196 196 198
1.8893375840689444 0.785051095299528 2.053725085524917 197 197 199
2.0332577265829674 0.9286958815289487 2.068466695193362 196 196 198
2.0234796752611035 0.9376529051418763 2.068865494031365 197 197 199
1.7369537911230504 0.7017108614243771 2.0432605668483945 197 197 199
1.656248642528289 0.646903896527601 2.0369201569736264 197 197 199
1.6150266150761943 0.6268536391471752 2.0342759898251757 197 197 199
1.5654154513286975 0.5991229363613856 2.0308243542986597 197 197 199
1.5612588081050867 0.6119096614343125 2.0316656983508956 197 197 199
1.353045008499685 0.441188566865546 2.0131139405251828 198 198 200
1.3192795410189113 0.4267203176814961 2.011094355773564 198 198 200
1.402163807584158 0.5177130129572047 2.0202026522955085 198 198 200
1.5367224996166686 0.6561837950363794 2.0342973410985565 198 198 200
1.4042951532526544 0.5522179127792239 2.0228434536573157 198 198 200
1.3474995787059914 0.5166646767279409 2.018607152775772 199 199 201
1.3015291034582748 0.490756688692153 2.015392930310819 199 199 201
1.2570401194081027 0.4659918044053155 2.012305349622456 199 199 201
3.347776261451972 2.6402461808566624 2.233005666308222 201 201 203
3.2533442152852063 2.573115480173853 2.225362242118434 200 200 202
3.3183312167040686 2.658525058898647 2.2335561187638437 200 200 202
3.3144756674757323 2.678113959297325 2.234914756630595 201 201 203
3.230724976269983 2.6670099738231428 2.2317596760132257 201 201 203
3.1772544360436505 2.638179980862664 2.2281186848284253 201 201 203
3.1003118183220493 2.5861093156006594 2.2220874237164305 201 201 203
3.0498614724939928 2.559649283442645 2.2187075702644647 201 201 203
2.956223784923273 2.4903850156519782 2.2109265582562068 201 201 203
2.9335441677421423 2.490754469733715 2.2103247871069187 201 201 203
2.8897015968119373 2.4700644786893706 2.2075600288295036 201 201 203
2.7716726223788744 2.37533860254452 2.1971970665327873 201 201 203
3.112709307296392 2.738288855174268 2.233817533983489 201 201 203
3.079107974758957 2.7282584870701827 2.2321345459647937 201 201 203
2.996746528970803 2.6690852895078945 2.2254214890075827 201 201 203
2.684820362329205 2.4456136728189763 2.2000446786795353 201 201 203
2.59198880466596 2.3734803016749964 2.19207137282352 201 201 203
2.51597214312949 2.318040353868555 2.185813719997799 201 201 203
2.449460613158158 2.2719437043748663 2.1805189214940452 201 201 203
2.3708730049042526 2.213017771959047 2.173929097900147 201 201 202
2.318392334924885 2.18066303526824 2.1700518571872136 201 201 202
2.0535621932906247 1.9274913110060674 2.143759916666663 201 201 202
-0.23604978670432608 -0.4239399424030156 1.904283972268281 201 201 203
-0.2922725041742704 -0.4695973427152754 1.8993075774898878 201 201 203
-0.22170209668621405 -0.38216832577846527 1.9078075010781188 201 201 203
-0.22472394934644796 -0.3718993566649337 1.9084919601614818 201 201 203
-0.24984464044799476 -0.38501086101720455 1.9068138000854005 201 201 203
-0.27161276657084504 -0.39468554434865666 1.905485824142319 201 201 203
-0.28707374937471736 -0.397738438252463 1.904828327808926 201 201 202
-0.36921479441336 -0.4721846499480886 1.8969786628776975 202 202 202
1.7138083909391366 2.594080709238147 2.1842050542352274 201 201 201
1.7167957045497098 2.6214701820682684 2.186337235577496 201 201 201
1.7315894525657343 2.6634065982233426 2.1898854738402824 200 200 200
1.7371131140754195 2.694192823206582 2.192342189391759 198 198 198
1.741923475511876 2.724242751590403 2.1947240195583886 198 198 198
1.7550686195967637 2.7647178976950366 2.1981171731114704 168 168 168
1.769498567391639 2.8069909264985524 2.201680500355331 106 108 107
1.7824115723677716 2.8475971485103795 2.2050770185723234 90 92 91
1.7997318978560153 2.8939064135837613 2.2090225513048747 83 84 86
1.7806388462547882 2.894899552869508 2.2085669799661685 72 76 77
1.768899505078109 2.905063639232374 2.209001660570968 68 69 71
1.6726265829999893 2.808740097378348 2.1991229436801722 63 62 66
1.5828754926014839 2.7199392184659894 2.1899880677357486 57 56 61
1.5808013015265532 2.7416670502517535 2.191556177078916 52 51 56
1.56339236464363 2.7439614124886016 2.191244701259313 47 46 51
1.7508392825912598 3.0077840609788953 2.216185972697833 45 44 49
1.7877952702695965 3.080519071932818 2.222653612379006 42 41 46
1.6587146197847118 2.9654162690552344 2.2104593410297517 40 39 44
1.5966051209936085 2.91031918095153 2.2046132979609134 39 38 43
1.522189561437552 2.8387957328724536 2.1971967144731512 40 39 44
1.4362643767290915 2.7517176234045397 2.1882969139177955 43 42 47
1.3844883055123918 2.7086329071895596 2.1836364120511056 48 47 52
1.2983165827199572 2.6200572295016706 2.1746177216448 47 46 51
1.2094254148219425 2.527230134378928 2.1652054697157235 45 44 49
1.1369565772999735 2.455398627060555 2.1578198634768433 43 42 47
1.1098228400280088 2.443107965274642 2.156147251869855 41 40 46
1.1159643533227803 2.546571884176582 2.1640588484238483 36 35 40
1.0609837275487994 2.4965123193716563 2.158787555376509 36 35 40
1.0344422164933555 2.48452636465056 2.1571541776010004 36 35 40
1.08251436834456 2.5737035847708065 2.1651605210573783 35 34 39
1.0427069327617469 2.5436992931883102 2.1618108528752535 34 33 38
1.0125926148758482 2.526676058500489 2.159701432630514 33 32 37
0.9490655832233941 2.4636338061315426 2.15322159363635 32 32 35
0.9302685295837931 2.4616680941191644 2.1525528561399208 32 32 34
0.9387613236941957 2.497322745425189 2.155456227151922 26 26 28
0.9749758829816606 2.571586898405326 2.1620177005976418 23 23 25
0.9389149451499474 2.545771734453739 2.1590854365931267 20 20 22
0.9063922490629338 2.5246523384389596 2.1566027039152447 19 19 21
0.8821191935674159 2.5148771736773554 2.1551976921823757 23 23 25
0.850213022901672 2.494242887909503 2.1527683654360263 18 18 20
0.8538290255169285 2.523499510032496 2.1550576942320987 15 15 17
0.8631093504937172 2.560912558628422 2.1581144841311497 15 15 17
0.8343462858977372 2.544495611918341 2.15608792677408 14 14 16
0.8218806930510454 2.551125930611711 2.1562380561911696 16 16 18
0.7933428266419169 2.534754887115398 2.1542211830942297 18 18 20
0.9113144689200625 2.7284517983521392 2.1719875522586523 18 18 20
0.8521593555519663 2.6683679121373176 2.1658503889697673 19 20 22
0.8439346544463215 2.6813971494809614 2.1665969794127324 20 21 23
0.8027323662607775 2.6466315080919354 2.162852357256069 20 21 23
0.7393993376480686 2.579353421330119 2.1560609778177864 20 21 23
0.7422966723847766 2.6082554357513783 2.158303830165534 22 23 25
0.7044518296804707 2.577592431598954 2.154959343856701 22 23 25
0.6511595448422787 2.523934083581888 2.149465645891353 22 23 25
0.641743958976753 2.534584874941513 2.1500012314614025 20 21 22
0.6401036553317391 2.5567619525457164 2.151614994723648 19 21 20
0.6346904172752246 2.5734249476489985 2.152711487203436 23 24 25
0.632075288069965 2.594314973626508 2.154201899714376 32 33 35
0.6258729549817243 2.6099202100433896 2.155197351572806 40 39 43
0.6266730294991741 2.6360888334135306 2.157177488023141 41 40 45
0.6334850038361075 2.6714397241534815 2.1600114849443925 41 40 45
0.6251195421670142 2.6840203840650494 2.160720606448832 40 39 43
0.618534766156476 2.6993287160167414 2.161683230253531 35 35 37
0.6216457381792035 2.7294503082746893 2.164023260177654 29 29 31
0.6173365683155514 2.7483782068367875 2.165319852928202 22 22 24
0.6182638793855686 2.7754090026220135 2.167368028107872 18 18 20
0.6203672087925745 2.804377574779428 2.1695938247475146 17 17 19
0.6211033244138269 2.8313747827807743 2.171634180763017 15 15 18
0.5841623465286703 2.800079833748322 2.1682674968448716 18 17 21
0.6051247665697053 2.8585966129004667 2.1732274707854713 19 18 23
0.515442106638496 2.7446823264567493 2.162215512572815 22 21 26
0.5236731439266569 2.7833366635471246 2.1653360552462178 22 21 27
0.5325477386589743 2.8232148881784975 2.168566029260594 23 21 27
0.5648636402063589 2.9003136536373653 2.175231390904373 27 26 32
0.5892224953177527 2.9652950734369874 2.1807693074874406 32 31 36
0.5432628670535546 2.918887476843085 2.176021608420602 39 38 43
0.5320124972335456 2.9274572231380542 2.1763505708663544 43 42 48
0.5352191188466926 2.9591708846313076 2.1788123736764256 48 47 52
0.5197659339297145 2.9610608519825394 2.178524917889342 52 52 54
0.5200998689707383 2.98835860422105 2.180576599106 52 52 55
0.5246043910901415 3.022537099805904 2.18325884027726 51 52 56
0.5183597867309142 3.0394345157772342 2.1843497996868413 54 55 58
0.5170678262605348 3.064461232018199 2.1861864398403124 62 63 66
0.5153176418812251 3.088852087098087 2.1879627881472854 53 53 55
0.5039088326354071 3.0974915316523113 2.188292568333116 45 45 49
0.46297560521629966 3.057467222493603 2.184161960524318 39 39 44
0.4552772799768072 3.072057188304655 2.18503993262655 37 37 42
0.45124988712795866 3.092779887675065 2.1864786320902945 39 39 44
0.45659279317203905 3.129198050176929 2.1893517119638357 40 40 44
0.46673905210219946 3.173846149094862 2.192973858980045 41 41 45
0.44962228241758107 3.172996351431815 2.192435245928134 43 42 47
0.43413204506226344 3.1748116589628133 2.1921411758106912 44 43 48
0.6573675673328052 3.5801618530180943 2.2286647363502223 45 44 49
0.7137621243706103 3.70531833511534 2.2395940094398523 47 47 51
0.7333876677359781 3.768702442635565 2.244881054630649 49 50 53
0.7390728648488951 3.8086509694410644 2.248027775227093 53 54 56
0.618071183064463 3.6314813110937303 2.23141388179308 57 58 60
0.6137478281571263 3.6538378895959536 2.23296661419258 69 68 71
0.6547886231243862 3.754685641380414 2.2416510080949505 82 81 83
0.6503981528193183 3.7774002041089343 2.2432286622075726 105 106 106
0.6452921877720736 3.798963247023973 2.244700303089556 160 161 160
0.6385405973696165 3.81773629841482 2.245917527183458 193 192 190
0.6263788914587336 3.8270854489712534 2.2462795127816135 200 199 197
0.6156557771801454 3.838962201090601 2.2468705375091442 202 201 199
0.6181556532120815 3.8742172666866956 2.249577693760896 202 201 201
0.6082428215472107 3.887645767733227 2.250307307391465 201 201 201
0.6055778214078098 3.9140015661621272 2.25220528413806 201 201 201
0.46597801615723666 3.695808056477752 2.2320058498813524 201 201 201
0.44249276431696827 3.684154648054549 2.2304821716765995 201 201 201
0.5712623916337483 3.946421683791549 2.2536786171753613 201 201 201
0.6047696329596897 4.038451113239377 2.2614941513846945 201 201 201
0.6048649172458074 4.070497170746533 2.2638944769584466 201 201 199
0.6622705881745898 4.272394079882592 2.2805935180965906 200 200 198
0.6467109107881983 4.2766772654905925 2.2804821671189672 199 199 199
0.6353403177042716 4.288655906375229 2.2810628460623668 199 199 199
0.6551278747725258 4.35844588095206 2.286833673531611 199 199 199
0.6404277001374381 4.364467514941054 2.2868762462587027 199 198 199
0.6269823121243498 4.372800806543239 2.2871266001924297 199 197 198
0.5944839516853326 4.345370692510981 2.284172375913322 199 197 198
0.2795543564848082 3.976674668881827 2.247846544952751 196 196 195
0.28172998648036285 4.013299182813052 2.25064716451972 195 195 195
0.27609648495895023 4.034965840970569 2.2521119174790427 194 194 194
0.28058680126663504 4.0764566991338205 2.2553408742742467 195 195 195
0.19782710014278115 3.947463698893075 2.2433928576345856 194 194 194
0.18232689031133886 3.949516004889116 2.243116242946605 194 194 194
0.17186264660392858 3.961438768701937 2.2437178945399436 194 194 194
0.1980993674679865 4.046029779650416 2.2507751130541296 193 193 193
-0.5409650441473579 2.6378634113667494 2.1249055110256214 193 193 193
-0.49388451614388895 2.759806741790733 2.135335889996142 192 192 192
-0.4634024047153644 2.8492649822323735 2.1428750936367664 192 192 192
-0.21758990253737998 3.404644509953415 2.191250391592958 192 191 189
-0.23045548047677844 3.4093069953815895 2.1912421874774015 192 191 189
0.18994265740226668 4.36784376824227 2.2746268190953445 191 190 188
-0.3278323507795511 3.394504461805524 2.1874322229700423 189 189 189
-0.34859143478675936 3.3822452988484732 2.185938879983075 189 189 189
-0.3671752453438253 3.37438402597689 2.184834955514967 188 188 188
-0.3766182620602889 3.3856550373104435 2.1854161845785054 188 188 188
-0.3882527258937245 3.3923071339828246 2.1855910092396864 187 187 187
-0.24583299634004163 3.7262377554706445 2.214528136455918 187 187 187
-0.2430958564835357 3.764816474676768 2.2174905526101876 187 187 187
-0.24814125885276894 3.7869624279404315 2.219007487516094 186 186 186
-0.16928474268523952 3.989615203621084 2.2363583947618735 186 186 186
-0.18061323943017005 3.9991279727346623 2.236755745824076 186 186 186
-0.18508693111014618 4.023497938118049 2.238454947322262 186 186 186
-0.28977246981949567 3.829901143376105 2.2210647900260647 185 185 185
0.18248456598715324 4.933179297747693 2.316718158570594 186 186 186
0.1799749204315475 4.965746819129036 2.3190852069564505 185 185 185
0.19666100020509658 5.040948287403692 2.3251748481542918 185 185 185
0.20815481914784284 5.105144611139121 2.3302969884286417 185 185 185
0.1969953224231764 5.119265330205817 2.331043795768826 185 185 185
0.20361625136591055 5.173221600073944 2.335264542393576 185 185 185
4.120508597131796 1.3633013754138925 2.1750546909350237 178 178 180
4.122285107849607 1.3837124593785772 2.176658765546043 178 178 180
4.4802852475673545 1.6784633503716109 2.209401978265581 178 178 180
4.481681581669886 1.6996320325846968 2.21105273293493 178 178 180
4.407514736746677 1.686535541779496 2.2079186442827536 178 178 180
4.351179810790647 1.6658521377538813 2.204721314512018 178 178 180
4.3149766518966555 1.6596110264540065 2.2032030087083108 178 178 180
4.244749532841938 1.6284185215444 2.1988057344685314 178 178 180
4.167232065028543 1.5916109324231291 2.1937711362928636 178 178 180
4.228820352057627 1.6567138309044778 2.2004993078892476 178 178 180
4.178296902567865 1.6395182469022656 2.1977348347846664 178 178 180
4.162449622297045 1.6477887158120268 2.1979072838898848 178 178 180
3.9762569501938136 1.5296308739948719 2.1835512332651894 178 178 180
3.9069391832590994 1.4976456668031077 2.17911986068557 178 178 180
3.852565727020928 1.4765454353128937 2.1759473542224868 178 178 180
3.787038774888845 1.4468806445373514 2.1718017810019057 179 179 181
2.849820158621472 1.298314465007683 2.1334854519208317 194 192 195
2.7363404796234843 1.222708822415708 2.1244625686279632 195 193 196
2.6462252627686094 1.1660458566237706 2.117554273380299 195 193 196
2.375221694543014 0.9575109372643617 2.0938778526102584 195 193 196
2.288735143776396 0.9025394810101081 2.087202836028932 196 194 197
2.2196647948497734 0.8618279938684179 2.0821147015468893 196 194 197
2.1982299305000983 0.8610660258008882 2.081438914142417 196 195 198
2.14274043146 0.8313579620587215 2.0775793582198467 196 196 198
2.1273052081972654 0.8354835292257453 2.0774483409389255 196 196 198
1.9888315957521665 0.7345399195490661 2.0657773512408806 197 197 199
2.065254805757635 0.8169409685251723 2.0742491488318677 196 196 198
2.016213289564516 0.7920135474425645 2.070939153225888 196 196 198
1.9488109059858383 0.751039114157424 2.0658790896285533 197 197 199
1.9679620414377705 0.7846023257297275 2.068984563652915 197 197 199
1.9457991704749968 0.7824804399487659 2.068184330709982 198 198 200
2.1074172010945533 0.9402796243050432 2.0848479700675706 198 198 200
2.0709826679535226 0.9260762115794883 2.082717225431154 199 199 201
2.039356646902363 0.9159369298141382 2.0810342746145065 199 199 201
2.005545849327354 0.9037545198541234 2.079132911297264 199 199 201
1.9742751238295866 0.8936766926897367 2.0774648766147115 198 198 200
1.7154890831834542 0.682164617064157 2.053914100306723 199 199 201
1.6258855653089732 0.6194034205410782 2.0465566018645553 200 200 202
1.6199435595667397 0.6306892092047975 2.0472439554668025 199 199 201
1.5789773166094816 0.6107011407964507 2.044542498184595 199 199 201
1.5531837681446257 0.6041311080795335 2.043299204305424 200 200 202
1.3382797843106973 0.4273887167673258 2.0236585094784756 200 200 202
1.2856372020779556 0.39584711481826684 2.019741515098966 200 200 202
1.2459378624467925 0.37576583337996206 2.0170694821449495 200 200 202
1.2301299763555167 0.3772012362934414 2.0167230565694774 200 200 202
1.176147669944662 0.3438137082476556 2.012627009718887 200 200 202
1.3390669711579686 0.5084325438067625 2.0298469929821223 200 200 202
1.2940976186929554 0.48342124155740435 2.0266479876863404 201 201 203
1.2375177159664559 0.4475128766183256 2.0222852856707054 201 201 203
1.181259906376713 0.4116167615726766 2.0179327993139213 201 201 203
1.116100958442818 0.367192590060277 2.0126749430232036 201 201 203
0.9715749496320312 0.2640784613156732 2.0006643725576625 201 201 203
0.8810307941484578 0.19484547645697575 1.9927873900551332 201 201 203
0.8236386795773938 0.15621775357017081 1.9881943895752812 201 201 203
0.7024629264211978 0.05724833746221203 1.9771721722091902 202 202 204
0.6621049507760715 0.033910749607534096 1.9742334163995152 202 202 204
3.3426276107055446 2.6346070025871797 2.249354447768463 201 201 203
3.2504923391449894 2.569666101335341 2.241758145194393 201 201 203
3.192127703863797 2.5366472454016717 2.2375638349692433 201 201 203
3.2682953380992625 2.7028268896011243 2.252402121009078 201 201 203
3.179748867980539 2.6398948245718334 2.245062090218803 201 201 203
3.214945563394404 2.6976191393720828 2.2504682161808427 201 201 203
3.184064004742213 2.6907506409207187 2.249055563392422 201 201 203
3.1533342939134505 2.683915438690794 2.247649820481911 201 201 203
2.8625933550084848 2.4199121684286893 2.219184491020499 201 201 203
2.904866195865944 2.4844100592031304 2.2253099047048317 201 201 203
2.8439222824479344 2.446550351110068 2.220672961108927 201 201 203
3.107020277634318 2.7318892710221787 2.2499647490222965 201 201 203
1.7849274996516193 2.679770707179706 2.20789290345245 201 201 201
1.7353941381792595 2.64348675101843 2.2037047289965237 201 201 201
1.7425194100902155 2.6761263115637988 2.2063933104321394 201 201 201
1.7481058560481657 2.7070329421865185 2.208905697407648 199 199 199
1.7582034471374939 2.743631194683464 2.2119811263038063 193 193 193
1.7706734370212145 2.7833381036949367 2.2153614406693443 136 136 136
1.785583625775587 2.826268374625302 2.2190573214646925 98 100 99
1.7991723690945451 2.8677792217902285 2.2226071248295454 87 89 89
1.8206251486601814 2.9193087630634156 2.2271458130811688 79 81 82
1.8025664996687283 2.921685277651824 2.226806113314815 70 74 75
1.7141406459628317 2.8356736540071386 2.2177136719110355 65 67 69
1.6790547540418905 2.816198574019378 2.215220732010293 61 61 65
1.588076291887431 2.7258828467792355 2.205727261634806 56 55 60
1.57800835104503 2.7374948769026366 2.206320513786131 51 50 55
1.5679004312437477 2.74906845543792 2.2069096882366255 46 45 50
1.754014915629089 3.0111875255967995 2.2322160200839853 44 43 48
1.7856082323536597 3.077060962115816 2.2381382690428153 41 40 45
1.8082566755138103 3.131815022943743 2.242956740558595 39 38 43
1.6413941132457115 2.9424315732221586 2.223739014936631 39 38 43
1.6087183868294557 2.925358767180048 2.221498307643083 39 38 43
1.5224962089105398 2.8385634206557335 2.2124097573392127 40 39 44
1.440193432675325 2.7562156196534513 2.2037725441127907 44 43 48
1.377088391823031 2.698340333931317 2.197550530123543 52 51 56
1.290718472136528 2.6094803365634394 2.188300643330817 49 48 53
1.2052189161348537 2.5210932201302163 2.179111819694353 44 43 48
1.239627847192269 2.6631588668739234 2.190911907705642 37 37 39
1.1382946385367783 2.575984306141551 2.1813589616630145 36 35 40
1.0864373737637836 2.5302446218171486 2.176384415874072 36 35 40
1.047819012698872 2.502038612355682 2.17312541265485 36 35 40
1.0894172832287432 2.5824822892990538 2.180444534687583 36 35 40
1.0451631917221758 2.54645602244285 2.176428129560487 34 33 38
1.0247739830705538 2.54274142951716 2.1755578461159084 31 30 35
0.9553410668313528 2.4716615741309385 2.168148843373606 29 29 32
0.9331910624794809 2.465111529442538 2.167012088044956 28 28 30
0.9280490984088591 2.4819453011878236 2.1681445904346752 23 23 25
0.9687537990455672 2.5623766027408066 2.1754370155871294 16 16 18
0.9382889358804907 2.544317922613711 2.1731850269438 17 17 19
0.9322226162146303 2.56012157796144 2.1742125156316114 18 18 20
0.9078696599245878 2.5503613443533824 2.1727680342396534 19 19 21
0.8768888047799213 2.5311552984006207 2.17041388185063 16 16 18
0.8261676681193757 2.483914501385044 2.1653578783963225 13 13 15
0.849193694184718 2.5406415461181195 2.1703373371135877 13 13 15
0.8342258764732063 2.543748089271687 2.1701422647659445 14 14 16
0.6978895477706852 2.3738670954967334 2.153288138775342 15 15 17
0.7282530861126987 2.4411076989166554 2.1592789555551857 15 15 17
0.9167977948033371 2.735731544581649 2.1871282890757966 16 16 18
0.8159120429920322 2.6155923047042458 2.175080295403479 16 17 19
0.8578113902387712 2.7008660379123803 2.1827755648620197 18 19 21
0.887099708679621 2.7683859787269087 2.188756642500589 19 20 22
0.9062517563522373 2.821564642352034 2.1933544815832127 21 22 24
0.71958776353514 2.5745233885844354 2.1691794278159806 22 23 25
0.6909061692910902 2.5571745308763707 2.167032841444925 22 23 25
0.6835250274481991 2.570961257337083 2.1678689855617885 22 23 25
0.6808474759641089 2.59172205303712 2.1693712867277477 21 23 23
0.6631623394285149 2.590342294583334 2.1687565763815915 20 22 21
0.653619528719788 2.600988641367058 2.1692914954070797 19 20 21
0.6289093730326666 2.5890283237484746 2.1676693366073247 21 22 24
0.627100904212189 2.6111921110562077 2.169303426597802 31 30 35
0.6230667695944534 2.630106322354173 2.170626139283323 39 38 43
0.6178898420412291 2.6473681350928704 2.171790199174087 42 41 46
0.6125270585546376 2.664407030063258 2.172931942610618 42 42 46
0.6187120888169417 2.6990293163390424 2.175744268748348 41 41 43
0.6198878899901634 2.726203023177546 2.1778455277932447 40 40 42
0.6178626947090786 2.7486121597132347 2.179492037186178 37 37 39
0.6195758189405989 2.7768501746078726 2.18168975578775 31 30 34
0.6308147681574576 2.819888256989513 2.1852880227203735 26 25 30
0.6465058001886497 2.870045449808427 2.1895562321991835 23 22 27
0.631406868829743 2.8727576892900757 2.1893273822367565 25 24 29
0.6220914467098675 2.8844220373635934 2.1899463045708067 27 24 30
0.49264753510767334 2.708525618864567 2.1728331866746644 33 30 36
0.521155179405226 2.7788254608656477 2.1790032571418423 36 32 39
0.5285670974360608 2.8163872559785386 2.182074582972783 39 37 43
0.5316111192828332 2.8472591258858286 2.1845110450754635 45 44 50
0.5510717598508901 2.9042899814563814 2.1894108525459104 49 48 53
0.5147854022601666 2.873047209212374 2.1859880284939255 53 52 57
0.528135967824122 2.9207016945988222 2.1899983733458246 56 55 61
0.5309014141521597 2.951685415901078 2.1924353156933725 59 58 63
0.5297130231999072 2.976472725015393 2.194286875080733 60 59 62
0.5217447629804897 2.9904386926604336 2.195119733310752 60 61 63
0.5242132892913787 3.021330084948028 2.1975410931643977 60 61 63
0.5186043079400575 3.039257471912298 2.1987433366925213 67 68 70
0.5122757768766548 3.0560743597999727 2.199840354143943 64 65 67
0.5052582597396547 3.071818460082085 2.200835895533806 60 60 62
0.4991475988505194 3.089098280318446 2.2019744124360905 57 56 60
0.43379732438482566 3.0088114834738264 2.1939826218306293 54 53 58
0.4387656497417718 3.044176722789896 2.196816402569272 47 46 52
0.44129685059704493 3.075686650170036 2.199286626888847 42 41 46
0.4546474839899761 3.125383927641593 2.203452388814938 41 40 45
0.47831308521362637 3.19262335517825 2.209250061502857 42 41 46
0.44872753788458875 3.170920524408942 2.206746171294356 41 40 45
0.5733970964893578 3.408804229789573 2.22843765555407 42 41 46
0.5929911790861151 3.470732668310637 2.2337139161296076 43 42 47
0.6094136512045178 3.527663035248769 2.238518509325188 46 46 50
0.7062903661521196 3.7219445048263404 2.2560916731254164 47 48 52
0.6968568967228692 3.7358818768064115 2.2568801240815333 51 52 56
0.5845421116706357 3.5733630556171283 2.2412784832844124 55 56 60
0.6015812100515578 3.632288042430166 2.2462525996870455 67 66 69
0.6404338990321712 3.729271078000817 2.254750896161566 83 82 84
0.6367216932699324 3.7530700501955208 2.2564545192089938 111 113 112
0.6317707411689377 3.7748149190311717 2.257966162194555 175 176 175
0.6212478004695274 3.7869109834381174 2.258583125094902 199 198 196
0.7272763434057692 4.003429081893798 2.2781118292720266 204 203 201
0.595276212098736 3.8024797216575994 2.259019011816869 204 203 201
0.6047162328766171 3.849862232286569 2.2628959512699347 204 204 203
0.5985507979956366 3.8698482972375094 2.264238779853488 204 204 204
0.5627761796826756 3.8372041910908976 2.2607240925234215 203 203 203
0.5040515273690356 3.7632384323555583 2.2534041752387264 203 203 203
0.4495514143185595 3.6962217720032937 2.246734707537553 203 203 203
0.5242250804116517 3.8611448267766963 2.2614343319216537 203 203 203
0.4295087031903191 3.7211834980518548 2.248056098481612 202 202 202
0.3771106302358658 3.656843428524436 2.241650852250131 202 202 201
0.7106092976016036 4.360423568632031 2.3047914877410705 202 202 200
0.6482290026018758 4.278846728756154 2.2967871546927077 202 202 204
0.6660432692998939 4.344767458175387 2.3023158481465336 202 202 204
0.6368283362445628 4.323873514462408 2.2998841800808587 201 201 203
0.6277274559638137 4.340192963497019 2.3008634450896213 201 201 202
0.6173916401289048 4.354249037820521 2.3016349185617875 201 199 200
0.3154448837113486 4.077919674785873 2.271908837734853 199 199 197
0.291609464927828 4.064495556567101 2.2702005258860334 199 199 198
0.2775934075163149 4.070029933199077 2.270217595097629 198 198 198
0.1952818845721902 3.941901510637415 2.25809715134201 197 197 197
-0.5777099616839712 2.5097875450689533 2.1268623304801526 197 197 197
-0.5517020067223952 2.588539216317952 2.1336033654949422 196 196 196
-0.5337936358685857 2.651682819588009 2.138923488238651 196 196 196
-0.4855664462903593 2.7759708585852527 2.14976934387078 196 196 196
-0.4669717109145226 2.8415905024271497 2.155297626255442 195 195 195
-0.23478942860883878 3.399957861157728 2.204470267065267 194 193 191
-0.2391753009056119 3.4218681230730974 2.206010780409941 195 194 192
-0.25929702115223296 3.411619120262251 2.204651070487124 195 194 192
-0.278852383055163 3.402383530332098 2.203384784912544 193 192 190
-0.303756829166159 3.4129485252180487 2.2034707463126604 193 192 190
-0.3235104942319884 3.402979892655413 2.202142975343232 192 192 192
-0.44603844510656887 3.177967139600406 2.1814924375254794 192 192 192
-0.42968136468609663 3.242647474204123 2.186884761569187 192 192 192
-0.41403968079850006 3.306264976672696 2.1921756057324466 191 191 191
-0.398658083553743 3.369768840397393 2.1974503078111383 190 190 190
-0.3546222381359516 3.49458230114994 2.2082153302949825 190 190 190
-0.26966474618767733 3.7076043330630704 2.2268707237203973 189 189 189
-0.2704504598286688 3.7386450241369427 2.229209645235956 190 190 188
-0.19050122009928905 3.9434434614130973 2.247095036759185 189 189 188
-0.20712412558196625 3.941344627338219 2.2464562360006872 188 188 186
-0.21036213899533296 3.9681620525617802 2.2484031698571125 188 188 187
-0.21053014550468507 4.001799560209219 2.250957460710261 187 187 187
0.15975711798803172 4.958717720822072 2.3344323481095914 187 187 187
0.17732381232594685 5.036064519726697 2.340823198340462 186 186 186
0.20485254355988758 5.136166950312776 2.349232427203856 186 186 186
4.509959136691517 1.5392354085438489 2.216450304397447 178 178 180
4.402455679210287 1.4837932034727377 2.2089487333728286 178 178 180
4.307146649116375 1.4364731055091429 2.202439861747301 178 178 181
4.2233987996579945 1.3969117246267373 2.196876654885119 178 177 182
4.123245514019679 1.345431041282699 2.189901191395421 178 177 182
4.065020933798225 1.3232600457167234 2.1864459398950586 178 177 182
4.150375603563237 1.4029721256722103 2.1951624285526985 178 178 180
4.444828564063484 1.6724182087949677 2.224803641858318 178 178 180
4.415606161880424 1.6715062624022765 2.223859545100359 178 178 180
4.358909691884808 1.6506575735874476 2.220552241503493 179 179 181
4.323264628097295 1.644867346012446 2.219038861950348 179 179 181
4.286690450412831 1.6382921441731266 2.2174369979350503 179 179 181
4.234408919886783 1.6201371500235067 2.2144700032709705 179 179 181
4.222031566095222 1.6310169200351097 2.2149414373121092 179 179 181
4.154505814033408 1.6013767913903936 2.2106304775461507 179 179 181
4.151938050273031 1.6193573441950244 2.2119443302301627 179 179 181
4.150291415220258 1.6380672264693885 2.213342125110616 180 180 182
4.017286657290211 1.5593612619398391 2.203279009742458 180 180 182
3.958842153567092 1.5355754105153407 2.1996922912406656 181 181 183
3.901057549356789 1.512057881837543 2.196146051638924 181 181 183
3.830542311829306 1.4787787296168244 2.1914642835263507 182 182 184
2.5227180010151447 1.0623669447359807 2.1201633060967757 197 197 199
2.385904610577569 0.9658533924070654 2.1086091007748324 198 197 199
2.337034055314834 0.9425099764631137 2.105342801310956 198 197 200
2.221403214429569 0.8627052269614508 2.095714077522895 198 198 200
2.1958354027914204 0.8584555464142164 2.094621090390552 198 198 200
2.1391911412679265 0.8277659430828392 2.0905542529227357 198 198 200
2.0456993080927584 0.7654679443747932 2.082941315936826 199 199 201
1.9918283918175752 0.7365289710522243 2.0790927775530084 200 200 202
2.0271805847326645 0.7837570287369298 2.083802196506706 200 200 202
1.9640650062394038 0.746634772741535 2.0790444069388982 200 200 202
1.9359028901935984 0.7393448433379238 2.077638734031273 200 200 202
1.8852266652386986 0.7124820714957033 2.0740462699824 200 200 202
1.8811041105260444 0.7257805201585642 2.0749515310437863 200 200 202
1.8742114807603194 0.7367000091442636 2.0755899958748043 200 200 202
1.8481004757610968 0.7308529592698725 2.0743572304000994 200 200 202
1.8200666688258305 0.723228625911353 2.072929530389704 200 200 202
1.7823053635103612 0.7069497859029271 2.0705417010365483 200 200 202
1.9354686241627617 0.8588794189113389 2.08687053499883 201 201 203
1.9088083031813108 0.8526494757982772 2.085591735518276 201 201 203
1.8678837064523084 0.8336621790478443 2.0828998719814913 201 201 203
1.5876580520090768 0.601394479076399 2.0565593356467766 201 201 203
1.4974444000341602 0.5373172161983151 2.0489067877934874 201 201 203
1.1776930084936683 0.28246060838677534 2.019637657111776 201 201 203
1.1635626581482075 0.28519763100967666 2.0194269288900073 201 201 203
1.121690808126027 0.26279373260047423 2.0164425090422053 201 201 203
1.2241264870257629 0.3712384867675971 2.0278917929111353 201 201 203
1.17068791533827 0.338333025746274 2.0237494114725703 201 201 203
1.2099313368919624 0.3898766118181477 2.028908916013434 201 201 203
1.193018747671499 0.39021192297243656 2.0284292683196266 201 201 203
1.2326829960649257 0.4425503726944336 2.033662827563226 201 201 203
1.1684875334360054 0.39931797985824224 2.0284001993203686 201 201 203
1.108622515244156 0.3597631869961613 2.0235514491990094 201 201 203
1.0361184896459994 0.30815825720957646 2.017392916390555 201 200 205
0.9702682700901357 0.26236892609125145 2.011883068117328 201 200 205
0.8655227947362694 0.17986012977456856 2.0023706181514656 201 200 205
0.8139549898475253 0.14665416595831493 1.99826092010246 201 201 204
0.8092257610554583 0.15727046089623564 1.9989406081128942 201 201 203
0.6661832951789628 0.03729783634109357 1.985385871937828 201 201 203
0.5852404162624247 -0.010157163728072183 1.9792960250413694 201 201 203
3.278216987854036 2.5954706891930233 2.261317969583208 201 201 203
3.200793587158324 2.5442496239436703 2.2550420662539423 201 201 202
1.7898524554779391 2.685107831664606 2.2237577031296447 201 201 201
1.747032531815389 2.657023684569742 2.2203056323893136 201 201 201
1.754040970704772 2.6895664733597244 2.2230319943559516 201 201 201
1.7614731620484283 2.7227817737300897 2.225823035795593 198 198 198
1.7690547890856547 2.756338317556368 2.2286449361356397 174 174 175
1.7829712155966557 2.7978731720536776 2.2322732484719383 112 112 114
1.7937257957486 2.8357057013568165 2.235520704213455 92 92 95
1.80553977711759 2.875042815021122 2.2389161937096533 83 83 86
1.8368844719036126 2.938928937508997 2.244794145311177 77 77 78
1.7469697654053928 2.8514822316163935 2.235343145492832 70 70 71
1.7155923982110963 2.83685384768121 2.2332738019254252 65 65 67
1.6484132069055168 2.7769664570562536 2.2266338842983853 60 60 62
1.5868322318584283 2.723680528289378 2.220671874195926 54 54 56
1.5905415006173396 2.752757548987934 2.223031569730458 49 49 52
1.5626571471272168 2.741767337473888 2.2213480210253502 45 45 48
1.7293338028753746 2.979026359687561 2.24468018072778 42 41 47
1.8001700161716403 3.09505871327128 2.255771661875791 40 39 44
1.788563048697651 3.10584197254405 2.256258661524296 39 39 41
1.6381014425351763 2.937542959893235 2.23874458521876 39 38 41
1.606906060173384 2.922374115310704 2.2366388827289048 39 39 41
1.5229022333177562 2.8384600681761794 2.2276377964283607 40 40 43
1.4358873566825217 2.749982625435256 2.218193766374792 46 46 48
1.3697644925429322 2.688148791521428 2.2114348887431663 52 51 56
1.2747432958164961 2.5879154750254507 2.2008423226285383 51 50 55
1.1882602247621703 2.4981707910167903 2.19131618202028 44 43 48
0.687145174241322 1.8817202585882187 2.12865980290569 40 40 42
1.1739966814729923 2.599113230789609 2.1986966616504726 37 36 40
1.1432899474523683 2.582099504492467 2.196462883865109 36 35 40
1.1131020199813548 2.56560384975645 2.1942846827118556 36 35 40
1.076894764909679 2.540786895392369 2.1912829734926036 36 35 40
1.1317169381716106 2.6637721416645466 2.2024334705237347 35 34 39
1.0299354510656205 2.549208330051717 2.1905304960822627 30 29 34
0.9492528034980234 2.4627293184055192 2.1814303183635184 26 26 29
0.904451967269794 2.424976143300346 2.1771712298258667 24 24 26
0.9260107093551718 2.4785499642375397 2.18195909110355 19 19 21
0.9433726411450543 2.5266151740091756 2.186195459004711 15 15 17
0.9479217498384565 2.5571311335010565 2.1886915477687943 16 16 18
0.9099357483931552 2.528436694821738 2.1853367812152737 16 16 18
0.8872821495381717 2.5209502575501164 2.184080580622356 15 15 17
0.8641991176968314 2.5127449429573936 2.182755944825932 15 15 17
0.829531067294655 2.488083411525914 2.179812268577736 13 13 15
0.8591425100432362 2.554141585977496 2.1858063929003477 13 13 15
0.8120683804958859 2.511710033432921 2.181117522237333 13 13 15
0.7028672706222754 2.380398073832284 2.167697448713091 14 14 16
0.7339926776057416 2.448748255202973 2.173914094501019 14 14 16
0.8028765265860754 2.5716887662452343 2.1854814878401587 15 15 17
0.818707738285604 2.619039460146324 2.189616836257758 16 16 18
0.8352099189514105 2.6676267277715517 2.1938678788411106 18 18 20
0.871330350669262 2.744933874017874 2.200926574685341 19 19 21
0.903562178838815 2.817059851245282 2.2074683149237546 21 22 24
0.9494219721271732 2.9095235197375633 2.2159903594751342 22 23 25
0.7261989087309497 2.633137330533522 2.1879417278515105 23 24 26
0.7063256297496531 2.6287459622541576 2.187008013512002 23 24 26
0.70108627717253 2.6459276319478002 2.18818021692837 22 23 25
0.675232285169493 2.632535374154436 2.186371589496317 21 22 24
0.6527557137032692 2.6240207386886207 2.1850411602493165 19 20 22
0.6426066582737455 2.633828590573676 2.1854963045122697 22 22 24
0.6301757367691798 2.6402152027571604 2.1856186371870425 28 28 30
0.6231102360807044 2.654668428558623 2.1865252328356264 36 36 38
0.6182349889353682 2.6724721580202813 2.187756430718035 42 42 45
0.6188661981723458 2.6986946283897577 2.1898033411171887 42 41 46
0.6183268970335163 2.723255960081711 2.1916867884100335 42 41 45
0.6181703929266795 2.7485121192406186 2.193635416771702 41 41 45
0.6208693850281657 2.778262830571837 2.196017014468941 39 38 43
0.6250205772160549 2.8103954911315188 2.198626243392104 38 37 42
0.6378433647798325 2.856087309374375 2.2025433616029604 39 38 43
0.6317961817660775 2.872785491836054 2.203654023127228 38 37 42
0.6190804256118763 2.8791619245921183 2.2037670537530283 40 38 44
0.5976006852385114 2.8718342070300915 2.202558219538198 44 43 48
0.5557804660343217 2.8325159166175866 2.198267187061036 45 44 48
0.5166973883162891 2.7971547136186583 2.1943640184249715 48 48 51
0.5210167106558024 2.8299710814597443 2.1970311511871943 52 51 54
0.5265924671612268 2.864947434935342 2.19990289637433 57 56 60
0.5388233817242671 2.9106877061284417 2.2038060686282517 59 58 63
0.5424214769326374 2.942919526153096 2.206406432387727 59 58 63
0.5374191060547742 2.961547978132745 2.207697613958712 60 59 65
0.542200262425601 2.995963425873284 2.210502225223745 62 61 66
0.5501409940540449 3.0356551216462995 2.2138093521040854 66 65 69
0.5321518653034925 3.033603289469586 2.213112901373584 74 72 77
0.5159820889323048 3.0344242709591516 2.21269302079364 73 71 76
0.49820416363670317 3.032562555242282 2.212017587298156 65 64 68
0.4999199354766257 3.062510722588724 2.2143850640744795 61 60 65
0.49280246439730946 3.078105633593205 2.2153784038639945 59 59 62
0.45760793765692 3.0474798925067583 2.211957718353911 58 58 60
0.45471381627379226 3.0699830232176506 2.21361159035748 57 57 59
0.45821642225607784 3.1031999749547636 2.2162852894979 52 51 54
0.46176537584253174 3.136668467576717 2.2189798282689708 47 47 49
0.4894535164401508 3.2106726662316607 2.2255310019889722 41 41 43
0.46949046187418064 3.20518764254562 2.224510020806644 41 40 44
0.44793642201327977 3.1969141887107915 2.2232258224269605 41 40 45
0.5617250955626911 3.4172877070530703 2.243671040506974 42 41 46
0.5732561255987725 3.465722858797009 2.247761712174858 45 44 48
0.5644877507559547 3.47987755545397 2.2485943143498734 47 47 49
0.5783454775352577 3.5327334422468972 2.2530964385547363 49 52 53
0.5727276792482485 3.552500416559351 2.2544572758114296 54 54 57
0.5884054422957006 3.6090039192287144 2.25929591367591 65 65 67
0.5941605700174912 3.6487061492216 2.2625385193890435 85 85 86
0.6587040972205302 3.790587806738422 2.2754410691615536 137 137 136
0.7484161751270952 3.977257236719085 2.292559879478007 188 188 186
0.8951197943665734 4.264808633897323 2.3191845736870347 200 200 198
0.7295837771725737 4.006853651128614 2.294285890033945 203 203 202
0.7024701488158391 3.990552468902896 2.2922146316582417 204 204 204
0.5690247858293414 3.7861980163209368 2.27242071324771 204 204 204
0.567671527916938 3.814482620522696 2.2745677855591846 204 204 204
0.5556981938838585 3.8240014615423066 2.274946043257151 204 204 204
0.5424515846788127 3.8312422755285964 2.2751100557887156 204 204 204
0.5468716870358308 3.870142359846371 2.278250714792666 204 204 204
0.640636630267561 4.070069194250137 2.296516005723377 204 204 204
0.6970088945392694 4.2038636945295345 2.3085488265585834 204 204 204
0.679409031576822 4.204444021464314 2.3080675831568973 204 204 204
0.7159918288090075 4.369662073816879 2.321939114672384 204 204 204
0.6959970734446832 4.3661543080373875 2.321070106609189 203 203 203
0.6725867131669154 4.356229374194493 2.3196026906937295 203 203 203
0.6428637360305574 4.3344416006819095 2.3170290971218805 202 202 201
0.6383503791241514 4.359344534804164 2.318820164483366 203 203 201
0.6146730669076794 4.348542677458364 2.3172769472675334 203 203 201
0.5848071058263398 4.325969917955046 2.314638368693511 203 202 201
0.5544874281508161 4.302291871121006 2.311900744106659 202 202 200
-0.5874920059301978 2.4363926236641964 2.1334543883987975 200 200 199
-0.5628775016770424 2.5116283171706097 2.1400089232159414 200 200 198
-0.5601373691213198 2.5440891261602214 2.1426013492260165 200 200 198
-0.5409370462244079 2.6094448385219944 2.1482299179124444 200 200 198
-0.48901639545066167 2.740512504818467 2.159918770501943 200 200 198
-0.4661860850645838 2.81428452525629 2.166306768871147 200 200 198
-0.44274572390280964 2.889793133728255 2.1728473113511226 199 199 197
-0.42809284358521293 2.948091499288144 2.1777941260110523 198 198 196
-0.40261671409647914 3.028707568418333 2.184790535325067 197 197 195
-0.23299519188826112 3.4030743921582483 2.2188146210821342 197 197 195
-0.2347640517366083 3.430342435670827 2.220870648873253 197 197 195
-0.25538328513794717 3.4191107971992523 2.2193856098843794 197 197 195
-0.27435010112907343 3.411119823031682 2.2182006002378323 196 196 194
-0.4821688576559797 3.0423361942025764 2.1834664594684425 196 196 194
-0.463815308697207 3.110264382934621 2.1892686697769532 195 195 195
-0.42806671804255436 3.21503216179586 2.1984400503400017 195 195 195
-0.41420360462425054 3.274623437950808 2.203463249386424 194 194 194
-0.3969806852628335 3.341699407239149 2.2091657504439786 193 193 193
-0.3705770017388603 3.4286643088256112 2.216680905392568 193 193 191
-0.34775407385780444 3.5086456693233297 2.2235489123264 194 194 192
-0.29254823172454825 3.6582597646517407 2.2367703491038875 193 193 191
-0.29235519470425286 3.691199980181123 2.239323710110629 192 192 192
-0.21025756522623285 3.900416829529073 2.257958709462993 192 192 191
-0.19618906191924101 3.9643972244817576 2.263327502048815 191 191 191
-0.20147316798454562 3.9868747967366556 2.2649079517776305 191 191 190
-0.21567802288873006 3.990045340929692 2.2647285248168108 192 191 189
4.6020439293122255 1.602687227946408 2.2410766394545782 178 178 180
4.509215379931641 1.5577286583740284 2.2346684920194253 178 178 180
4.420117303268105 1.5150199532621982 2.2285526967499543 178 178 180
4.334825735427138 1.474638832461562 2.2227377168603 178 178 180
4.307579815982576 1.4749218935651656 2.221916305737958 179 179 180
4.312367441461554 1.4978379334895007 2.2238657547554346 179 179 181
4.306156873839568 1.5130149129288122 2.2248663582496215 179 179 181
4.473167313718166 1.6718730239262536 2.2425240303985134 179 179 181
4.482832903086164 1.6989604197948465 2.2449523925527854 180 180 182
4.361416449997799 1.6317245486693854 2.235908034226287 180 180 182
4.328372433343155 1.6278465511487803 2.234580027751732 180 180 182
4.261059133086661 1.5990228798097277 2.230230154370441 180 180 182
4.206588546454359 1.5792824409933957 2.2269918933978974 180 180 182
4.21660882185952 1.606413034277491 2.229434633592307 181 181 183
4.1433933852636144 1.5727001775503329 2.2245177125228706 181 181 183
4.076967412398477 1.543684333882193 2.220180210148053 182 182 184
4.143840576644354 1.6126612089018781 2.2276724988654575 183 183 185
4.133775679846687 1.625125493037106 2.228340536495521 183 183 185
4.178379088994845 1.678161115292596 2.2338902672162804 184 184 186
4.0303558503388555 1.5880931495046564 2.2222274358147964 185 185 187
3.973622154505019 1.5655388940922104 2.218697932372515 185 185 187
3.917503385424148 1.5432286970005455 2.215206652905171 185 185 187
3.839384186520072 1.5041665757855334 2.2097174361851946 186 186 188
3.791921575108649 1.4878999467922205 2.2069692161935297 187 187 189
2.4568264760180116 1.0067800097056803 2.1278124409630346 199 199 201
2.418042252158406 0.9921519969580984 2.125461739332921 200 200 202
2.341847003217932 0.9459540032214342 2.1194712170398504 200 200 202
2.3013217514796236 0.9294481526281658 2.116919006974038 201 201 203
2.217106306986582 0.875848398350305 2.1100983635356445 201 201 203
2.1393711430830504 0.8273369838528835 2.1038783233526344 201 201 203
