ply
format ascii 1.0
element vertex 731
property float x
property float y
property float z
property uchar diffuse_red
property uchar diffuse_green
property uchar diffuse_blue
end_header
1.339237680865077 2.9137279474247206 1.0775378300544114 23 23 25
1.3377023820375071 2.8258089591675843 1.0750318339422187 25 25 27
1.3255532898824973 2.809728607757399 1.0764050184290683 27 27 29
1.3141938580140793 2.7887777427617406 1.0775043895701784 34 34 36
1.3071555088329165 2.740327522527234 1.077078991361209 43 42 44
1.3001078126135308 2.6928989749786516 1.076686910080766 38 36 39
1.29470770872174 2.6359945531683264 1.075744938645698 19 18 20
1.2884223668315211 2.5857437377687362 1.0751471597569904 22 21 24
1.2794462982138046 2.553111423601086 1.0755142853122939 29 29 31
1.2776782517369663 2.476946275854967 1.073410907322119 16 16 18
1.2487032099813964 2.567169704920244 1.0806971957895481 17 17 19
1.3022347486147876 2.1604403591960524 1.0597468592354065 17 17 19
1.2863701463568775 2.174006594117422 1.0626183503020297 17 17 19
1.2755865886643134 2.15735899958754 1.063763106598063 16 16 18
1.2574858523900927 2.183601984907194 1.0673751743681565 20 20 22
1.177428816878677 2.56669377246159 1.0916815097021197 21 21 23
1.1799453262978747 2.470603213433333 1.0882952936230699 48 48 50
1.1934477245520139 2.3141067546176877 1.0813291569493617 70 70 72
1.199923433274871 2.1998906640729188 1.0767664654989004 69 69 71
1.1958600472890457 2.146281192325725 1.0757210068577914 58 58 60
1.18738648018111 2.117875185597614 1.0761424394207688 49 49 51
1.1840846708270854 2.061740935551713 1.0749006843636957 41 41 43
1.1748752807973175 2.038488829157189 1.0755964632094082 37 36 41
1.1703833133273287 1.9903490732840219 1.074787789847687 37 36 41
1.14679693232447 2.0443260346652106 1.0801116635587933 38 37 42
1.1412496827734984 2.0024347955132575 1.079660786058264 39 38 43
1.1432632532862836 1.9218212329414686 1.0768350406317464 41 40 45
1.1325548074311813 1.9082959473347088 1.0780656163874212 42 41 46
1.128304374263052 1.861877763193691 1.077273379282166 41 40 45
1.1001529268537604 1.937575921404898 1.0839794053579097 38 37 42
1.1006080038391932 1.8679113997414316 1.081735760574775 36 35 40
1.0942137010118942 1.833569466350622 1.0816511272250247 34 33 38
1.081835947246717 1.8293751366965554 1.0834304231047223 31 30 35
1.0658423794759868 1.8429529520972665 1.0863221775979721 28 28 30
1.0653383404250354 1.7808521312768462 1.0844625197471252 23 23 25
1.059236025550872 1.7467542764176776 1.084340441257892 19 19 21
1.0493816877266735 1.7311343732005455 1.0853738613197865 23 22 25
1.0374604477934486 1.7255399486640597 1.0870390267370986 27 25 29
1.02728433370129 1.7117670856244338 1.08817972832193 18 16 20
1.0134170768872575 1.7154235082648133 1.090433816711619 16 14 18
0.9991666753029307 1.7207546173532986 1.0927992799474073 14 14 16
0.9704397597870501 1.792566325700591 1.0994728623093994 18 18 20
0.975100597415965 1.7107907002735083 1.0962023325671053 23 23 25
0.9617278920074177 1.7119278509831009 1.0983015040298845 17 17 19
0.9355858210335117 1.7704031932567186 1.1041601172943114 13 13 15
0.9215959550573783 1.773734944029432 1.106422997678452 18 18 20
0.9067640904387002 1.7807006571955395 1.1089291900041707 22 22 24
0.8928146491985295 1.7836418230139437 1.1111736463895796 19 19 21
0.876529143748138 1.7966832749119528 1.114093719461304 16 16 18
0.8586948993551934 1.816191964933503 1.1174545630769654 10 10 12
0.842418927785243 1.8286758490331114 1.1203557696834638 10 10 12
0.8360410275545567 1.798722037707177 1.1204055071390717 10 10 12
0.8494412137840126 1.6854293192733316 1.1148030284788883 10 10 12
0.8346207181486093 1.6923478086891313 1.117305993025391 10 10 12
0.8262230966978441 1.672325142313568 1.1179772517620825 11 11 13
0.818838494435286 1.6483516211389013 1.1183689199181788 12 12 14
0.8053373136719376 1.6498396039691257 1.1204988632501005 13 13 15
0.7955749098125335 1.6359960468951495 1.1215735149679966 13 13 15
0.7861071614847233 1.6211123318269731 1.1225702438481822 15 15 17
0.7786157348974844 1.5984372633392119 1.1230189068350727 15 15 17
0.772090839818881 1.5721717749047464 1.1232063982490788 14 14 16
0.7353401339273318 1.614105114617761 1.1301860677797428 13 13 15
0.7101380713343818 1.6613360771928443 1.135548811801025 13 13 15
0.6789630014574906 1.7311363141594012 1.1425374421593162 13 13 15
0.6626609624565274 1.7424681022545687 1.145406728057187 15 15 17
0.6367189113366742 1.7906261787735602 1.1509125925300094 25 24 28
0.6230524448861045 1.791284625949912 1.1530421628497534 47 46 51
0.5945952747696998 1.8479403425907444 1.1592012761132544 55 56 58
0.5701810723147474 1.8885963837315334 1.1642373099131031 44 42 43
0.5454660189033615 1.9298095634629442 1.1693371532387855 41 37 38
0.5199859484891279 1.973293003644892 1.1746258833716108 71 70 70
0.49788899086700583 2.003689362704819 1.1789842318283892 171 171 169
0.46740766847855597 2.0644107626997084 1.1855825575774186 169 169 167
0.4362576442948188 2.126757450372134 1.1923347845656367 169 169 167
1.7509868119276262 4.0065392581217685 1.0646412573907633 169 168 166
1.7289473578768841 4.070520815692546 1.0701506757574637 169 168 166
1.7147627960821108 4.048630014218788 1.0716262588357728 169 168 166
1.6957203036111996 4.078155171272311 1.0755410445573725 166 165 163
1.6858328085208194 4.0124469982007085 1.0749136093208929 143 143 140
1.6829811085215325 3.8776234917817467 1.0709290973391705 88 88 88
1.6812478196857445 3.735912882537334 1.0665455108718978 65 65 67
1.7050551569647705 3.3485172826215277 1.0501464414405133 52 50 56
1.6953310923894236 3.2963331477847326 1.0499376572365673 40 38 44
1.6810963566104307 3.288461022361436 1.0518811696921837 37 35 40
1.669882907839545 3.2524942563416115 1.0524351137821677 37 36 39
1.6255178074978427 3.522661616834346 1.0681661267148148 41 41 43
1.612563821997271 3.4998846124459817 1.0694222666318307 47 47 49
1.6334410494388063 3.175341296099206 1.0555395940137138 48 48 50
1.6269690671624493 3.1009260912005687 1.0540980144273975 43 43 45
1.6195003947736266 3.0371840340898295 1.053160959060311 41 41 43
1.570094956025387 3.3341755369011405 1.070552155271037 40 40 42
1.5858556070645076 3.072663567930224 1.0595299736061754 39 39 41
1.5803510002571741 2.9952910539126547 1.0578416795899919 38 37 41
1.5619304760981572 3.026031013377959 1.0617001317002412 47 46 50
1.5429826607583286 3.060143130060789 1.0657508407939016 55 54 58
1.525166422069485 3.0842222177085277 1.0692971727074574 37 37 40
1.5065271159491025 3.1140924734087054 1.0731609190348834 34 34 37
1.4913760722046783 3.115922069562997 1.075564634277649 33 33 35
1.4641540943122533 3.210529767637677 1.0828810320301456 33 33 37
1.4483254359862672 3.21609495710486 1.0855121871412177 45 45 48
1.4317004030946547 3.2274192448074066 1.0884555749434963 57 56 60
1.415647243131486 3.234146021196874 1.0911595868842716 58 58 60
1.4164536994394767 3.1171304310653367 1.0871937597797916 53 53 55
1.4071479462249292 3.076020685163939 1.0872837894158307 48 48 50
1.3943242737600952 3.0609660432280372 1.0887732610613075 46 46 48
1.3878707816155011 3.001158678053077 1.0878083289703124 44 44 46
1.3773318120911737 2.9712037710877373 1.0884552818627036 40 40 42
1.357003862245905 3.0094735565722464 1.0928559557763289 37 37 39
1.3463396157600194 2.9808117769247198 1.0935647346672641 33 33 35
1.336396706062469 2.9478484920570533 1.0940207342011887 31 31 33
1.336939839564204 2.8455209846300016 1.0905777811826258 28 28 30
1.3218087202561184 2.848888017161118 1.0930288812986881 26 26 28
1.3073083192118418 2.847992745962573 1.0952425063003461 23 23 25
1.2971933711677812 2.8187066938225955 1.0958458243051514 28 27 30
1.2887719581489394 2.7791477136394716 1.0958499631260548 38 36 39
1.2830044348041283 2.723565182806991 1.0949176028239553 34 32 35
1.2783854274086546 2.6618858607850044 1.0936074535075608 24 22 25
1.2734231529450164 2.6035428770439637 1.0924599194057403 28 28 30
1.2671429280032604 2.5544124453310104 1.091818659494854 23 23 25
1.2310565819954553 2.6871509375514853 1.1017579102944421 19 19 21
1.2076376284035082 2.741037898007232 1.1071493594363215 20 20 22
1.2852295701840584 2.192806298041278 1.0771510510978612 18 18 20
1.2764189589275352 2.1643221148124456 1.0775789277806336 19 19 21
1.2624676466927562 2.1663251308473277 1.079802753630593 15 15 17
1.2483877139207762 2.168975526306175 1.0820677257742315 15 15 17
1.1687013600781457 2.5468941277685486 1.1067994245869106 20 20 22
1.1790074564823605 2.407562391989977 1.100631598199735 32 32 34
1.1860448127628966 2.289149454463082 1.0956560681307264 64 64 66
1.1886260386306875 2.1976750831653056 1.0922541084048472 68 68 69
1.1824367026923779 2.156164496845853 1.0918489134181506 57 56 59
1.180129271252309 2.0941702346495377 1.090170857068499 50 50 53
1.1786528078758138 2.0287567733326024 1.0882520249307819 41 40 45
1.1675979659437359 2.0158181472500387 1.0895373418128855 39 38 43
1.1621787173141835 1.9731200047862119 1.088974042947816 39 38 43
1.1525312608800249 1.9533922571186724 1.0898188012592849 41 40 45
1.136967481153877 1.964838418433044 1.092602028338927 42 41 46
1.1353420132829686 1.903927020057397 1.090854027004439 43 42 47
1.1312278363052428 1.8567855449547475 1.0899429974908585 41 40 45
1.1186719708033315 1.8533262777612531 1.0917716654857035 38 37 42
1.093631361437609 1.9128116566688718 1.097597732598421 36 35 40
1.1042900893574166 1.7928094123082838 1.0920098565684213 34 33 38
1.0719127471465686 1.8880701042452843 1.1001451530364308 31 30 35
1.0701640103272863 1.8311605923612597 1.0985475830958564 29 29 31
1.0664180505404057 1.7848808616937242 1.0976078825225004 23 23 25
1.0573222933199227 1.7651763295805059 1.0983680626126386 17 17 19
1.0520528523033843 1.7274014728325429 1.0979431992187352 28 27 30
1.041831549212803 1.713742775093345 1.099075942491792 26 24 29
1.0313713883245024 1.7013853982473046 1.1002883501136707 31 29 34
1.0164803013082737 1.709916966691641 1.1028718483096975 25 24 29
1.002158810299185 1.7156245018648457 1.1052745379159006 24 23 25
0.973809740631141 1.7858139698964488 1.1119637439611032 37 36 39
0.9614349187255 1.7818552023757825 1.1137480107213138 42 41 45
0.9485401180295709 1.7802719973820078 1.1156906897546544 31 30 34
0.9354528796457381 1.7795355587131656 1.1176909316648684 19 17 22
0.9220390163929153 1.7802256636267606 1.1197885247631212 26 25 28
0.9073758831711236 1.7863986354472592 1.1222593398483598 22 21 24
0.8929368855194233 1.7914499456975348 1.1246586652936754 18 18 20
0.8781830922121285 1.7977572493438458 1.12714791373837 16 16 18
0.8603735963573156 1.8171681996576723 1.1305399693184297 11 11 13
0.8459551577587692 1.8216659677600961 1.1329179443381852 10 10 12
0.8366398129789967 1.8042697036155424 1.133787861341148 10 10 12
0.8481935034632533 1.6986415295228288 1.1285333810083982 9 9 11
0.833507470353837 1.7049025539706488 1.1310106287508832 10 10 12
0.8251370719653032 1.684652263682359 1.1316406910951398 10 10 12
0.8182542592277817 1.6584822151483216 1.1318463261766865 12 12 14
0.8084127685938154 1.644827214194588 1.1329204390349212 14 14 16
0.7987768686508268 1.6304850110706943 1.133940192179163 13 13 15
0.7871862972597061 1.624240683067602 1.135528121815181 12 12 14
0.7840189943261099 1.5840854939818292 1.1346999512955815 15 15 17
0.7696790411347159 1.5891795072012633 1.1370853576656617 14 14 16
0.7455029808510578 1.6332739153604878 1.1422724767004862 14 14 16
0.7038897835277736 1.7455825755866132 1.1523960386999088 13 13 15
0.7069895483424127 1.68096263635211 1.1497953746534473 13 13 15
0.6831866269121878 1.7219757440645032 1.1548236294292509 13 13 15
0.6641352669044693 1.7440145929389135 1.1584940460416284 16 15 18
0.6371939103102766 1.7960450921532953 1.164369423464291 27 26 29
0.6212527345564043 1.8053496518602448 1.1671407296652612 34 34 38
0.5950660790445881 1.853350567463045 1.172767092659446 58 59 61
0.5712715947313851 1.8916704315716903 1.1777056356261415 43 42 43
0.5473348559330542 1.9299847405722321 1.18266600105669 45 43 44
0.5306585755037723 1.9407637778251108 1.1855994181034069 72 71 70
0.4999770346100622 2.003112715070907 1.1923920570853437 171 171 170
0.46951130096594046 2.0638316873621254 1.1990978094600937 169 169 168
0.4390411193407277 2.1237543922231867 1.2057781121076576 169 169 168
1.7508254912793682 4.036087740316507 1.0822408283496943 169 168 166
1.7304758927845096 4.081378200606339 1.0869564473728204 169 168 166
1.7164689804113085 4.057337977889864 1.0882999805666016 169 168 166
1.6998099290338065 4.061797415902027 1.0910366277350834 164 163 161
1.6889101437012464 4.006619006910252 1.090825595586007 138 138 136
1.6837725588972496 3.8947156803126326 1.0877667880489217 84 84 84
1.6830908965659912 3.741874915679507 1.0826066699287562 66 66 68
1.7073965282151642 3.348528832404045 1.0652861303809724 52 50 55
1.697485267921567 3.298019052070501 1.0650826740946906 42 39 46
1.6831409954804928 3.2911367958591993 1.0670696574392218 37 35 39
1.6714632571366548 3.259386494730126 1.0677864146027782 37 35 38
1.628001334525744 3.5217367572890326 1.0835639721479606 40 40 42
1.615139457866222 3.4980772218048846 1.0847430819260984 47 47 49
1.6355360246740394 3.177128618179865 1.0705229523212367 48 48 50
1.6273627596593725 3.117534200117845 1.069737025417856 43 43 45
1.621373079300246 3.0405402162621407 1.06801306515855 41 41 43
1.5700814340671112 3.354300882799811 1.086775869432374 39 39 41
1.5892341074383225 3.0632487518350358 1.0737786278368406 38 38 40
1.5835272068693125 2.987525043994013 1.0720545869400806 38 37 41
1.5650901686734446 3.018563048364478 1.0759826223949116 42 41 46
1.546171478622436 3.0526014132523285 1.080088709747425 56 55 60
1.5286490543569589 3.0744667192760176 1.0835589069354037 38 38 42
1.510086494298479 3.1039097043039523 1.0874514516356255 35 35 37
1.4945782700119863 3.1086574673144707 1.0900195952795504 33 33 35
1.478370038146793 3.11860058433291 1.0928752710821084 34 34 36
1.4511686066597773 3.2119255305590912 1.1003082036023417 45 45 47
1.436155416256633 3.2111948935311583 1.1026108447500524 57 57 59
1.421060092871993 3.211011706123505 1.104945081956278 58 58 58
1.4159678970713507 3.137343948709228 1.1031965638219814 52 52 53
1.408792682640503 3.080464146725983 1.1023494143939123 45 45 47
1.3945534560433988 3.07546695983526 1.1043850563938729 41 41 43
1.3851902591867473 3.0359828105118583 1.1044764873825546 39 39 41
1.3789323435484548 2.975603255817952 1.1033665329412177 37 37 39
1.3530393569815966 3.052388017968009 1.1100267318130612 36 36 38
1.3425104194387214 3.0222602564967658 1.1106212672223779 36 36 38
1.3613900746329584 2.7938178075423923 1.0998234438270078 35 35 37
1.3369067184549568 2.8604228039041812 1.1059143551038528 33 33 35
1.3189796353091165 2.8821232143152 1.1094416140159304 30 30 32
1.302004674375918 2.897052571201217 1.1125879626336563 26 26 28
1.2937647123046319 2.85504951022677 1.1124184508178763 22 21 24
1.2823608382217535 2.8341355409741524 1.1134660882695253 23 21 24
1.2771551008484154 2.7743207330478543 1.1122124494632635 24 22 25
1.2747759239583822 2.6979656914150985 1.1099506896043654 28 26 29
1.2715927677754033 2.628114429633241 1.1080376619383916 29 29 31
1.2694349691520646 2.553332975799645 1.1057957918009196 29 29 31
1.2251652683298746 2.736029765656335 1.118954301596656 25 25 27
1.2009754863762137 2.7941403739296113 1.1247070373500039 20 20 22
1.275455871761694 2.1819007647861124 1.0920653189872251 19 19 21
1.2634667374148023 2.172267553103792 1.0935923568094543 17 17 19
1.2528852920506357 2.1546200505900392 1.0946250149905532 17 17 19
1.1578644271983236 2.6210720714150484 1.1254287518965256 17 17 19
1.168390562002131 2.4795849579742755 1.1189220174200922 20 20 22
1.1791530005773563 2.3393820888870827 1.1124228897204143 25 25 26
1.1794744479174533 2.259892093760503 1.109634386433505 59 59 60
1.1790821659027153 2.1857592578090794 1.1071411175441348 67 67 69
1.1749524715810056 2.1333664350773014 1.1059763459983838 58 57 61
1.1729602541348216 2.070297541315718 1.1041123341953045 48 47 52
1.168165532534969 2.0233596310502056 1.1032386136162724 42 41 46
1.1530012594363568 2.032372929577533 1.1059003873593043 40 39 44
1.159204141656046 1.928522187381632 1.101360661444177 43 42 47
1.1482161940425197 1.9162870827841403 1.1026428212163562 44 43 48
1.1369208256830565 1.9058084507420254 1.1040331625643827 43 42 47
1.1339099901765537 1.8529216416863572 1.1026778913049873 40 39 44
1.1168792442059718 1.8722678726098636 1.1059850636716053 38 37 42
1.0811682590981309 1.9855167757988847 1.1154238515023909 37 36 41
1.098345594946641 1.8321247884739589 1.10747568241059 34 33 38
1.0747015889619198 1.8838307904371339 1.112923137533632 30 29 34
1.075041727408804 1.816605307701272 1.1105542844374054 28 28 30
1.0683998848303067 1.7845189340743435 1.1104786410595406 23 23 25
1.0630106928751504 1.7468513707262703 1.1100164843688096 18 18 20
1.0571821565509676 1.7118619396223798 1.1097147180426834 22 21 24
1.0500283637697407 1.6837042783347282 1.109853808790221 36 34 37
1.0351795880033616 1.6922985602358005 1.1124522279354645 52 51 54
1.0209219215493108 1.697941419033464 1.1148573097058383 46 46 47
1.0068795760288989 1.702449607140507 1.1171899129802787 28 27 26
0.9725897034110574 1.800215326985875 1.1258749146788851 27 26 27
0.9581609466950551 1.8055339565645676 1.1282953535623363 28 26 28
0.9453476677100304 1.8033917357918066 1.1302082625432668 25 23 27
0.9367027601580316 1.7824603681501994 1.1308275193991273 32 29 34
0.9212883856528953 1.7920688163960465 1.1335485763202606 42 40 44
0.9069438106209238 1.7967419166254097 1.1359337223582335 30 28 31
0.8924572810068039 1.8019266114885921 1.1383585045588402 19 19 21
0.8741187524140704 1.823824028499303 1.1419563460486821 20 20 22
0.8601199303800753 1.826529734486137 1.1442201001796417 11 11 13
0.8428955365611309 1.8430402704647642 1.147459599912094 10 10 12
0.8433845601397447 1.7835649634433097 1.1453346781796303 9 9 11
0.837107054025551 1.697635956830706 1.1433475080310163 9 9 11
0.8240470797610422 1.6970228447708815 1.1453513496807897 10 10 12
0.817155975869556 1.6707690194610016 1.1455153029008234 13 13 15
0.8098441774853293 1.64658285852019 1.145815722397949 15 15 17
0.7979516488991512 1.6414465503407085 1.1474827128362872 13 13 15
0.7858435976485263 1.6372190080442832 1.1492144299688027 13 13 15
0.7790697310083794 1.611485145388165 1.149378119640073 17 17 19
0.7637326673046532 1.6203870096931976 1.1520628455455864 15 15 17
0.7433316748428564 1.649281613423995 1.156221548124886 14 14 16
0.7077101012912888 1.7379030935551318 1.1647979859355924 13 13 15
0.7088404869353715 1.6810019235529479 1.1626623067601858 13 13 15
0.6843840938985073 1.724598705866732 1.167956337200127 13 13 15
0.6660465161623694 1.743873340653213 1.1714636687511204 18 16 19
0.6369361246555534 1.804294706570594 1.178058963446485 30 30 32
0.6222144170237817 1.8088900618595494 1.1804999058199146 33 34 36
0.5970339376537646 1.853089361263871 1.185926965214121 59 60 62
0.5732482150446957 1.891410062245249 1.1909352309648458 47 47 48
0.549522195884061 1.9289685220547406 1.1959079781876347 46 46 45
0.5328464388242783 1.939759013607476 1.1988653388768686 77 77 75
0.5070740331783299 1.9840128917489963 1.204386057568624 172 172 172
0.4703105311910547 2.068045978679003 1.2129814692486174 169 169 169
0.43897997914129144 2.131132956861811 1.2200128407074688 169 169 169
1.7588200032509331 3.9754646175586084 1.0954209978013991 169 168 166
1.732424872186268 4.087725625163466 1.1035737216216752 169 168 166
1.718335200178363 4.064387163187776 1.1049214119327604 168 167 165
1.7018299574042572 4.067113190004719 1.1075849541621303 160 160 158
1.6912212824028139 4.008685041635773 1.1071255697769424 115 115 113
1.6852457876596207 3.9049704049489353 1.104312131807848 85 85 84
1.683576522998536 3.761446436087561 1.0993930749103764 66 66 67
1.713387350267164 3.3126346052692064 1.0785664067992768 52 50 55
1.7011227613177264 3.2853518660021015 1.0794881359191428 41 39 45
1.6855059084822646 3.290776297700804 1.0821109689722952 37 35 39
1.6442672975558463 3.5364980614799726 1.0973860093001777 37 35 38
1.630674189365946 3.519061401795522 1.0988694683902762 40 40 42
1.6191368470040715 3.483313638442989 1.09937274499586 47 47 49
1.6073777069374633 3.450505003894654 1.100016539287374 48 48 50
1.5964424796812136 3.4112576330888533 1.1002999680390824 43 43 45
1.587726469402386 3.3536792357810357 1.0995770924907489 41 41 43
1.5756625706843237 3.3264122381996595 1.1004681990446008 39 39 41
1.592606358516723 3.0538509216396394 1.0880005734368212 38 38 40
1.5519833247255188 3.270093232216304 1.1021162949520267 38 37 41
1.56748438236695 3.0173832355989685 1.0905891486111947 41 40 45
1.549686879479819 3.0423744955462033 1.0942568809930924 57 56 61
1.5318047506487114 3.067301905542085 1.0979354618597714 40 40 44
1.5135190742762612 3.094695548486133 1.1017657447532176 36 36 38
1.4979782900548353 3.0998200083071685 1.104365932216148 33 33 35
1.483358657501603 3.0976144897472646 1.1065584847271595 33 33 35
1.4545280258100335 3.2038051819617777 1.1148707021149156 43 43 45
1.4399435922729509 3.199937536568493 1.1169978129301064 56 56 58
1.424972049961228 3.198965119564554 1.1192895495023425 58 58 58
1.4181594957870742 3.1379506866713456 1.1181468701781259 51 51 51
1.409081313649731 3.0947779120204677 1.1180000512848467 42 42 44
1.3953175522751082 3.0861837451567116 1.1198290786266574 37 37 39
1.382124098333053 3.073669234574103 1.1214280209628196 36 36 38
1.378345091733355 2.9953609138045914 1.1191898980513593 35 35 37
1.3754434528941832 2.912693860352251 1.116658150430217 35 35 37
1.3449470158138843 3.0209184678318093 1.12530264688957 36 36 38
1.348685045083187 2.8946898450908605 1.1201672414801234 35 35 37
1.3327231421758297 2.9031857440587108 1.1229545225550837 34 34 36
1.3147618220827246 2.924673413780795 1.1265213017791798 31 31 33
1.3023329390385285 2.909362955282367 1.1279005367141608 29 29 31
1.289127721401202 2.8993469353546573 1.1295914553549151 25 24 26
1.27925263369149 2.868115778951516 1.1299993541044808 19 17 20
1.2721029489235582 2.820180079754023 1.1293809641367667 23 21 24
1.2674385893147606 2.7575725488573424 1.1278469397058117 17 15 18
1.2670630953076332 2.669541085770896 1.124729034645797 17 17 19
1.263791137514324 2.6010690753827985 1.1227670119498365 21 21 23
1.2862783098665143 2.3770840766464807 1.1111905357780594 26 26 28
1.251248042423388 2.504232690154016 1.1212224605766274 28 28 30
1.201993317155461 2.713665794724398 1.1364340050683104 26 26 28
1.1824652537980043 2.7432624436284665 1.1405368618545861 23 23 25
1.1880814560392596 2.6251125250715597 1.1354010453736156 22 22 24
1.1855003109374436 2.556688131114199 1.1333333771441054 22 22 24
1.1803353378740278 2.5043464579599504 1.1322475586088006 20 20 22
1.1542594923369456 2.571784586905434 1.1387334060847956 25 25 27
1.1739833713503587 2.380062331307928 1.1287504627988827 22 22 25
1.173802418396121 2.302878903211809 1.125993730799103 24 24 27
1.1730752494640297 2.230091402484196 1.1234804991314837 59 59 61
1.1725710157388878 2.157369504064209 1.1209349866860632 64 64 66
1.172332648117128 2.0844799411512254 1.1183421048011781 55 54 59
1.1671835317010801 2.039252092038036 1.117510495748403 48 47 52
1.1641786324943877 1.9833631735573432 1.115960978286431 44 43 48
1.161975263803276 1.9241871502261787 1.1141682878627321 45 44 49
1.1512789983050151 1.9104445966328056 1.1153348172881585 45 44 49
1.1413598492536963 1.8928622193321336 1.116242025449635 43 42 47
1.1308197667659516 1.8787284063512932 1.117370164453981 40 39 44
1.118340126818568 1.8746753013264223 1.1191634643793582 38 37 42
1.0984979742182839 1.9078488305478276 1.1234441931753592 37 36 41
1.1000354927972773 1.833287066765969 1.1205149748777783 35 34 39
1.0804616111977285 1.8648214726541141 1.1246948687718012 32 31 35
1.0808259267738565 1.7975507217622146 1.1222110524089228 29 29 31
1.0746427911897738 1.7633392382337036 1.1219376282881215 25 25 27
1.0689128975208932 1.7274486597620777 1.1215331795468109 18 18 20
1.066302758359543 1.6771055872721525 1.1201224095756013 21 20 24
1.059231736812401 1.6487990509257093 1.120200033825928 30 28 32
1.038968379602561 1.6832842756368243 1.1245935519829544 78 77 78
1.0258912368931334 1.683464885051869 1.1266324702407011 81 81 80
1.0112904232040496 1.6906886670350967 1.1291623165583249 54 52 50
0.9766956973002641 1.7900620978089479 1.138124394795903 29 27 27
0.96349572265476 1.7898342367418205 1.1401676651216073 28 26 28
0.9497795038904802 1.7919122318246634 1.1423743658091607 42 40 41
0.9360964123229871 1.7937650040966846 1.144567791725367 46 44 45
0.9224136993701764 1.795544212593808 1.1467585045443143 48 46 48
0.9063456870083328 1.8078470227658259 1.1496996339147492 34 32 35
0.8911881425191188 1.8159077768394059 1.152346204084647 25 25 27
0.87456408478197 1.8302202388437263 1.155446262235518 15 15 17
0.8568927390581143 1.8488240634611492 1.1588639226968456 11 11 13
0.8419840499975486 1.8552032964459144 1.1614111457086713 10 10 12
0.8436079005184779 1.79071808398407 1.1588320820354934 9 9 11
0.8338596183283007 1.7192231950477062 1.1577675175178317 9 9 11
0.8220866979934403 1.7130635136314032 1.1593749742891815 11 11 13
0.8236800386446581 1.6514071772503702 1.1569027210180607 12 12 14
0.8139034577954587 1.6375011621697504 1.1579204185656475 14 14 16
0.8020943740532673 1.632079124748213 1.1595601106523394 21 21 23
0.7905554942945162 1.6255949057003596 1.1611194840520125 14 14 16
0.7749796076430879 1.635469881248079 1.1638965303504323 16 16 18
0.7609473261747288 1.638976796568373 1.1662039092144054 15 15 17
0.7395065670077776 1.6719103488120757 1.1707244289874204 14 14 16
0.7114215944917014 1.7306409743183155 1.1772083522236372 13 13 15
0.7002645253950655 1.7220148719278625 1.1786311047199902 13 13 15
0.6864039621085744 1.7240185512255273 1.1808575575176123 13 13 15
0.6522644704743227 1.8045687986971477 1.1890697256877176 18 16 19
0.639759462837366 1.8006972968179462 1.1908735205891992 32 32 34
0.6225574187106283 1.8148050297928202 1.194056020443222 34 35 37
0.6040964011034864 1.8334717333510275 1.1975986775552887 57 58 60
0.5825425966800679 1.8635290964345763 1.2020329906358223 61 61 63
0.5598590347935346 1.897392073276092 1.2067801968281644 51 51 50
0.5350344695615096 1.9387533610808136 1.2121306964658909 83 83 81
0.5094068333116288 1.9825146976510557 1.2176926026165353 172 172 172
0.4828018487192397 2.029270086205263 1.2235144330528807 169 169 169
0.453455237139338 2.0854083340459506 1.2301009000468655 169 169 169
1.7616571910743835 3.971795603761422 1.1113543140937219 169 168 166
1.7426153404771973 4.0041828688649606 1.1155419940392974 169 168 166
1.7304121347734478 3.9619953753308197 1.1158521552474114 168 167 165
1.703881862901707 4.072126806037768 1.124138094164872 154 153 151
1.6891195563744583 4.056495007164095 1.1258483205907002 104 104 102
1.6863457706873404 3.9190868193248365 1.121098818188387 83 83 82
1.686055301718988 3.7611402662146207 1.115187967387676 64 64 66
1.7147944849050503 3.3217825455295316 1.0941429308275616 51 49 54
1.7034920757048777 3.2849399404278774 1.0945143181226389 40 37 44
1.6875462996053148 3.293520426582525 1.0973219427482237 37 35 39
1.645917745718732 3.543444388184002 1.1132314353703836 36 34 37
1.6331203452413772 3.5184795185116964 1.1142836193372876 40 40 42
1.6223733556950195 3.475434548395888 1.114334593817743 47 47 49
1.6111425835662607 3.437906751003947 1.1146689830540615 48 48 50
1.599674626039475 3.4034711805016924 1.1151569280260016 44 44 46
1.5895287151865398 3.3583684796231172 1.1150366693331941 40 40 42
1.5791514266003963 3.3164363585705434 1.1150720163063657 37 37 39
1.5677427967616997 3.284341213765685 1.1156389756227685 38 38 40
1.587560539010531 2.9913421366091524 1.101502860238707 38 37 42
1.5705443279420914 3.010698846118652 1.104883605915658 39 38 43
1.5534524904366003 3.030068830936286 1.1082766334038843 55 54 59
1.5350620962698387 3.0592938930980482 1.1122435830551485 40 40 44
1.5188075696697176 3.070705751096487 1.1152060752020172 35 35 37
1.502032948559366 3.0858183894790767 1.1183891434146718 33 33 35
1.4881150891157668 3.0783482548400425 1.120275593602363 31 31 33
1.4587465242852558 3.189090618609858 1.1290267242795735 39 39 41
1.4431725031203007 3.192863227474739 1.1315951332350742 52 52 54
1.4282124880024019 3.1918842360510142 1.1338887104457662 58 58 58
1.420091705371152 3.140473767530761 1.133215110745886 51 51 52
1.410226386665075 3.1029147199480844 1.133335609077864 40 40 42
1.396547927329368 3.093589564862712 1.1351148130725752 35 35 37
1.3659329688695188 3.20476245219143 1.1440763437699997 33 33 35
1.34235667281028 3.2638388443335713 1.1499768428951298 33 33 35
1.3388221951751023 3.182331395568729 1.1474538364928826 33 33 35
1.3400438851228944 3.06995554109448 1.143025871786833 34 34 36
1.3500511439107603 2.900408259956174 1.1350733660784678 35 35 37
1.3239695556051998 2.976765386442689 1.142015793041972 34 34 36
1.3079979754365716 2.9842662550594716 1.1447867255259938 34 34 36
1.2919696844362911 2.9919055810025474 1.1475717136818384 33 33 35
1.2806686313148403 2.968611494175569 1.148453798858578 36 35 37
1.2697033272669205 2.9435893286738706 1.1492184153723664 24 22 25
1.2631127757523908 2.891219967794302 1.1482702744306879 18 16 19
1.2471421084336893 2.8988819694466743 1.1510471409709933 16 14 17
1.2351804154526245 2.8813638428630366 1.1522499507796646 14 14 16
1.2583631876573964 2.647624155504962 1.1398242733348483 13 13 15
1.2911146906527928 2.3602291523979955 1.1238846438104677 13 13 15
1.2028638227058455 2.7213390936797697 1.151249811758262 15 15 17
1.1877186655542469 2.7249650225614754 1.1537458803634901 18 18 20
1.234031322371065 2.3683797358622196 1.1330845355062038 21 21 23
1.2168744493229 2.386916839904921 1.1364562867365995 22 22 24
1.1809290568305315 2.512998879649313 1.1468104188901955 23 23 25
1.1762538470078538 2.458649998110758 1.1454892560987098 23 23 25
1.1686057893031354 2.4220309821484984 1.1452997942514132 26 26 29
1.1691355520851867 2.3403738135718006 1.142138008239452 26 25 30
1.1684568298721094 2.2668655994717213 1.1394717756833934 31 31 34
1.1671160090559578 2.198287413293401 1.137094595239566 63 63 63
1.16604326421213 2.1294533401518656 1.1346660041073102 57 56 60
1.162763419557646 2.0736930067731514 1.1330742438680435 53 52 57
1.1596977568451305 2.017740775558996 1.1314418816408651 50 49 54
1.153760832597603 1.9779124016112295 1.1308648331551177 50 49 54
1.1531742999464438 1.9107059428274091 1.1284218758039952 48 47 52
1.1422217953607485 1.8984614305775842 1.129666338523621 45 44 49
1.1314890675824003 1.8852489426093948 1.1308400620959789 41 40 45
1.1202502485259034 1.8747982131563556 1.1321967701545512 38 37 42
1.0916958823241272 1.9520901219327689 1.1395596605921252 37 36 41
1.0923126224840496 1.8816755023132334 1.136808277073282 38 37 42
1.0860516735524104 1.8466130420166698 1.1364614263326522 39 38 43
1.086718653713381 1.7779165045862138 1.1337670045308899 32 32 34
1.07882613611939 1.7521853052514962 1.1340262001807773 27 27 29
1.0750255386151677 1.7069806635259734 1.1329136144905232 19 19 21
1.0714872196686316 1.6612081943001855 1.1317387580909295 19 18 21
1.0659168192397284 1.625832438781359 1.1312725183873606 25 23 28
1.0425366893114654 1.6752946847290104 1.136779912888484 35 33 38
1.0092953366621995 1.7702300138200606 1.1455382756443102 57 56 61
0.9958759657049464 1.7712648119450671 1.1476677880830168 76 74 76
0.9818657287080239 1.7749696957288146 1.1499900344067686 88 86 90
0.9692949490810443 1.7719711588730684 1.1518352565316057 84 82 87
0.9558966659201995 1.7727405215524166 1.1539514744172763 77 75 77
0.9397165008187645 1.786014367029657 1.1569725972067122 57 56 55
0.9239253840530747 1.7972980207201923 1.1598580641114344 43 41 43
0.9067381077014556 1.8145740410308302 1.1631869966595565 34 32 35
0.8927100715921564 1.8176053738935234 1.165486616424623 23 23 25
0.8715637961531149 1.8517215250584615 1.1700673225600855 11 11 13
0.8552704563756892 1.8641916825035358 1.1730757691277582 10 10 12
0.8379221680936395 1.8809858721742707 1.1764116147283534 10 10 12
0.8391407998635094 1.8179753141734687 1.1738456717552428 9 9 11
0.8565746894796222 1.6869095136864716 1.1661873549083956 9 9 11
0.8417483182569532 1.693858172132843 1.1687590613278156 9 9 11
0.8254602195831495 1.7067903451269806 1.1717841138472864 10 10 12
0.835059061725149 1.6118119750167748 1.1667071953400667 11 11 13
0.8124950298842718 1.6509851912733733 1.1716994616631133 12 12 14
0.7969693227706097 1.660700550396679 1.1744844428840515 14 14 16
0.782460727288981 1.6660980219822314 1.1769481510730178 11 11 13
0.7701502400887859 1.6624926869584704 1.1787299423230087 14 14 16
0.7612109765605664 1.6453617131240337 1.179476512712057 17 17 19
0.7424676441447424 1.6675238250712332 1.1832321026460193 14 14 16
0.7156986674725476 1.7211266118252326 1.1894235551153092 14 14 16
0.6995830920633209 1.7320570981869363 1.1923462488987302 13 13 15
0.6698376768884335 1.7960462248064215 1.1993930402860562 13 13 15
0.6548643908569735 1.8018154442839895 1.2019431571588828 17 15 18
0.6406801262090223 1.804427952234195 1.2042513207326093 31 30 32
0.6250185080696244 1.8126235139625972 1.2070001634420775 36 37 39
0.6053440180918228 1.8359339700883015 1.2109441141527353 67 67 69
0.5866531629283674 1.8551833438659613 1.2145816909221374 73 73 75
0.5624120775872854 1.8949748121669114 1.2198585252995509 59 59 58
0.5379048480356767 1.9352030354275576 1.225193289891367 100 100 98
0.5117392882125795 1.9810166414903834 1.2309970142916578 171 171 171
0.48524976977247364 2.027395459123806 1.2368725193718648 169 169 169
0.4528843402917064 2.0946334645410967 1.244449974593259 169 169 169
1.7792228831443602 3.983184098696696 1.1255714208164054 169 167 168
1.7606508785038946 4.010925701190258 1.1295627008391786 169 167 168
1.745455554145275 4.000611919422489 1.1315296728182016 169 167 168
1.7332346896323476 3.9585535498377964 1.1317834008444623 166 164 165
1.7059844755325049 4.076636873962179 1.1406836835440428 146 144 145
1.6905496739604569 4.06786671163749 1.142748773152309 102 100 101
1.6880761634212669 3.926840163484437 1.1375872011742465 82 82 78
1.6881061299333378 3.7651388217541593 1.1312213992154874 63 65 64
1.7138173347715076 3.3545590740328377 1.1110549949964974 50 49 55
1.706965762727894 3.273782435984253 1.1089471977389205 38 37 42
1.6899619981709573 3.292686726585444 1.1123459534424813 36 35 39
1.647647690372048 3.5496784654185776 1.1290629261183658 36 36 38
1.6352020693960427 3.5212854182295557 1.129889325375758 39 38 43
1.623933465933081 3.482866361322958 1.130137526664567 46 45 50
1.6116366213441164 3.454750469964857 1.1309515979032838 49 48 53
1.598820281280178 3.431969262607384 1.1320566463595458 45 44 48
1.593044357503402 3.348074394824156 1.1296582228063294 41 41 43
1.5829693732196095 3.303579552541295 1.1294810305720049 39 39 41
1.5750178357045665 3.2421502730597793 1.1283060897184058 39 39 41
1.5615707624468844 3.228472204011039 1.12986773096281 39 38 43
1.5736856038473124 3.0033168588963064 1.1191187143092176 40 39 44
1.557982737079246 3.0114671662070913 1.1218912909784582 57 56 61
1.540838460128882 3.03094162411874 1.1253344169060941 44 44 48
1.521632699992736 3.066231270770233 1.1297215862365957 35 35 37
1.503447729351242 3.0925062268897827 1.1335947361161032 32 32 34
1.4885690776719562 3.092382770133249 1.135913134913692 30 30 32
1.4614815848561715 3.185684582480601 1.1438131363923651 36 34 37
1.4467084858689785 3.183443329604306 1.146031742088503 50 48 51
1.4309877397886228 3.1882555310013276 1.1486757937643368 60 58 61
1.4219970281584482 3.143208107401227 1.1483075578715016 53 51 54
1.4152902011753947 3.0825153155604923 1.146967231795679 38 39 41
1.399515800837169 3.0885090891964904 1.1496661429498578 35 36 38
1.3714428515948396 3.1818375991110566 1.157721070648646 32 33 35
1.3461200561897828 3.253567566505848 1.164496911454636 31 32 34
1.3392126820940295 3.195490056585909 1.163290782016621 32 32 34
1.3409918070767648 3.078933343996503 1.1584277860132972 33 33 35
1.34637703688951 2.9404141960936325 1.1521377339434198 34 34 36
1.3226046453205653 3.0009244191119686 1.1582301136757462 34 34 36
1.3118155417775927 2.97371127004519 1.1588442685353442 34 34 36
1.2945371191021193 2.989693801667536 1.1621709730145178 34 34 36
1.2837866704502818 2.9627994243486575 1.1627916321029703 34 34 36
1.2778577053273072 2.9053860050763327 1.1614588516027247 24 24 26
1.2725140915330968 2.8453948403236926 1.159933265112139 17 17 19
1.2598266214339329 2.8328613090683015 1.1614213213179543 13 13 15
1.2298986716144635 2.928005980814136 1.1698373470880303 11 11 13
1.1979139090083086 3.0338170311354427 1.1789941394238612 10 10 12
1.180696637171528 3.047215431030079 1.1822096389706698 11 11 13
1.161931351231666 3.0696360845381787 1.1860217799818291 11 10 13
1.2083586559354587 2.7013610577723917 1.1642848341651737 11 10 15
1.1927057948968895 2.7081944015766894 1.1669977949441817 10 9 14
1.166572987895464 2.7763228076420026 1.1737584357650341 10 9 14
1.2118748609296164 2.4280028086010996 1.1529822277434172 10 10 12
1.1902670513960714 2.471361580495771 1.1580618986631914 13 13 15
1.1723781376335667 2.492637911263804 1.1616921806856046 16 16 18
1.1629948757060904 2.4654367541602693 1.1620872894747976 13 13 15
1.1604118823333713 2.4006612751381735 1.1599424318772071 12 12 14
1.162291787291793 2.312311443040373 1.1561733217873509 16 16 18
1.163677650019005 2.228249797678791 1.1526500466135443 40 41 43
1.1635658410415863 2.153818497808155 1.149739473646568 67 66 71
1.16048937779829 2.0966625047405634 1.1479714106187455 59 58 63
1.158875019066802 2.032674720967739 1.1457062906365871 55 54 58
1.1523117735357937 1.9959720338484952 1.1452872846215345 52 52 54
1.1481270286873557 1.9473908136235445 1.1440295968710594 52 52 54
1.1322804242589661 1.960253074860089 1.1470099799375182 48 47 52
1.0856958076398604 2.1312808772146674 1.1610120374418988 40 39 45
1.101857159560443 1.9786716895802656 1.1524850432060147 38 37 42
1.1001225828665393 1.919293865792666 1.150420044782591 37 36 41
1.0982993826662926 1.8613233246912575 1.1484242453361255 39 38 43
1.0932505680642408 1.8203491806525516 1.147600731996259 46 45 50
1.0890850719527552 1.7756519794440702 1.146492830926996 40 39 44
1.0830801932189758 1.7406601313632437 1.1460539398711016 35 34 38
1.0765224208237674 1.7088852158914776 1.1458279314406439 26 25 30
1.0711189046232548 1.6720247463521811 1.1452216303212064 22 20 24
1.0719965124884216 1.6057063817995825 1.1424757154147662 23 20 23
1.0470667226106898 1.662730222894388 1.1486116695320112 26 23 26
1.0362306188632622 1.6525329515497398 1.1499025460694923 30 27 31
1.0217354483242203 1.6595201091897613 1.152440787897146 36 36 38
0.9890890605885454 1.7503436678822755 1.1611113023083381 61 61 63
0.9749864874450409 1.7545640662612387 1.1634794005169773 72 71 75
0.9615314169399098 1.755725272092784 1.165626048492252 73 72 76
0.9458637834308761 1.7668255598704274 1.1685091720339862 65 65 66
0.9336930729006538 1.7620273834878335 1.1702208367422735 39 39 41
0.9336342370840224 1.7033491107464247 1.1679216960036305 23 23 25
0.8855326905396881 1.8577358384200178 1.181505978950846 14 14 16
0.8676728229788794 1.877175617137567 1.1850594779034949 10 10 12
0.8965804930756666 1.6927835235449562 1.1732918868826976 10 10 12
0.8434764559739898 1.8652928462701317 1.1883702128310396 10 10 12
0.8305679264125543 1.8628934111980535 1.190291449095915 10 10 12
0.8563403704232044 1.6958724580696827 1.17969677224924 9 9 11
0.8344802164668316 1.7324757296280717 1.1845500932765733 10 10 12
0.8288289227036707 1.7005262205059095 1.1841756727225998 10 10 12
0.8332761319294176 1.6269447049236299 1.1805866525888542 11 11 13
0.8177329153678912 1.6370202010941521 1.1834100348255685 12 12 14
0.801761464265952 1.6486710993757108 1.1863622588534235 12 12 14
0.7872952243232619 1.6539830691974462 1.188830083524055 11 11 13
0.7720902608444355 1.6621714093747606 1.1915264102991587 13 13 15
0.7566810332628543 1.671027764353848 1.1942809111249546 15 15 17
0.7376426190488926 1.6942087454008543 1.1981656105784402 14 14 16
0.7204435621443976 1.709740995087899 1.2014622088259013 15 15 17
0.6909405266451201 1.7734630678554733 1.2085757609158667 13 13 15
0.6721820082783851 1.794267436792169 1.2123232626354736 14 14 16
0.6573495708068122 1.7995041106556087 1.2148453058711415 17 17 19
0.642026588166852 1.8065245511769985 1.2175141173029773 30 30 32
0.6256948069427928 1.8172789158426057 1.2204873372853946 36 36 38
0.6071827569643848 1.8361521414730753 1.2241203850351396 43 43 45
0.5861477090610108 1.8642795015923093 1.2285114368519374 73 73 71
0.5658889728673462 1.8890840052844151 1.232650553099529 75 75 71
0.5401381165762691 1.9340257030440897 1.2384394182199232 113 112 111
0.5140713978811816 1.9795187232669786 1.2442992925939906 170 170 170
0.48769689395616916 2.0255219699577798 1.2502272983323959 170 170 170
0.4522943430028824 2.1039464475862593 1.2588404152032824 169 169 169
0.4097736502850239 2.2072250694007214 1.2695427379497024 170 170 170
1.780612949087074 3.9959323097750956 1.142405483296925 170 168 169
1.7636866398025912 4.005129474476448 1.145431452666516 170 168 169
1.7499425346008184 3.978958034486746 1.146510374234735 169 167 168
1.7371506825248324 3.9433104834308037 1.1470520357424152 166 164 165
1.7130441786212605 4.028652625613017 1.1543213287387837 143 141 142
1.7275349701271954 3.708933764978546 1.1389549852307608 99 97 99
1.6903053821237717 3.929529089311923 1.1538193033887072 81 81 81
1.7258620564847913 3.4093979105351964 1.1269453259604332 63 64 65
1.716772096597786 3.3485243368652617 1.1258741269466057 49 49 54
1.709239841445469 3.2742787577835557 1.1240112988310806 38 37 42
1.6931585172250923 3.2843547485850944 1.1269410216500788 35 34 38
1.6791037726763902 3.2748555606203866 1.1287515968405755 34 34 36
1.638915037585386 3.5089181126367333 1.1446307882547613 41 40 45
1.6270190149350263 3.4763438396117334 1.145158148524327 47 46 51
1.6149938532023433 3.445797879657443 1.1457888173048985 49 48 53
1.5999551279726307 3.4428826299320225 1.1480231307502118 44 44 48
1.5948706111577255 3.3525698333112084 1.1451189538656235 43 43 45
1.5864050593683612 3.2939793614393973 1.1440435621875265 41 41 43
1.5778477852323776 3.237715171863804 1.1430778301474285 39 39 41
1.5661806079730285 3.2090834880076975 1.1437308946729754 37 36 41
1.578087756516537 2.9854410001970457 1.132705014089757 43 42 47
1.561262978166916 3.0030304287790592 1.1360589098507958 53 52 57
1.5443598117302992 3.0207017294612406 1.1394284284817795 46 45 49
1.5272762455120112 3.0392646849148988 1.1428627115373264 35 35 37
1.5081483425761586 3.073357416168754 1.1472531879175691 32 32 34
1.4929178093010265 3.076207293140074 1.1497537094450982 31 31 33
1.477693105770045 3.078858600201759 1.1522451834632295 36 35 37
1.4488523245500184 3.184540543267158 1.1610887375554666 49 47 50
1.4334814167725143 3.186724208163543 1.163583935815959 58 56 59
1.4237419979382964 3.1471415823096387 1.163486640245275 52 51 54
1.4174464197901453 3.0832812755605885 1.1618557244029903 38 39 41
1.4010665937406532 3.093640354395667 1.1648437640995306 34 35 37
1.3738225003536875 3.181158079807781 1.1726932587053738 31 32 34
1.3552633595344692 3.205343545779678 1.1765888324306992 29 29 31
1.3428001764706539 3.1864238647246754 1.1777643664753632 30 30 32
1.3372131276905894 3.1205003999977254 1.1759380328406217 33 33 35
1.3425085351573987 2.9818830432628727 1.1694303111533557 34 34 36
1.3249060193979272 3.0004797726797596 1.1729471998917624 34 34 36
1.3104777420850189 2.9974557170008955 1.1750815130900591 34 34 36
1.2957866841134418 2.996157976332925 1.177327678994884 34 34 36
1.2761984266687563 3.0267242063316173 1.1816457315952944 33 33 35
1.2663186971737124 2.993991742965786 1.1818510362599213 31 31 33
1.2648237932527364 2.9084171345059957 1.1785791563477905 19 19 21
1.2416794793319657 2.9611766569397404 1.1843629984138782 13 13 15
1.224687590444225 2.9743547103130883 1.1875623222587504 11 11 13
1.1930900326580587 3.0774528063831994 1.1967314900081836 9 9 11
1.1702958651470396 3.124532436070791 1.2022278339751018 9 9 11
1.157992487869929 3.107075033659087 1.2034382635875953 9 9 11
1.2146386298776182 2.6766201657343913 1.1769374145887899 9 9 12
1.1971351350424628 2.6946872449653734 1.180417106431962 8 8 11
1.1710646261773592 2.7626773797255373 1.1872829073028854 9 8 11
1.1478987050658236 2.812379296986538 1.1929448661101758 8 8 10
1.1812208890950917 2.5355465845530833 1.1763881517559358 8 8 10
1.165040844566455 2.5464808716821383 1.179368488511529 8 8 10
1.1411406769121173 2.6007917836196115 1.185334188906315 8 8 10
1.1511712568552857 2.464013403283248 1.1781606940198637 8 8 10
1.1618903185492062 2.3259103275893147 1.1708251726390149 10 10 12
1.1627532039778714 2.2444788343995183 1.16735400615666 20 21 23
1.1621797092505726 2.172308607500806 1.1644870697637069 61 61 65
1.1585231434444858 2.1180345930869113 1.1628358504812237 63 62 67
1.155288765871631 2.062428815895301 1.1610639933915576 60 60 62
1.1522250065144028 2.006861300925181 1.1592669999819618 59 59 61
1.1491976403007322 1.9520371056870183 1.1574947631814139 58 58 60
1.112698441401481 2.0724003107973368 1.168138421466028 50 49 54
1.1085418667367009 2.0236877555589285 1.1667933035803275 41 40 46
1.1052319623197326 1.9714366292300793 1.1651707018998243 38 37 42
1.1041575095431977 1.908694542500864 1.1627684270197058 37 36 41
1.1043474171758472 1.8406145703909766 1.1599495797255523 37 36 41
1.0980654132789025 1.8059111133995214 1.1595110474892503 52 52 56
1.0909320915792535 1.7759522489445292 1.1594001351611556 50 50 51
1.0847577872438658 1.7417428995956286 1.158964989388781 42 42 43
1.0783048036594018 1.7094079141169864 1.1586502499669822 39 39 40
1.0738389188776352 1.667973677448006 1.1576517236708233 28 28 30
1.0662492782774489 1.6421123407057001 1.1577800998584165 23 22 25
1.047325838740605 1.6704042703696649 1.161900925895489 23 22 24
1.0418341132482452 1.6349742030928072 1.1613089372909062 23 22 24
1.0281282193986436 1.6384204680515881 1.1635952669328389 22 22 24
0.9931879444396909 1.7401376188464979 1.173231036192194 22 22 24
0.9798241350464485 1.741044156249142 1.1753597769296458 24 24 28
0.9680934297745114 1.7344451758751502 1.1769254279717218 27 26 30
0.9512720642041987 1.7509399448709937 1.1802339431891045 27 27 29
0.9461665699791151 1.7145312928347916 1.1795414136091626 22 22 24
0.9355288313171429 1.7032867617170495 1.180745681296325 13 13 15
0.9245792098039358 1.6935493692699117 1.182060507496312 13 13 15
0.9127645118224588 1.6877130243588598 1.1836705483555299 11 11 13
0.8942262294334175 1.7112094475987991 1.1875346285320465 10 10 12
0.8784214428077575 1.7224965042490246 1.190470685173005 10 10 12
0.8650137568884162 1.7232879008669855 1.1926015760008206 10 10 12
0.8490237772861278 1.7350272699136202 1.1955851481266373 10 10 12
0.8343020845921256 1.7411907564128033 1.1981417829405714 11 11 13
0.8200870012169215 1.7450971138906965 1.2005266562717984 11 11 13
0.8330169942289407 1.635758349230505 1.1940235232837368 12 12 14
0.8100865623989562 1.6763499225395804 1.1992753893103922 13 13 15
0.798188071762286 1.6709939922536385 1.2009182265525673 13 13 15
0.7857176005398383 1.6680077700090976 1.2027476688660985 12 12 14
0.7720166857186681 1.670009210147698 1.2049740271337377 13 13 15
0.7570712256829182 1.6769507872891338 1.2075975613961025 15 15 17
0.7381430384930338 1.6996699515707163 1.2114908234742987 15 15 17
0.7214087880884766 1.7133323493526458 1.2146696665044825 14 14 16
0.6959957547398952 1.7609703196902435 1.2205987696505018 14 14 16
0.6752778995264996 1.789545272984215 1.225012038938316 15 15 17
0.660462100271004 1.7947511573664254 1.2275441712100252 22 22 24
0.6420571047953383 1.8137080817222435 1.2312014145391827 34 34 36
0.6259982461147222 1.8233747308645014 1.2341108511694296 38 38 40
0.6086931573645507 1.8376233101118493 1.2374030523480233 43 43 45
0.588947728850671 1.8608826610267042 1.2414463533545568 60 60 58
0.5568805258194733 1.9301312784531504 1.2493022689654565 77 76 72
0.5265700583268407 1.9918762654426294 1.2565758223568735 138 137 136
0.49031885741176995 2.0748312607876946 1.2656481131084807 168 168 168
