ply
format ascii 1.0
element vertex 727
property float x
property float y
property float z
property uchar diffuse_red
property uchar diffuse_green
property uchar diffuse_blue
end_header
2.5203033968367174 3.051417773687598 2.204824614053487 46 45 50
2.49196127868926 3.0482846452877252 2.2195894113307135 47 46 51
2.3993094200595735 3.06994028133486 2.265951126046459 46 45 50
2.472318671644736 3.027453647878949 2.230936689865918 46 44 50
2.1796285224619565 3.125341245789727 2.3756342494951412 47 44 51
2.1727618333734533 3.113166751667337 2.3798932534099206 47 44 51
1.8396807796463444 3.2246153942605362 2.544555764396415 47 44 51
2.2470637933493265 3.0409705438733408 2.345988384956408 47 46 51
2.2407687282331885 3.028716481796268 2.3499581285429967 48 47 52
2.5421735902975926 2.9022905050959062 2.2024827037068393 49 47 52
2.502180080202478 2.903061696274832 2.223007157902771 50 48 53
2.434869270643528 2.9137123783034706 2.2569920912705466 50 48 53
2.416863620061564 2.9061098134266 2.266707310971442 50 48 53
2.3776563588102912 2.9061456690588052 2.2868712804385796 50 49 54
2.364308578418319 2.896701840957127 2.294300715055417 50 50 53
2.3208134396171425 2.8980430920998828 2.3165921710887427 50 50 51
2.182542209619806 2.9330683881847612 2.3856195107506313 48 47 53
2.1561830266683613 2.927817805713141 2.3994908620329256 48 47 52
2.1663933146895777 2.9095623722497437 2.395329582447667 49 48 51
2.1612096135705983 2.896766228360002 2.398760077028312 47 47 49
2.1543235720922658 2.884557259683261 2.403031093839937 46 46 49
2.1379448057418573 2.875630219891624 2.4119886386860196 44 43 48
2.117458348600366 2.8680698887609934 2.422977329641398 42 41 46
2.0857313329362643 2.864300460161139 2.4395211409246866 38 37 42
2.046004083758567 2.86314974373765 2.4600234348155166 36 35 40
2.0335941450576143 2.8525866833882603 2.4670373425259853 37 36 41
2.028097291003953 2.839656026539979 2.4706369402426875 38 37 42
2.0332964477274853 2.823129781101816 2.4689498382263264 41 40 45
2.0645991584845076 2.797933566592333 2.45435430128651 43 42 47
2.037548971774471 2.792215640283053 2.468608980922754 42 41 46
1.9950986306168912 2.791479553905305 2.490487122523966 47 46 51
2.024637910645989 2.7670100395699966 2.476755195996936 50 49 54
2.006058719879988 2.7583367545291306 2.4868293650280555 54 53 58
1.952937593159343 2.7607835820098936 2.514005879742429 59 58 63
1.9192341353816933 2.7567897892077453 2.531579667407078 58 57 61
1.9040832455104109 2.746745815837619 2.5399723697244023 64 62 65
1.9677294384345365 2.711614570862349 2.5093344721959903 66 64 67
2.0205510386691485 2.680163423824843 2.4840443625350046 67 65 68
2.058599781136446 2.6535682813040626 2.4660625828802116 66 66 66
1.9754075476716324 2.664957239749088 2.508171973254485 65 65 66
1.93787003258912 2.661882233166553 2.5276629177693657 63 63 65
1.7259315362838203 2.7124054829643023 2.6336550973979507 62 61 64
1.6527252817579912 2.719648031346112 2.670875889295491 57 55 60
1.6265772846254551 2.712305025803828 2.684763592346781 52 50 55
1.5765488793352178 2.7120931776932897 2.7105081721939324 48 45 51
1.4202197610216594 2.74362896338232 2.789031938912677 45 43 48
1.3583223267394007 2.7463949414741524 2.8207034532824524 43 42 47
1.3782856884591037 2.7246653994367738 2.8117332145396308 43 42 47
1.3581314727076326 2.7148440632002813 2.8226860616957854 42 41 46
1.375555115882526 2.693962550883812 2.8149714674917568 42 43 47
1.3972147980408063 2.671930703728681 2.8051467883695125 43 44 48
1.4758807009569195 2.633533234280691 2.766978640302522 49 50 54
1.504065898509192 2.6099333445650736 2.753891240950086 61 62 65
1.4952212099323365 2.597007242839032 2.7592125130103127 67 67 69
1.5099731331811432 2.5773823107589804 2.7527970562224917 72 72 74
1.493427600985037 2.566626067009918 2.7619496295683743 77 77 79
1.3706993136755554 2.585467437396561 2.82394913306697 88 84 85
1.316129870511371 2.584953099170244 2.852047445954902 98 94 95
1.2431076264390941 2.589325950935956 2.8893449914873996 111 107 108
1.1887126980093312 2.5883399644217757 2.917381713559378 105 103 103
1.0961601506259888 2.597523302498894 2.964437282435912 119 119 117
1.0168737056188009 2.6027908204972676 3.004903360899076 154 154 152
0.9674380489696884 2.599777892254823 3.0305103631280383 192 192 190
0.9419596160667687 2.5902220536990215 3.044185844434063 205 205 205
0.913847850369838 2.5812790374604146 3.0591791686872862 206 206 206
0.8891372813133215 2.5713525082837747 3.0724818423263898 206 206 206
0.8916712516811695 2.5542585932844535 3.0721994744092482 206 206 206
1.2141714171544087 2.454549157072817 2.9122780554067575 206 206 206
-0.12181574217025459 -1.4135707850807615 3.8304698452289507 212 212 212
-0.018380919032879306 -1.4098723144315066 3.7770476242946813 211 211 211
-0.0007981276191441067 -1.4213090519156348 3.768687063503302 211 211 211
0.019929413514806482 -1.4321093906933038 3.758671001960636 211 211 211
0.35571979592805647 -1.3851302635160112 3.5831525220332328 211 211 211
0.4852237065048459 -1.3752136160124693 3.515950367745826 210 210 210
0.5181336750598797 -1.3828773683085787 3.4994809800396016 209 209 209
0.5743723010359182 -1.3860510467428742 3.470744403737378 209 209 209
0.6493708569481026 -1.3854930979599052 3.4321358469036642 208 208 208
0.6764716534376365 -1.3938332629500112 3.4186947857300667 208 208 208
0.7489657576641038 -1.3933530351964198 3.3813790264889914 208 208 208
0.777071129993496 -1.4012441660817814 3.367394445899316 207 207 207
0.8916215976166592 -1.3921576233857282 3.3079331199252087 206 206 206
1.186228317716903 -1.3472783684374885 3.1537227249931803 205 205 205
1.3000672163617206 -1.3373475019396588 3.0945769628775084 204 204 205
1.3048390532776168 -1.348857176217382 3.0928100258495577 204 204 206
1.3110844755981286 -1.3600459050157532 3.0902659864218327 203 203 205
1.3512024231641666 -1.3643352587283886 3.0698876580127736 203 203 205
4.085410720335911 6.040074796952039 1.2347957581090196 191 191 191
4.074711503544428 6.036715888605522 1.2405187407404368 191 191 191
4.068414033703836 6.028720458110541 1.244243770729008 191 191 191
4.0572388690477394 6.025785736643363 1.2501873562218178 191 191 191
4.032859894251063 6.036520323451418 1.262138293852764 191 191 191
3.4713966630576927 6.587420870074144 1.5193861889133409 191 191 191
3.4634335511010867 6.579539871470709 1.5239644102672179 191 191 191
3.4559822864933256 6.571107489255303 1.5283110290014803 191 191 191
3.43752935299449 6.5739333781507625 1.5376708650536062 193 192 192
3.422413852726124 6.573265554225615 1.545514553193203 194 192 193
3.411544284716327 6.568203747855124 1.5514263677048705 195 193 194
3.0990270581996886 6.870018171963647 1.6948994010775391 196 194 195
3.086449121334285 6.865817029797275 1.7016422599755296 195 195 195
3.074480161047902 6.86095117281112 1.7081100822110358 197 197 197
3.029591529402215 6.889275754337023 1.7296081161583605 199 199 199
3.0260291668677786 6.875768460553663 1.7322475340129693 200 200 200
2.725158120465057 7.160864526279402 1.8706980445811308 202 201 202
4.216080881689889 5.649487534994657 1.190469185924504 202 201 202
4.134128368076892 5.717425790551592 1.2287565734857926 204 202 203
4.429194981464909 5.40924229751378 1.0946705875715752 205 203 204
4.400311184317793 5.424591571054355 1.1086739891590072 205 205 205
4.397971527267588 5.413490752673171 1.1105395651800625 205 205 206
4.163876720175963 5.6175253297891174 1.2193156119369861 207 206 207
4.150189653139538 5.616995044200777 1.2264136528483267 207 207 207
4.1403883897996945 5.61259662332248 1.2317346031858905 208 208 208
4.417552057166088 5.3008415216864435 1.1071034825551878 208 208 208
4.447806705349144 5.258212035935952 1.0940083899904136 208 208 208
4.445965366177791 5.246821610817289 1.0956338409984476 208 208 208
1.4533491667240601 4.307557474254929 2.696362269660595 207 207 207
1.4716895647851516 4.281433421871773 2.6884407180004417 207 207 207
1.4468996048803677 4.2765523811134525 2.701528916298993 207 207 207
1.417078122013876 4.274039598033392 2.7170745922315835 207 207 207
1.3865940265715535 4.271739464298001 2.7329497774117026 206 206 204
1.3671202688610116 4.263997584642406 2.743462698805426 203 203 201
1.355637960347099 4.2523384402978275 2.7500816970471895 186 186 184
1.5870614305201953 4.124086466816269 2.6381955015887057 145 145 144
1.7097320008712498 4.048778729612738 2.579321966719938 112 113 112
1.8105832755004392 3.9843790259395577 2.5310675333012647 110 112 111
1.9229920888576995 3.914943133533379 2.477144291264012 90 91 91
1.9608817275384378 3.8811271381827526 2.4595851455316176 86 84 87
1.9861606482631011 3.853403706323019 2.4481759847954003 79 79 81
2.0440038091595705 3.810582722056365 2.4208482993732416 73 74 76
2.0381048175302476 3.7976723861173696 2.4246587540604945 67 68 70
2.0453138510237254 3.7786810762200953 2.4220617777122295 61 62 65
2.098959847033017 3.7383236360065086 2.3967551464483274 56 55 59
2.121748718672213 3.7123668445227302 2.3865269412673107 51 49 55
2.174032915830616 3.6730422075965286 2.361862222932372 50 48 54
2.1961313598421173 3.6476785323861325 2.35195534905056 48 47 53
2.211094022676895 3.62565152262001 2.345535011969882 47 46 52
2.2286736526819078 3.6025211594566815 2.3378288984840094 45 44 50
2.2351449439959246 3.584461162807278 2.335557647140637 44 43 48
2.2283462499704396 3.57236785753505 2.339784216918984 43 42 47
2.2480424276987994 3.5484835537041044 2.3310299941747203 42 41 46
2.4227989841342694 3.4560901721439046 2.2462766401174323 40 39 44
2.450636588995329 3.4291305349310783 2.2335011846961352 39 38 42
2.4925746392342787 3.396118670499342 2.213804209133529 36 36 40
2.5068554997993115 3.3753585861821436 2.20766083365136 34 33 37
2.530470693002207 3.3506176218625345 2.196933973444284 32 32 35
2.52930649863649 3.336695464941056 2.1983597945848947 33 32 37
2.2026863580194105 3.462760497007498 2.3595255442955168 34 33 39
2.2366426011068983 3.433155108671508 2.3437477727995866 36 36 40
2.2391522972952442 3.417099008944986 2.34340318052813 37 37 40
2.3130706982768503 3.3707927370353716 2.3079823238973605 41 41 43
2.337082851330031 3.345858542184752 2.2970619604606077 42 42 44
2.3446436239429977 3.327943521944576 2.294219621994737 42 42 45
2.346598839388264 3.3124151084996383 2.2941300477749893 45 44 47
2.3477855346654013 3.297227755769031 2.294417055761958 47 47 49
2.330624255373665 3.2896503755550195 2.3037263006035755 47 46 50
2.3170632172861865 3.2805343696148785 2.311267890597655 47 46 51
2.307417023030652 3.2697728778626747 2.316885726930891 46 45 50
2.2948088877240895 3.2601931988515602 2.323962801606484 48 46 52
2.2791371293132774 3.2518185864314284 2.3325502354674286 47 46 52
2.2727456102965387 3.239648421790534 2.3365711341105833 47 46 52
2.396487294304017 3.1752070456469275 2.2765008608717543 47 46 52
2.3758462412478067 3.168968974464459 2.2875273707877226 48 47 52
2.4483885809332047 3.125617051174924 2.252641958501671 49 49 52
2.4903956140691923 3.094648618612248 2.232788314266268 49 49 51
2.5284222457619534 3.065429122649642 2.214886142637076 47 47 49
2.461981523940981 3.077273129160622 2.2484878201427545 47 46 52
2.4439497747964465 3.07000871422027 2.258227948142268 48 47 53
2.4311268190046924 3.0606666261349287 2.2654018596636023 49 48 54
2.431084788107525 3.0463597084432954 2.266271101503703 47 46 52
2.2324976005750354 3.1081954655702595 2.3651384327326452 47 46 51
2.2261450583004447 3.0959230112575105 2.369145267337228 47 46 51
2.207815526725428 3.088182895498673 2.379067320777177 47 46 51
2.2059249748702765 3.0741783054406326 2.380873043312651 46 45 50
2.2199046130623814 3.0542215458927435 2.3748375998804248 46 45 50
2.2411375506766 3.03162554324421 2.365213629752263 46 45 50
2.4878507783460444 2.9253784617160807 2.2441297700552614 44 43 47
2.506825071653904 2.9042630846771975 2.2355842247993865 44 44 46
2.48087890607013 2.8997416413630286 2.2492480690515815 43 43 45
2.437105871555593 2.9016443602709714 2.2717353509026417 42 42 44
2.3313163610022123 2.925925848705995 2.324915995074648 43 43 45
2.298157574384904 2.9235459714613934 2.342176846158285 41 41 43
2.2783280402244195 2.9162558137880743 2.3528466947852618 36 36 38
2.242772339466751 2.9145220707042285 2.371306794641265 36 35 38
2.223566271388787 2.906847944566045 2.381677494277053 37 36 41
2.2063837858221516 2.898395484341997 2.3910495276185935 38 37 41
2.2041282695135846 2.8846405843832743 2.393028889511268 35 34 39
2.1932784863025563 2.8738942910302105 2.399267237950822 35 35 38
2.16965545913655 2.867558264203225 2.4118391427033683 37 36 39
2.1402740097621002 2.863132409108612 2.4272709598532245 36 36 39
2.1298367434685597 2.85209365772232 2.4333136511897897 36 36 39
2.125226614645929 2.839035988342986 2.4364673945933464 37 37 40
2.0875716996212423 2.837199163540561 2.4560174244280333 42 41 45
2.044747454142419 2.836973373054173 2.4781409397313223 46 46 50
2.0343156187673372 2.8257157887196933 2.48419379074326 55 54 58
2.0547963013420407 2.8041114195548342 2.474899465234713 59 59 62
2.0424325164029846 2.7935003923882658 2.4819114789497085 60 60 63
1.9817965334902072 2.7987790457657664 2.5129051035501058 59 59 61
1.9856799214797607 2.7826751193685033 2.5118541080440795 59 57 60
1.9503300160917152 2.779389146840792 2.5302999098576673 62 61 64
1.9075658552872128 2.7783807799481823 2.5524387632685634 60 58 61
1.8786641344274542 2.772754045298257 2.5676940368561088 60 57 61
1.8580804812989138 2.7643651748236655 2.5788183244893546 63 58 62
1.9626262991021117 2.71609637828006 2.5277008056455363 61 57 61
2.0045857326177856 2.6880398617319634 2.507699235270249 58 53 57
1.9518421483447845 2.689923452840117 2.5348191412253374 52 52 52
1.9300519346051601 2.681947258452799 2.5465419286649937 51 51 51
1.8924724998265186 2.6788006341536827 2.566130580557769 46 46 48
1.844455343956684 2.678741059960497 2.5909253466102813 44 43 46
1.8064462320328158 2.675441019405223 2.6107449290016134 41 39 44
1.5052954010111006 2.7521550823043097 2.761684434841355 40 38 43
1.388933710047231 2.7717914235796886 2.8205986695585397 39 38 43
1.329670299567281 2.7738216295309623 2.8510760735159173 40 39 44
1.3012881315711284 2.7664103174075825 2.8661688204913225 40 39 44
1.3313888011770985 2.741543026734626 2.8521009951814644 42 41 46
1.3203881570836542 2.728927781267056 2.858527949687788 42 41 46
1.370633551363025 2.6983395148241014 2.834398322117233 47 46 51
1.3640780442189735 2.6844919644221736 2.8386032560339287 54 53 58
1.4845960035826622 2.6338902615482733 2.7793775286764895 61 60 65
1.5508173558439098 2.599361185891332 2.747232974286453 68 68 70
1.5286458063304547 2.5903193183954762 2.7592157756596287 73 73 73
1.5135449267757641 2.579202379663513 2.767670920328464 77 77 77
1.4820852230480697 2.5726458775037053 2.784301958763109 82 82 83
1.4361320787575749 2.570034430626802 2.808182249375781 94 91 92
1.355156502700623 2.5769847955448832 2.8495781650163345 104 102 103
1.297898252644617 2.577099822169816 2.87913376066771 101 100 102
1.0831961365313716 2.620122235561343 2.9874357244050556 90 90 92
1.0364525582045536 2.6166686837217 3.0117740020386696 96 98 99
1.007317588670135 2.6082968138521663 3.027312323531255 123 125 123
0.9844675397162079 2.5981434013954843 3.039711281757885 161 163 160
0.9609580061320214 2.588093080057494 3.052444624500587 196 196 194
0.9388401179429052 2.5776000645799546 3.0644856865110537 206 206 204
0.9141595933204514 2.5677100048119623 3.077814117532269 206 206 204
0.8894462404952636 2.5577493729314287 3.0911636784298957 206 206 205
0.9743955606031613 2.519349620893642 3.0495791810467647 206 206 206
0.9634216334035347 2.5059113839604037 3.0560410956181037 206 206 206
-0.15753726339391194 -1.4489835038453696 3.8690795263604505 212 212 212
-0.12671090383859662 -1.4729522532576786 3.854583798089528 211 211 211
-0.037938301137666275 -1.4713049275172874 3.8086529540580303 211 211 211
0.27322475230332377 -1.4279797144137205 3.645433019566992 211 211 211
0.42699385788818767 -1.4132337154877472 3.565168544167591 211 211 211
0.4876656442971125 -1.415621580148184 3.5339851840145986 211 211 211
0.5186809706851448 -1.4234696992535572 3.518436906671191 210 210 210
0.5449483824792544 -1.4321254410882696 3.5053878191285657 209 209 209
0.6685693310985684 -1.4218304498520635 3.4409525017167035 208 208 208
0.756614757727315 -1.4180961872505726 3.395273468310846 208 208 208
0.777912238611115 -1.427217939017234 3.384817960367235 207 207 207
0.810992787810614 -1.4339285439184046 3.368136023074554 207 207 207
0.875320136469749 -1.4342862678755857 3.3349450322427994 207 207 207
1.1622496112932887 -1.3896323271781355 3.1841581701704578 206 206 206
1.2143801032622934 -1.3917188101215918 3.1573668228129295 206 206 206
4.127611733192899 6.015572122804559 1.2278612776051816 193 191 192
4.11112539680887 6.018413370035631 1.2362384727215092 192 192 192
4.080717987838412 6.035764713086576 1.2509778309651964 192 191 192
4.063914059565432 6.038755729854786 1.2595108203376455 192 191 192
4.05555302880588 6.032873503178077 1.264189559829835 192 192 192
4.041574180497701 6.032802240462378 1.271438353516408 192 192 192
4.030625367256844 6.029530330983515 1.2773048619205372 192 192 192
3.483714367634347 6.580535321470407 1.528371377948771 193 193 193
3.4776841290485487 6.57068577793558 1.5320752618381428 193 193 193
3.4720733473518592 6.560389601537957 1.5355880008305816 194 194 194
3.449294139592816 6.567700941989654 1.5469638793130123 196 195 196
3.4398590584642696 6.561248783947258 1.5522327354528862 198 196 197
3.43397423215976 6.551138791075118 1.555876560704262 199 197 198
3.094936250018705 6.863310630455629 1.7132438550711662 199 199 199
3.088794650518056 6.852558763701201 1.717058465845213 201 201 201
3.071516305408572 6.853046452423843 1.7259844002962104 202 202 202
4.223891486412297 5.674553776342794 1.1979994264578868 204 204 204
4.208708004165817 5.675853020020511 1.2057920072331116 205 204 204
4.22490453634673 5.645623378692744 1.1991741350704328 206 205 206
4.433390628999951 5.409817191229863 1.104979343183413 208 206 207
4.410555858150136 5.419174144930569 1.1162638330756405 208 208 208
4.053924312432338 5.745312563503382 1.2819285099145636 208 208 208
4.066546852885152 5.718548676932831 1.2769592555490958 208 208 208
4.069790287613232 5.701098394524854 1.276303573376115 208 208 208
4.073862354751563 5.682866166094407 1.275264389492777 208 208 208
4.081438984848965 5.661237968851006 1.2726084695299211 208 208 208
4.435397148727322 5.288120736181121 1.1110893982409327 208 208 208
4.431332501761746 5.278839021261273 1.1137412433887608 208 208 208
1.4748791106787555 4.3180869438930625 2.7023841155064847 207 207 207
1.4770365151622729 4.299943324170938 2.7023320089909775 207 207 207
1.482286181758146 4.280300392163596 2.700765410447547 207 207 207
1.441061247920528 4.283508638888122 2.721941943225258 207 207 207
1.415786929332199 4.27876301300242 2.735319299377291 206 206 206
1.3860188211014952 4.276113929472724 2.750902407461779 204 204 202
1.3625135901991312 4.270320950876712 2.763424459581701 187 187 185
1.359479157039961 4.254569020279395 2.7659225312610696 148 148 146
1.3366805503475419 4.248314284022123 2.778105501224989 109 109 108
1.494413366853118 4.155639216006749 2.701804565050742 98 98 98
1.7591813796357874 4.012674927307543 2.572986718538092 101 101 101
1.959729996137679 3.9012793844502247 2.475596154094957 94 94 94
1.956658297718476 3.886842444819016 2.478036279965743 87 85 88
1.9985843016659983 3.8512635185662893 2.458398265269892 82 82 84
2.065988700241698 3.8039555691553457 2.426245054146124 77 78 80
2.056782012581877 3.7926225405419287 2.431682306505333 73 74 76
2.0563459700811633 3.7771993279177223 2.432814436526005 67 68 70
2.0536521326154475 3.7628309324035647 2.4350547069776 63 63 66
2.055773168534206 3.746253555226012 2.434929428334585 55 54 59
2.0614462153093216 3.72807482995761 2.433057385453325 54 53 58
2.1045415407313732 3.6928950760534303 2.4127899118720815 50 49 54
2.141455039014149 3.66071040356021 2.395550232737587 48 47 52
2.2005074401413935 3.6187045710094474 2.3674139739049287 46 45 50
2.220776969122336 3.5943749772789086 2.3583386099050214 45 44 49
2.229569787862386 3.575273837031739 2.354903923849511 44 43 48
2.2381547513959097 3.5563155878491868 2.3515685646010325 43 42 47
2.3859716000977613 3.475740392167218 2.279695732432521 42 41 46
2.430491530315143 3.4413265192759166 2.25864495316138 40 39 44
2.480382090820987 3.404753265861961 2.2349376868687374 39 38 43
2.477706617868292 3.391355806913058 2.2371113950877186 37 36 41
2.492214269416876 3.3704918893927216 2.2308185360192234 35 34 39
2.4780853571521275 3.362089567450809 2.2386345697834735 32 31 36
2.4838917700952137 3.3450593193533176 2.236625933581965 29 28 33
2.210620582651117 3.4476533145474018 2.372222438798527 26 26 29
2.2012722218248264 3.4365885484836056 2.377717352937091 25 25 27
2.3175185749693767 3.3721955089508286 2.3212553467443597 26 26 28
2.335282653388048 3.349887494151338 2.3133596724481005 34 34 36
2.3546867151123694 3.3269764054414517 2.3046495007084924 31 31 33
2.3514051853329474 3.3136471129701186 2.307133295920876 26 26 28
2.33928942958449 3.3039951569596546 2.313979420272411 24 24 26
2.320115514713287 3.2972308772828995 2.324313812720967 25 25 28
2.310785717295622 3.286344627054309 2.3297886180700766 26 25 29
2.3022422202476744 3.275111488149182 2.3348762998874393 27 26 30
2.358064889950644 3.237589180786186 2.308150447927863 28 27 31
2.3932950267553195 3.208669146992128 2.291591374197572 31 30 35
2.4433307454893485 3.173923353164235 2.2677015115289683 33 32 38
2.487186394708664 3.141878193096283 2.2468558318793352 33 32 38
2.409888384898574 3.1584844420329516 2.285940250444285 34 34 37
2.451984983406516 3.1272756314778234 2.265957070033536 33 33 35
2.510672201306627 3.089681185690677 2.237750890188574 33 33 35
2.437448617798767 3.1043005132903936 2.274840453448797 34 34 36
2.446496478875714 3.086394225913767 2.2712033901225452 34 33 38
2.454526003700111 3.06893460628668 2.2680678418170612 33 32 37
2.527418085708353 3.0263612991832187 2.232792440769517 34 33 39
2.5347703685733993 3.0093843338005004 2.22997951940243 34 33 38
2.3475160270013324 3.0671520036211026 2.3236310201448687 33 33 36
2.2880910865403483 3.075368347384373 2.353945558704003 32 31 35
2.301494036290977 3.0556959460870208 2.348155212481246 33 33 36
2.292385019922865 3.044596596276415 2.353528117051868 35 34 38
2.316219251824717 3.021092607521708 2.342556822071417 32 31 36
2.3218654333703395 3.004496692263226 2.340605708536137 32 31 36
2.2897364240463465 3.0019829503608624 2.357404413587019 31 30 34
2.264019048575981 2.9969827565958953 2.371026342588144 36 36 38
2.3201699743400432 2.961777956607732 2.343994211477651 34 34 36
2.302582763063937 2.95378781125864 2.3535783093884723 32 32 34
2.276809838363868 2.9487192342322346 2.367233044723187 32 32 34
2.263152994344998 2.939176736027471 2.374871414749839 31 31 33
2.2480237109198655 2.930123024765002 2.38324416639007 31 31 33
2.233741683066162 2.920719163078127 2.3911983958007927 32 31 34
2.2104588138120036 2.914475355039894 2.40363169515967 33 32 35
2.2187203867276337 2.8969877897394403 2.400377528662348 35 35 38
2.250671474470949 2.8712085843381634 2.3853333074062126 35 34 37
2.2141006908581544 2.8695498899400507 2.404383747825632 42 42 45
2.1927992343148093 2.8624460218391263 2.415840700795316 45 45 47
2.190306739299023 2.848762857894362 2.4179363656180795 48 48 50
2.1669275048805683 2.842269072522863 2.4304342934343603 50 50 52
2.1650135327069555 2.8283535086328984 2.432243789976632 51 51 51
2.149068337179134 2.8192156980027874 2.44104433310347 52 52 53
2.1164310249960936 2.8156725312948634 2.458166949660035 52 52 54
2.1021627009658728 2.8058390688578236 2.4661393170189148 54 54 56
2.0920541285815344 2.7945725537990884 2.4720400677464918 53 53 55
2.0468173637214555 2.7949507099717286 2.4954620259316176 53 53 55
2.0083296814432905 2.792935568650531 2.5155268505738144 51 51 53
1.962921018823599 2.7930552223323253 2.539053083227514 47 45 48
1.934894140301479 2.787337625542264 2.5539140725969403 45 43 46
1.9024722243952998 2.7829496016375765 2.57097469625795 41 39 42
1.873171040007334 2.7774420135368807 2.586483762416815 38 36 39
1.8560551105058536 2.7679280810455937 2.5959131421950565 38 36 39
1.8799536334076221 2.745295618550684 2.584857323936184 40 38 41
1.9175981090430092 2.7184178018528384 2.566927022337364 37 36 39
1.9160262317161512 2.704039744932858 2.568586399062305 33 32 34
1.9002490391056737 2.694111124664441 2.577346335717995 30 30 31
1.8510823802472534 2.69451093315214 2.6028037086598417 27 26 30
1.8111729805978933 2.6918742889299163 2.6236418600274476 27 27 31
1.6998147463168007 2.7110229235210466 2.680228786380969 28 27 32
1.657949220697103 2.708561684620413 2.702070404184846 33 32 37
1.6080225835237345 2.708394578580543 2.72795494714264 36 36 39
1.5811626100253313 2.701103160850655 2.7423036478112626 37 37 41
1.3602430409620263 2.751773423616569 2.853819306982164 41 40 45
1.331947447675175 2.7443539134972688 2.8689195503814933 46 45 50
1.2969402668733032 2.73882120637142 2.8873872530259495 52 51 56
1.2847011037423175 2.726488622599492 2.8944548268432673 58 57 61
1.2890833253869547 2.7092791946456445 2.8931948120063318 64 63 67
1.58186760820348 2.608607217431926 2.7473726262771785 68 67 71
1.619560078769164 2.582435091080843 2.729375990155515 72 72 73
1.5852438494930061 2.57699154507904 2.7474803653568327 77 77 77
1.5216414375239662 2.579739604686278 2.7802811731990587 81 81 81
1.4963647565042595 2.571456301064245 2.793867600313061 88 88 88
1.4310898194872046 2.5742857360222726 2.8275304214945423 97 95 96
1.3489656551715772 2.5815630453204945 2.869664114792331 92 91 92
1.3257275485225803 2.572282765665813 2.8822526153308727 85 85 87
1.2807351322531417 2.5688920749347965 2.9057693669930797 81 82 84
1.0744527198113456 2.6092567150554986 3.0103047265957747 85 86 87
1.0345403672676055 2.6038696546488254 3.0313060015273816 99 101 100
0.9748334886122908 2.6036587021550264 3.0622617787806963 130 132 129
0.9797606792349435 2.586006969266478 3.06074531751425 172 172 170
0.9617153609367218 2.5744680242808244 3.07077533169807 202 202 200
0.9398456535594227 2.5638798248378665 3.0827314958535164 206 206 204
0.917883409930331 2.553247228550555 3.0947382257919305 206 206 205
0.8929753869807946 2.5433086362798956 3.1082308460254255 206 206 206
0.9732057988241897 2.5062642733113583 3.0688274814197474 206 206 206
0.24485318910369458 -1.4327602624464142 3.6777264595616606 211 211 211
0.27484133444327874 -1.441295925394188 3.662686445480926 211 211 211
0.3642177820359893 -1.4384971764456096 3.6162022293713543 211 211 211
0.0726554411994591 -1.5080405078261228 3.771391674527432 211 211 211
0.4200153079008262 -1.4556796733988733 3.5882943981656723 211 211 211
0.6032373187188252 -1.4340443955835642 3.4920675687257363 210 210 210
0.6404320059848654 -1.4403467972066046 3.47316151968577 210 210 210
0.6670609391451753 -1.4486042084178414 3.4598460859040596 210 210 210
0.7460096612313949 -1.4463994802536937 3.4188009898623757 210 210 210
0.7651070499459146 -1.4558997090642842 3.409461834369338 208 208 208
0.7192714689315056 -1.47839896914235 3.4345382322531885 207 207 207
4.746291059914608 5.420385951456801 0.9541114264546344 193 191 192
4.744857876167701 5.409018450036225 0.9555193031666853 193 191 192
4.165653091960762 5.9952062187661355 1.2226751187811993 193 191 192
4.150006647359771 5.997295387557837 1.2306928694028851 193 191 192
4.113493567538857 6.021250535817865 1.2482917010976786 193 191 192
4.075819794172416 6.046243210924547 1.2664338894091736 193 191 192
4.061469186542436 6.046658275712061 1.2738750697022554 193 191 192
4.051820480851438 6.04210743267305 1.279159596384222 193 192 193
4.039187180359083 6.040626218873312 1.2858178971464747 193 193 193
3.439947945065339 6.615492597953204 1.5640555122427988 196 196 196
3.455797782205437 6.582984425864289 1.5577042889627524 197 197 197
3.4669227461474996 6.555430774232081 1.5535223327014194 199 198 199
3.4551653421005537 6.551398880279656 1.5598735942785238 202 200 201
3.4468134097952707 6.543841424150658 1.5646587008877415 203 201 202
3.4498026434300364 6.524696041000065 1.564219152331965 203 201 202
3.4511974759927524 6.507204324306567 1.5645126816188537 202 202 202
4.468697534228163 5.459302752264685 1.0962515624091975 204 204 204
4.834749978957652 5.075686273895923 0.9281776052079811 204 204 204
4.826532384427616 5.071587483221208 0.9326913117500554 205 205 205
4.825926223998054 5.059799703211919 0.9336934478366784 207 207 207
4.817767140982742 5.055601891914779 0.9381824853083778 208 208 208
4.809108101864254 5.0518747763289245 0.9429041814875099 208 208 208
4.801484166338546 5.047081907070661 0.9471494991068102 208 208 208
4.79392975896506 5.042192933670728 0.9513642467385844 208 208 208
3.993797562633957 5.795473769882946 1.3237137150946499 208 208 208
4.0030640759705856 5.771883561300281 1.3202676215466242 208 208 208
1.4670035918450128 4.326127471052844 2.7237932854775835 207 207 207
1.4795002863352895 4.302828866595894 2.7186498216850126 207 207 207
1.4371932390977673 4.3066440494835785 2.7404361830869166 207 207 207
1.4396936158193485 4.288279322355986 2.7402054597561616 207 207 207
1.4099686731170404 4.285708013112164 2.755818557662791 204 204 204
1.376557625280194 4.28482322107179 2.773250949728734 191 191 189
1.337297914535459 4.2866507885181795 2.7935678555284524 152 152 150
1.3043757002831131 4.285268642413627 2.8107749281826946 112 112 110
1.2715253446985897 4.283729784115999 2.82795374975755 97 96 96
1.2107899123911492 4.295419344596228 2.8588679918775592 90 88 90
1.991388064620953 3.889995048049476 2.476412840391654 94 93 95
1.9745801234133236 3.8821037661398314 2.4856163175059485 90 88 91
1.9998682956690774 3.854355842532149 2.474077804108787 86 85 87
2.031321729737584 3.8238412272969984 2.4594932439213246 80 80 82
2.0446582244984306 3.8019187863580974 2.4538327247620613 75 76 78
2.093695376253704 3.7634972839404623 2.430561584421231 72 73 75
2.0762689290986605 3.7560031582855924 2.440063676046144 68 69 71
2.09594588947347 3.7313851280931765 2.4312618241983066 65 64 69
2.103508492000522 3.7124102620659136 2.4284332175371857 61 61 64
2.082865663750446 3.706337187968928 2.4395257141705455 55 55 58
2.0751907842797417 3.694308985311674 2.4442190933653314 50 49 52
2.143188916415208 3.648085811410896 2.411538773482868 47 46 50
2.1613242001844357 3.624575924786368 2.403474355936641 46 45 50
2.176060396197607 3.6026764753409823 2.397084355289258 44 43 48
2.1908295646518168 3.580837480351254 2.390673679647991 43 42 47
2.222982514610411 3.5513661567679353 2.3756644362309842 42 41 46
2.40786444048023 3.454640946988937 2.285122174301054 40 39 44
2.4610343942456168 3.41654633150275 2.259682053458236 40 39 44
2.447819400974494 3.407707084926852 2.267071666870372 39 38 43
2.2389958360651194 3.4839419455769813 2.3712625166122403 36 35 41
2.2683657847428065 3.4561764221145808 2.3576016380544638 34 33 38
2.3157758537460156 3.4207698622301153 2.335001263498581 32 31 35
2.2389123374195985 3.4388808990463215 2.3739313931948702 29 29 32
2.280105851482833 3.4062900726481073 2.354400891370895 28 28 30
2.3234067124142146 3.3729865460418904 2.3338156464395716 27 27 29
2.3047316301291954 3.366078702728129 2.3439331343188403 29 29 31
2.362115501126116 3.327104428059982 2.3163521341082802 26 26 28
2.3487987893334643 3.3179829048362914 2.323811109337672 25 25 27
2.337819206480067 3.307846708651118 2.330113400142035 24 24 26
2.3077052577580957 3.3056133870404194 2.3459091712613698 24 24 26
2.2947363236789537 3.296196637370421 2.3532044293126586 25 25 27
2.210477752552574 3.316010710144649 2.3958823322263387 25 25 27
2.3103183196470805 3.2602828442011655 2.3471909656379775 23 23 25
2.4065016187485115 3.2064611467423147 2.3002910939955328 25 25 28
2.4685704791321563 3.166842197691729 2.270310465684754 27 26 29
2.477365847599082 3.1489285579915522 2.2667787275731346 25 25 28
2.3118565892769993 3.2008604893305033 2.349852926439212 28 28 31
2.373102571680966 3.1617950259949366 2.3202681211098115 25 25 27
2.443200591767769 3.1194819542909813 2.2862675951005067 28 28 30
2.2771274907364973 3.17060247008983 2.3696823882848346 29 29 31
2.333081232865139 3.1339548462086673 2.3427097986840493 28 27 30
2.337669909867653 3.117595548028933 2.3412758712739286 34 33 36
2.3524206461425328 3.097322039929321 2.334783572657092 43 42 45
2.3625003178723847 3.0789256660497473 2.330611850150635 27 27 30
2.355261223670832 3.067238491120789 2.3350586587960276 24 24 26
2.367805516418203 3.047972709697286 2.3296554651548163 25 25 27
2.336212181134701 3.0455547457666654 2.346231589479663 27 27 29
2.3353037849939984 3.0314162149180754 2.3475279166126573 29 28 33
2.3199148599759294 3.0227357194605315 2.3560391867333954 21 20 25
2.35180775000316 2.996311212663302 2.340987709792053 21 20 25
2.255719653082261 3.0176694361001 2.3897295099059215 20 19 24
2.2104475224740874 3.019841658872256 2.413154069893059 21 21 23
2.1903983045706976 3.0125577421029117 2.4240083116902342 21 21 23
2.1756053236473276 3.0032820120520896 2.4322442451036554 22 22 24
2.148973864145298 2.998273159202748 2.446390095961787 21 21 23
2.2575216555960114 2.944198439442251 2.3930728045167773 25 25 27
2.2262800538795857 2.9409343187316708 2.4095152532179966 28 28 30
2.207891300565962 2.9329539574164922 2.4195462784775468 31 31 33
2.1780689906046202 2.9289878228475095 2.435291296224606 34 34 36
2.226597424599947 2.897154080337291 2.4119009675133243 39 39 41
2.2439573713073826 2.87650837589729 2.404073011015201 41 41 43
2.27992343450064 2.8494255241166986 2.386940976846539 44 44 46
2.208650120235127 2.859859848265392 2.4234102907151396 43 43 45
2.2021357944159643 2.8475917287196655 2.4275139140727195 43 43 45
2.1981225148901977 2.8344495796643527 2.430367386710823 43 43 45
2.1925754117178604 2.8218300469643163 2.4339883236371986 42 41 46
2.1779333856751766 2.812298609115894 2.442160627028543 40 39 45
2.1666572356799785 2.801583191032614 2.448650943549456 38 37 43
2.1620161113483776 2.7886034542272786 2.4518215660268443 37 37 41
2.1248083716334256 2.786515263226571 2.4712991590954534 35 35 37
2.0927401924201443 2.782584467669764 2.4882104468217694 33 33 35
2.0420693929221434 2.7846922994262187 2.514447212846649 27 27 29
2.004901636818106 2.7821761045600972 2.5339289431893617 26 24 27
1.9805148543178306 2.7753514265363917 2.5470128826455145 23 21 24
1.939487890537771 2.773849232915852 2.568443140742114 21 19 22
1.8941741544998905 2.7735838910865267 2.5920313668006876 19 18 21
1.8736668165736852 2.7651949877980497 2.6031883093038926 17 17 19
1.8350748384389421 2.762507265512483 2.623420931453259 17 17 19
1.868488025077813 2.7368583132243645 2.607533390448436 19 19 21
1.8532921038951549 2.7266665495805467 2.616032310207372 19 19 21
1.8391561993112442 2.7160972335013778 2.6240017939538065 21 20 23
1.8076876557293151 2.7108793091576184 2.6406761371551197 25 24 29
1.7548568304231627 2.71215774683654 2.6680848991989348 25 24 30
1.7181210674761365 2.7082992881566263 2.687420107096637 28 27 34
1.6831537578847908 2.703771993372692 2.70587431278458 33 33 37
1.6552349564495186 2.696984463895248 2.7207934877681925 38 38 39
1.630044514522065 2.6892800798416987 2.734346756047856 43 43 46
1.4643693504986148 2.7235682080253647 2.818535260732092 50 49 54
1.3422025736496186 2.744282684046911 2.8808810201616972 55 54 59
1.1994068003672202 2.770638218795753 2.953629567795573 58 57 62
1.218943848785874 2.74877746208729 2.9447398499286277 62 62 64
1.2394291952332535 2.7267297636817625 2.935367707675991 68 68 70
1.7153963188639108 2.572748785710718 2.6967352777526625 71 71 73
1.6621469677359133 2.5729948915609158 2.7244219099519533 75 75 74
1.5950156602096686 2.5770202146481402 2.7591099150920235 79 79 77
1.520857597905143 2.582797501451282 2.7973512484912693 84 84 82
1.485134029428096 2.5774585813276683 2.8162461579970763 88 88 86
1.375067415905615 2.5928317099513714 2.8726084713350724 85 85 85
1.4691900725092077 2.5509623940667416 2.826084177130333 80 80 80
1.430379380905844 2.5462139550892933 2.8465506424548725 74 74 76
1.3313847941905195 2.5578524055812517 2.897370747964262 74 75 77
1.284553394611779 2.554906456269918 2.921904664452526 79 80 81
1.2151604642077394 2.557903103131292 2.9578291286514515 87 89 88
0.9750644965691344 2.6065325899050977 3.079896670416531 108 110 107
0.9958211401731577 2.5846435272377133 3.0703741532638853 144 144 142
0.9808233063390672 2.572322340633079 3.0788940943619316 186 186 184
0.9656652216698794 2.5600007661328172 3.0874974225275973 204 204 202
0.948642332146539 2.5481231425506996 3.097044978868851 206 206 205
0.9200341205945641 2.5391992576729656 3.1124472662663316 206 206 206
0.9829802271744666 2.506616677675801 3.081600316195622 206 206 206
0.9706409032636224 2.4935218802253014 3.088782341246475 206 206 206
0.21904853581868344 -1.465466384132749 3.7104367233283684 212 212 212
0.24709284118508795 -1.4743076769020869 3.696362858296264 211 211 211
0.27343139916534565 -1.4833802378031014 3.683189818780592 212 212 212
0.5297973731701648 -1.4478213289750126 3.547753260591883 211 211 211
0.5495806836257591 -1.4576422951152204 3.538033947076752 211 211 211
0.5745780157826876 -1.4663670785159884 3.525538366900314 211 211 211
0.5884735441327632 -1.4772054657931475 3.5189412295745717 210 210 210
0.6187509743556836 -1.4847198049445733 3.503628351654794 210 210 210
0.6184642741957544 -1.4982813095791951 3.5045676449557703 209 209 209
0.5839913706904496 -1.5187627495469114 3.5236942077650877 208 208 208
4.55077090968277 5.633490167743019 1.0558224885696486 193 191 192
4.545613617610018 5.625545810784223 1.0589744695605847 193 191 192
4.539347921743044 5.618763094557927 1.062638113757514 193 191 192
4.116367006972727 6.0380886775389095 1.2592802131940006 194 192 194
4.320081635146418 5.809221741065301 1.1661290089312184 195 193 194
4.098063831215563 6.028253951275121 1.2694058225585065 195 193 194
4.088739218687522 6.023467490563457 1.2745514129300834 196 194 195
4.068159535845851 6.030398681321092 1.2848970942555236 195 195 195
4.048468392197664 6.036310319786101 1.2948377102970443 196 196 196
4.0347278655740215 6.035950979860399 1.3020333888240279 198 198 198
3.798106909293358 6.266478243489776 1.41227142859586 199 199 199
3.7719914311351737 6.278202840516004 1.4252308063749486 200 200 200
3.503593441631909 6.539569294006964 1.5502801774927517 201 201 201
3.483551378867223 6.544163586302196 1.5604801437458686 203 202 203
3.4781840443414773 6.533618469647008 1.56389206273048 205 204 204
4.860482192861482 5.103548014809775 0.9247175207076398 206 204 205
4.875727698611248 5.075608156521153 0.918370979457854 206 204 205
4.867371489439424 5.0717805749062945 0.9229554972186548 205 205 205
4.848673268683296 5.078419549512016 0.9323356147033904 207 207 207
4.84069837885005 5.074116625887455 0.9367484812379707 208 208 208
4.829061803759976 5.073482297364125 0.9428614228484269 208 208 208
4.829588037741524 5.060549864108015 0.9433338136613327 209 209 209
4.8206219547060005 5.057168628260726 0.948211002676973 209 209 209
4.81013555790944 5.055276627249649 0.9537960158749175 209 209 209
4.819325127043545 5.0336802554326665 0.9502452178982986 209 209 209
4.809310327544177 5.031285863939897 0.955613001986596 209 209 209
1.514523705674317 4.323615741238362 2.716944015345763 207 207 207
1.5110804881953381 4.308297442216461 2.7196269865107547 207 207 207
1.48879222668451 4.302329754390775 2.73161007649167 207 207 207
1.4447193001915228 4.30704530612377 2.7543512798588665 207 206 207
1.4364620684476812 4.2939735681526505 2.7594181984507897 206 205 206
1.407644139254655 4.2909531007391415 2.774640621128064 195 195 195
1.3717733056654198 4.2912666267904775 2.7933532500998552 162 162 161
1.3305944833012067 4.29402247138782 2.814696456179193 116 116 114
1.307593633220682 4.28783295129837 2.8270644563508625 95 95 94
1.2947662050760864 4.27666593335705 2.8344077574942275 89 88 90
1.2101294192818748 4.299875925085604 2.8772617481360645 85 84 87
1.0908379467470286 4.339282493412377 2.937275681694706 82 81 84
2.0102825020838786 3.884747803824621 2.4834284134381397 85 84 87
1.9947295262943556 3.8762987686388173 2.4920378867873 87 85 88
2.0094067727917806 3.8535649356705552 2.485687294812864 88 87 89
2.0349262552108063 3.825824634421441 2.4739644416843443 83 84 86
2.053862209573753 3.8012781148235466 2.465494800474672 79 79 81
2.083986206039489 3.7716272733018466 2.451477981349057 76 77 79
2.1193232267960354 3.739705504770906 2.434870270705115 73 73 76
2.1487398960123536 3.7106713848852997 2.421187166738685 68 67 71
2.1498207161401783 3.6947619711428774 2.421541964215906 65 64 67
2.12190706152558 3.692100863410793 2.4362714379557064 63 62 65
2.096281556775616 3.688298851621734 2.449872020118189 59 59 62
2.1486750477567425 3.649130632340162 2.4247765651891924 54 53 57
2.1624455310762127 3.6275763317231804 2.4188313116534768 51 50 55
2.175237823496284 3.6065315480696367 2.4133674044605917 47 46 51
2.167536562753113 3.594692201296681 2.41807280879964 46 45 50
2.2333102165816348 3.550223899281213 2.386296822138953 45 44 49
2.203281423397045 3.548364789521168 2.4020844262180043 42 41 46
2.2213164602612885 3.5252614582615935 2.3940018381890003 40 39 44
2.1934357565883387 3.5223416616684955 2.408729051702473 39 38 43
2.217392789602125 3.4967409077997873 2.397698452794014 37 36 42
2.249940405166892 3.4675284796496575 2.38239075829142 35 34 39
2.2582007413077174 3.4489432953370955 2.3791512074029355 33 33 36
2.2919667880200576 3.419453161951178 2.3632233268430802 32 32 35
2.081755473679069 3.494384666264012 2.468660586825378 31 31 34
2.1219128444304656 3.461980632486115 2.4495636876640052 31 30 33
2.1586236003918886 3.4312141253004262 2.4321719054416975 31 30 33
2.3846908295394984 3.320849770752877 2.320502275711406 28 28 30
2.3790354011959933 3.308557984619204 2.324165543589432 27 27 29
2.3540577506009144 3.30431669920556 2.3374532136591495 27 27 29
2.3418893700648167 3.2946698620638513 2.3443645497010106 27 27 29
2.1883054413978567 3.3434001637970474 2.4217463602108715 27 27 29
2.2579661689183643 3.2997594596999003 2.387892837977403 27 27 29
2.325736959362969 3.257189073084912 2.354964349935546 27 27 29
2.4040133984225376 3.2106326147943487 2.316780403451333 29 29 31
2.4514767879394914 3.176884642074935 2.29394615274052 29 29 31
2.479310278353817 3.151251461931013 2.2808932499596026 28 28 30
2.5191382093209516 3.1209362327296786 2.261847693664638 28 28 30
2.2898786921563863 3.198118687535884 2.3771013414352677 26 26 28
2.382778046115286 3.146548048933781 2.331571414856772 26 26 28
2.448628648580134 3.106045319648966 2.299526135553649 26 26 28
2.279223875478242 3.1582243750883774 2.3849698943755073 26 26 28
2.2795020749470263 3.1434280222878033 2.3856794903962912 26 26 28
2.277443169374733 3.129554779917674 2.387556124110123 24 24 26
2.3518375233003237 3.08612026509396 2.3512189223065763 22 22 24
2.3441207126535692 3.074587863057547 2.355914712539491 21 21 23
2.3601072606946873 3.0539663828400254 2.348758398177322 20 20 22
2.330549257009112 3.050760879955249 2.364377957476853 20 20 22
2.3347257576800304 3.034675176627995 2.3631264626023185 20 20 23
2.3400714929985273 3.018179055197919 2.3612881382307562 18 17 21
2.3565285220595813 2.9975544501198903 2.3538863324178854 18 17 21
2.388859155285213 2.971093250411273 2.3385329869095077 19 18 22
2.173905467267114 3.036436494673344 2.4470005461588675 19 19 21
2.1683422740543516 3.0237364970422678 2.450639235987856 21 21 23
2.1463295695792093 3.0170594457874453 2.462519421512022 22 22 24
2.1210154195359787 3.0115120191073275 2.4760582648801854 24 24 26
2.0763395689460626 3.0128995207178777 2.4993065774494645 26 26 28
2.0268504133376464 3.0158587964786103 2.52497745312447 26 26 28
2.009747355680788 3.007017445484548 2.534419001911643 27 27 29
2.1397397112526213 2.9456490460713067 2.4700862191774995 27 27 29
2.1671250680862153 2.921209292408028 2.4571983685875405 26 26 28
2.234958692473077 2.8826231791635135 2.4240068777651382 30 30 32
2.2650776627069584 2.8575486001152033 2.4097282881799504 36 36 38
2.265444892724833 2.8429837204585917 2.410378021511158 38 38 40
2.232039592584342 2.840146268298399 2.427985266846289 30 30 33
2.2247972545247205 2.8281678208427325 2.432459071219943 29 28 32
2.212140734216593 2.8180302363893124 2.4396536532389796 27 27 30
2.1958428554910667 2.8090971494483328 2.448680060248826 25 24 26
2.17403935549507 2.8019789166154916 2.460476494468356 23 23 26
2.1636424314839715 2.7909444797349243 2.4665429946217103 23 23 25
2.1318305195706575 2.7870559850384677 2.483378941639025 20 20 22
2.097278087254099 2.7839682314283176 2.5015996484624523 17 17 19
2.0718283377267563 2.777744472511408 2.515248373386974 14 14 16
2.0269646371467416 2.7778230770680112 2.538670397894167 16 14 16
2.01455485738197 2.7671223222752706 2.5457686762682132 16 15 17
1.9824673501275398 2.762784970379604 2.562774464308705 17 16 18
1.9314326464122267 2.7644594299418643 2.5893266125125196 17 16 18
1.9023479973935074 2.7588959948867737 2.6048352295632498 16 16 18
1.8613296960381618 2.757042901387216 2.62636089893612 16 16 18
1.845372124530181 2.747089991114399 2.635268527680059 17 17 19
1.8247193517587068 2.738569287462651 2.6465451126202417 19 19 21
1.7820390905439805 2.736886380846977 2.6689287782085587 21 20 25
1.74043208280714 2.734716567763938 2.6907801521137023 27 26 31
1.7359252841168165 2.7209135110675415 2.6939309519450236 32 31 37
1.6909659140185307 2.719550859633263 2.717486201413213 39 38 44
1.675468976274408 2.7090211260916437 2.7261866262749592 45 44 49
1.659971259598748 2.6984452453287 2.734890124043263 50 50 51
1.664025263444116 2.6819221817791132 2.7337278622003636 54 53 56
1.6603060192423635 2.6677595313780675 2.736488198810929 57 56 61
1.72006047966886 2.6346849964453902 2.7071969875827757 61 60 65
1.7925753944115932 2.5980779324433545 2.6714467180596495 63 63 67
1.7785126164230722 2.587224760748177 2.6794169516705577 67 67 69
1.7613947435530923 2.5772233079428966 2.6889332617967665 71 71 73
1.7199305727014904 2.574235072401415 2.7107573349046428 75 75 77
1.6810794435957643 2.5703472960167355 2.7312689221725197 78 78 78
1.6340457630646317 2.568666785251377 2.7559256827831846 78 78 77
1.5400823942720472 2.580168074357182 2.804326227444375 75 75 74
1.4754196553651397 2.5830438835226968 2.8379251449721283 75 75 74
1.311330194931256 2.6135853548980896 2.9218435149125965 76 76 76
1.510005209063915 2.542412056616726 2.822213055732416 71 71 72
1.4566364989111578 2.541773725908732 2.8501175788154005 70 71 72
1.3696476056003284 2.5501858817166347 2.895054723687225 71 72 74
1.3240357902157953 2.5469853276210834 2.919056847190847 76 76 78
1.2508551684354159 2.551096796048795 2.9570321736023906 83 85 83
0.9878330040288787 2.6060357024346357 3.0912008567108056 94 95 94
0.9895286055727519 2.5892460729494626 3.09128548732254 119 120 118
0.9957129708014285 2.571286488684012 3.089093805967226 159 160 158
0.9821504023698318 2.558566689294639 3.096910689187041 195 196 194
0.9656913527253121 2.546567292343778 3.106198412163592 205 206 205
0.9378209237048727 2.5374824556115088 3.121276447692501 206 206 206
0.9149007055764184 2.527030563684434 3.1338486040064577 206 206 206
0.9983545719648749 2.4892933472569023 3.0924516157123763 206 206 206
0.37403404137632557 -1.4635900742250083 3.646833377396882 212 212 212
0.4536883149662185 -1.4621071807105537 3.6051544755748024 212 212 212
0.13650006852913188 -1.5520690720577088 3.775978856812128 212 212 212
0.24668435947048584 -1.544501709464394 3.7180065042358543 212 212 212
0.2834617429034719 -1.5512445710615717 3.699191957268268 211 211 211
0.2654261894469228 -1.568890778458924 3.709629132576589 211 211 211
0.35480163964760153 -1.5648121831443504 3.662724137534916 211 211 211
4.928389278486726 5.260613433956294 0.8916894370600617 193 191 192
4.557698725885109 5.631074674510049 1.0647585667907702 194 192 193
4.551897288861744 5.623826777990152 1.068214498432229 194 192 193
4.543179111593936 5.619657067616028 1.0730228546477967 194 192 193
4.530667035753362 5.619470579726893 1.0795915376733851 194 192 193
