ply
format ascii 1.0
element vertex 889
property float x
property float y
property float z
property float nx
property float ny
property float nz
property uchar diffuse_red
property uchar diffuse_green
property uchar diffuse_blue
property uchar class
property uchar detection
end_header
1.2792 3.2982 -0.2129 0.341 -0.920 -0.193 176 175 173 0 0
1.3366 2.9309 -0.1788 0.716 -0.521 -0.464 51 49 54 0 0
1.3278 2.9191 -0.1761 0.454 -0.787 -0.417 51 48 54 0 0
1.0465 2.7555 -0.1157 0.881 -0.183 -0.436 41 41 43 0 0
1.2478 3.2510 -0.1879 0.771 -0.325 -0.549 145 145 144 0 0
1.2647 2.8708 -0.1466 0.261 -0.668 -0.697 56 54 57 0 0
0.9766 2.6107 -0.0737 0.581 -0.511 -0.634 36 35 40 0 0
0.6949 2.4629 -0.0147 0.818 -0.286 -0.499 64 64 66 0 0
1.3674 2.8905 -0.1496 0.367 -0.302 -0.880 82 82 80 0 0
1.3620 2.8772 -0.1473 0.367 -0.302 -0.880 65 65 65 0 0
1.1593 2.7765 -0.1052 0.168 -0.541 -0.824 24 23 28 0 0
0.9843 2.6101 -0.0598 0.723 -0.427 -0.542 36 36 39 0 0
1.3740 2.8902 -0.1360 0.479 -0.270 -0.835 74 74 75 0 0
1.0079 2.6510 -0.0531 0.828 -0.194 -0.527 22 21 27 0 0
1.0022 2.6213 -0.0488 0.595 -0.218 -0.774 35 35 37 0 0
0.9968 2.6075 -0.0464 0.560 -0.418 -0.716 37 37 40 0 0
1.2670 3.1848 -0.1385 0.539 -0.534 -0.651 48 49 51 0 0
1.3915 2.8849 -0.1235 0.629 -0.265 -0.731 48 47 51 0 0
1.3877 2.8708 -0.1213 0.552 -0.233 -0.801 65 65 66 0 0
1.0873 2.7006 -0.0559 0.758 -0.470 -0.452 36 36 38 0 0
1.0043 2.6070 -0.0326 0.420 -0.669 -0.613 35 33 35 0 0
1.4006 2.8834 -0.1102 0.640 -0.345 -0.687 29 28 33 0 0
1.4012 2.8674 -0.1085 0.661 -0.298 -0.688 31 30 35 0 0
1.1072 2.7108 -0.0453 0.511 -0.544 -0.666 50 50 52 0 0
1.0963 2.6994 -0.0423 0.873 -0.482 -0.072 61 61 63 0 0
0.9664 2.5928 -0.0101 0.235 -0.951 -0.200 33 32 35 0 0
0.9700 2.5754 -0.0087 0.321 -0.571 -0.756 25 24 27 0 0
1.2809 2.7501 -0.0620 0.319 -0.365 -0.875 50 50 52 0 0
1.2670 2.7403 -0.0587 0.397 -0.396 -0.828 53 53 55 0 0
1.2516 2.7311 -0.0553 0.455 -0.413 -0.789 52 52 54 0 0
1.1344 2.7178 -0.0354 0.484 -0.640 -0.597 49 49 51 0 0
1.3388 3.2892 -0.1167 0.714 -0.692 -0.107 60 58 62 0 0
1.2880 2.7338 -0.0466 0.382 -0.473 -0.794 52 52 54 0 0
1.2709 2.7254 -0.0430 0.383 -0.486 -0.786 56 56 58 0 0
1.2527 2.7175 -0.0392 0.291 -0.593 -0.751 55 56 58 0 0
1.2397 2.7073 -0.0360 0.130 -0.933 -0.336 52 53 55 0 0
0.8920 2.4991 0.0422 0.745 -0.568 -0.351 26 26 29 0 0
0.8863 2.4853 0.0446 0.573 -0.530 -0.625 28 28 33 0 0
0.7133 2.4544 0.0754 0.767 -0.641 -0.016 36 35 40 0 0
0.7086 2.4399 0.0778 0.916 -0.401 -0.003 40 39 43 0 0
1.3634 3.3126 -0.1083 0.990 -0.061 -0.128 62 60 63 0 0
1.3390 3.2593 -0.0985 0.738 -0.624 -0.257 57 57 59 0 0
1.4097 2.8086 -0.0597 0.786 -0.264 -0.558 27 27 29 0 0
1.2801 2.7240 -0.0296 0.322 -0.426 -0.846 56 56 58 0 0
1.2703 2.7125 -0.0267 0.318 -0.506 -0.801 62 63 65 0 0
1.0721 2.7173 0.0043 0.372 -0.302 0.878 50 49 54 0 0
0.8858 2.5039 0.0578 0.914 -0.378 -0.149 28 28 31 0 0
0.8745 2.4923 0.0609 0.992 -0.061 -0.115 38 38 43 0 0
0.8842 2.4725 0.0615 0.580 -0.763 -0.285 24 23 29 0 0
0.7372 2.4479 0.0877 0.685 -0.709 0.165 31 29 34 0 0
1.3653 3.3146 -0.0940 0.990 -0.061 -0.128 48 48 51 0 0
1.4353 3.0371 -0.0745 0.772 -0.131 -0.622 91 91 93 0 0
1.4191 3.0288 -0.0710 0.707 -0.467 -0.531 65 65 67 0 0
1.2829 2.7097 -0.0138 0.279 -0.301 -0.912 59 60 63 0 0
0.9203 2.5090 0.0668 0.465 -0.862 -0.204 28 27 32 0 0
0.9042 2.4992 0.0705 0.543 -0.811 -0.216 31 30 35 0 0
1.3746 3.3294 -0.0822 0.880 -0.202 -0.430 57 55 59 0 0
1.3674 3.3166 -0.0796 0.946 -0.283 -0.158 47 47 49 0 0
1.3416 3.2803 -0.0714 0.917 -0.290 0.272 46 46 48 0 0
1.3653 3.3042 -0.0630 0.877 -0.046 -0.478 41 41 43 0 0
1.3688 3.2861 -0.0616 0.822 0.057 -0.567 40 40 42 0 0
1.3731 3.2675 -0.0602 0.716 -0.316 -0.622 47 47 49 0 0
1.3904 3.2425 -0.0603 0.625 0.486 -0.610 44 44 46 0 0
1.4398 3.0565 -0.0481 0.883 0.289 -0.369 75 74 72 0 0
1.4845 2.9083 -0.0392 0.904 -0.426 0.040 23 23 25 0 0
1.4294 2.7607 -0.0140 0.816 -0.176 -0.551 21 21 23 0 0
1.5106 3.0730 -0.0469 0.417 -0.505 -0.756 41 40 40 0 0
1.4607 3.0493 -0.0361 0.863 -0.005 -0.505 56 56 54 0 0
1.4952 2.9376 -0.0296 0.579 -0.767 -0.277 26 26 28 0 0
1.4885 2.9092 -0.0254 0.781 -0.600 -0.173 23 23 25 0 0
1.3396 2.6773 0.0244 0.495 -0.704 -0.509 52 52 54 0 0
1.3173 2.6712 0.0288 0.507 -0.522 -0.686 66 68 70 0 0
1.4101 3.3696 -0.0477 0.680 -0.687 -0.256 58 58 61 0 0
1.5031 2.9366 -0.0163 0.841 -0.421 -0.340 25 25 27 0 0
1.4816 2.9309 -0.0121 0.559 -0.774 -0.297 25 25 27 0 0
1.4732 2.9190 -0.0094 0.510 -0.358 -0.782 24 24 26 0 0
1.3781 2.6946 0.0308 0.378 -0.829 -0.412 37 38 40 0 0
1.3652 2.6845 0.0340 0.510 -0.788 -0.346 43 43 45 0 0
1.3537 2.6738 0.0371 0.696 -0.611 -0.378 49 48 51 0 0
1.4302 3.3787 -0.0371 0.848 -0.510 -0.143 55 55 57 0 0
1.3831 3.3536 -0.0265 0.584 -0.665 0.466 48 48 50 0 0
1.4105 3.3231 -0.0278 0.776 0.118 -0.620 52 52 54 0 0
1.4800 2.9344 0.0023 0.921 -0.123 -0.369 27 27 29 0 0
1.4699 2.9233 0.0052 0.642 -0.765 -0.037 25 25 27 0 0
1.3643 2.6718 0.0501 0.858 -0.493 -0.141 46 44 47 0 0
1.3586 2.6586 0.0525 0.973 0.027 -0.231 65 66 68 0 0
1.3451 2.6488 0.0558 0.870 -0.434 -0.234 77 77 79 0 0
1.4329 3.3147 -0.0158 0.875 0.351 -0.332 52 52 54 0 0
1.4710 2.9573 0.0160 0.837 -0.348 -0.423 24 24 26 0 0
1.4718 2.9093 0.0210 0.820 -0.395 -0.414 21 21 23 0 0
1.3688 2.6724 0.0639 0.923 -0.385 0.011 43 40 43 0 0
1.3619 2.6598 0.0664 0.973 0.027 -0.231 58 58 60 0 0
1.4553 3.3882 -0.0126 0.725 0.056 -0.686 54 54 57 0 0
1.4343 3.3827 -0.0084 0.716 -0.684 -0.137 45 45 47 0 0
1.5029 2.8034 0.0415 0.694 -0.320 -0.645 30 30 32 0 0
1.4506 2.7175 0.0597 0.534 -0.737 -0.415 23 21 24 0 0
1.3725 2.6735 0.0778 0.952 -0.254 -0.173 42 41 46 0 0
1.3823 2.6536 0.0782 0.814 0.172 -0.555 50 48 52 0 0
1.4547 3.4081 0.0004 0.833 -0.518 -0.195 62 62 61 0 0
1.4469 3.3957 0.0030 0.783 -0.593 -0.187 57 57 58 0 0
1.4380 3.3838 0.0058 0.716 -0.684 -0.137 48 47 53 0 0
1.4821 2.9576 0.0433 0.871 -0.385 -0.304 18 18 20 0 0
1.3873 2.6696 0.0902 0.805 0.054 -0.590 43 42 47 0 0
1.3951 2.6506 0.0909 0.761 0.186 -0.621 50 48 52 0 0
1.4857 2.9586 0.0572 0.730 -0.291 -0.618 15 15 17 0 0
1.5067 2.9329 0.0563 0.336 -0.774 -0.537 19 19 21 0 0
1.5383 2.8866 0.0556 0.866 -0.476 -0.150 26 26 28 0 0
0.8747 2.4043 0.2223 0.001 -0.359 -0.933 46 46 48 0 0
1.5795 3.1229 0.0381 0.688 -0.137 -0.712 41 40 42 0 0
1.4993 2.9550 0.0699 0.670 -0.384 -0.635 13 13 15 0 0
1.5210 2.9289 0.0688 0.562 -0.774 -0.293 18 18 20 0 0
1.5477 2.8849 0.0687 0.776 -0.601 -0.190 26 26 28 0 0
1.4843 3.4348 0.0372 0.814 -0.500 -0.296 49 49 49 0 0
1.5065 2.9543 0.0833 0.765 -0.080 -0.639 13 13 15 0 0
1.4151 2.6653 0.1296 0.744 -0.103 -0.660 38 37 41 0 0
0.9475 2.3342 0.2471 0.346 -0.104 -0.932 47 47 48 0 0
0.9489 2.3179 0.2486 0.265 -0.226 -0.937 55 55 55 0 0
0.9798 2.3088 0.2591 0.275 -0.416 -0.867 44 44 44 0 0
1.4935 2.7142 0.1396 0.949 -0.210 0.235 12 10 13 0 0
1.4393 2.7069 0.1502 0.655 -0.755 0.017 12 10 13 0 0
1.4282 2.6961 0.1533 0.762 -0.644 0.072 12 11 13 0 0
1.4299 2.6641 0.1563 0.928 -0.041 -0.371 21 21 24 0 0
1.3208 2.4454 0.1985 0.128 -0.983 -0.133 61 61 62 0 0
1.0048 2.3019 0.2704 0.275 -0.416 -0.867 44 44 44 0 0
1.0046 2.2863 0.2720 0.218 -0.749 -0.626 49 49 49 0 0
0.9740 2.2818 0.2780 0.069 -0.774 -0.630 60 60 60 0 0
1.3199 2.4482 0.2130 -0.058 -0.901 -0.430 49 49 49 0 0
1.0203 2.2829 0.2845 0.171 -0.848 -0.501 50 50 52 0 0
1.0098 2.2710 0.2876 0.198 -0.845 -0.497 51 51 53 0 0
1.3194 2.4664 0.2259 0.597 0.453 -0.662 28 28 30 0 0
1.0371 2.2790 0.2968 0.171 -0.848 -0.501 51 51 53 0 0
1.2539 2.4173 0.2577 0.851 -0.269 -0.451 48 48 49 0 0
1.0529 2.2755 0.3093 0.155 -0.861 -0.485 36 35 39 0 0
1.0428 2.2636 0.3124 0.231 -0.888 -0.397 46 45 49 0 0
1.5343 3.0055 0.1610 0.595 0.058 -0.801 14 14 16 0 0
1.5663 2.9743 0.1581 0.461 -0.071 -0.885 13 13 15 0 0
1.4554 2.8678 0.1896 0.633 -0.593 0.497 21 21 23 0 0
1.5538 2.6979 0.1882 0.775 -0.187 -0.604 35 35 37 0 0
1.2581 2.4180 0.2716 0.890 -0.396 -0.226 30 30 33 0 0
1.0539 2.2618 0.3255 0.255 -0.943 -0.214 36 36 40 0 0
1.5418 2.7058 0.2042 0.906 -0.320 -0.278 25 25 27 0 0
1.5590 2.6827 0.2033 0.997 0.025 -0.075 25 25 27 0 0
1.4067 2.4847 0.2518 -0.070 -0.625 -0.778 11 11 13 0 0
1.3782 2.4809 0.2575 0.147 -0.416 -0.897 12 12 14 0 0
1.0733 2.2726 0.3357 0.193 -0.901 -0.389 22 22 24 0 0
0.9575 2.2364 0.3612 -0.138 -0.983 -0.122 60 62 62 0 0
0.8099 2.2415 0.3885 -0.185 -0.942 -0.281 60 60 62 0 0
1.5445 2.7072 0.2181 0.948 -0.300 -0.109 15 15 17 0 0
1.5432 2.6612 0.2229 0.898 -0.003 0.439 14 14 16 0 0
1.4371 2.4747 0.2616 0.088 -0.694 -0.714 11 11 13 0 0
1.2651 2.4201 0.2997 0.899 -0.398 0.181 16 16 18 0 0
1.0828 2.2714 0.3490 0.214 -0.949 -0.230 22 22 24 0 0
0.9154 2.2380 0.3842 -0.137 -0.979 -0.148 54 54 56 0 0
1.5650 2.9516 0.2046 0.795 -0.259 -0.548 18 18 20 0 0
1.5778 2.6641 0.2305 0.666 -0.657 -0.354 15 14 19 0 0
1.5682 2.6528 0.2335 0.666 -0.657 -0.354 16 16 19 0 0
1.2652 2.4224 0.3142 0.925 0.032 0.379 14 14 16 0 0
1.0752 2.2766 0.3650 0.877 0.012 0.480 22 22 24 0 0
0.9343 2.2335 0.3962 -0.137 -0.979 -0.148 52 52 54 0 0
0.8707 2.2404 0.4077 -0.145 -0.971 -0.192 48 48 50 0 0
0.8089 2.2464 0.4189 -0.155 -0.966 -0.209 50 50 52 0 0
0.8009 2.2333 0.4218 -0.185 -0.942 -0.281 59 59 61 0 0
1.5721 2.9827 0.2149 0.936 -0.058 -0.348 14 14 16 0 0
1.5718 2.9670 0.2165 0.936 -0.058 -0.348 14 14 16 0 0
1.5749 2.6525 0.2467 0.666 -0.657 -0.354 18 18 20 0 0
1.4805 2.6160 0.2685 0.920 0.032 -0.390 14 12 15 0 0
1.4677 2.6060 0.2719 0.898 0.035 -0.439 12 11 13 0 0
1.3928 2.5132 0.2955 0.973 0.226 -0.045 10 10 12 0 0
1.3883 2.4996 0.2977 0.972 0.114 -0.205 10 10 12 0 0
1.3992 2.4796 0.2976 0.825 0.354 -0.440 11 11 13 0 0
0.8905 2.2357 0.4197 -0.130 -0.979 -0.155 47 47 48 0 0
0.8381 2.2384 0.4295 -0.139 -0.977 -0.160 47 47 49 0 0
1.5784 2.9825 0.2284 0.862 -0.340 -0.377 18 18 20 0 0
1.3951 2.5148 0.3096 0.977 0.124 0.175 10 10 12 0 0
1.2657 2.4427 0.3418 0.890 -0.440 0.118 13 13 15 0 0
1.2788 2.3908 0.3443 0.754 -0.651 -0.088 23 23 25 0 0
1.2690 2.3791 0.3473 0.754 -0.651 -0.088 19 19 21 0 0
1.2607 2.3668 0.3502 0.862 -0.443 -0.245 15 15 17 0 0
0.8501 2.2365 0.4428 -0.116 -0.984 -0.134 46 46 49 0 0
0.7824 2.2285 0.4567 -0.183 -0.953 -0.243 61 61 64 0 0
1.6012 3.0060 0.2363 0.926 -0.374 -0.053 12 12 14 0 0
1.5851 2.9821 0.2418 0.896 -0.443 -0.035 16 16 18 0 0
1.5287 2.6779 0.2823 0.440 0.365 -0.821 26 26 28 0 0
1.4016 2.5457 0.3200 0.848 -0.488 -0.206 14 14 16 0 0
1.3963 2.5323 0.3224 0.871 0.291 -0.397 12 12 14 0 0
1.3973 2.5163 0.3237 0.960 0.260 -0.108 11 11 13 0 0
1.2767 2.3940 0.3592 0.948 -0.311 0.063 17 17 19 0 0
0.8802 2.2280 0.4530 -0.100 -0.988 -0.121 44 43 48 0 0
1.6013 3.0248 0.2492 0.721 -0.685 0.103 12 12 14 0 0
1.6029 3.0081 0.2505 0.926 -0.374 -0.053 11 11 13 0 0
1.3965 2.8980 0.3019 0.488 0.646 -0.587 11 11 13 0 0
1.4005 2.5486 0.3347 0.903 -0.291 -0.316 16 16 18 0 0
1.3988 2.5182 0.3380 0.978 0.143 -0.154 13 13 15 0 0
1.2536 2.4211 0.3760 0.959 -0.263 -0.110 14 14 16 0 0
1.6139 3.0374 0.2602 0.761 -0.634 0.140 25 25 27 0 0
1.6040 3.0262 0.2632 0.761 -0.634 0.140 22 22 24 0 0
1.3741 2.9272 0.3185 0.620 0.696 -0.361 11 11 13 0 0
1.5180 2.6879 0.3127 0.894 -0.420 -0.156 30 30 32 0 0
1.3968 2.5215 0.3528 1.000 0.029 0.010 17 17 19 0 0
1.3938 2.4762 0.3577 0.609 -0.773 0.178 24 24 26 0 0
1.2681 2.3401 0.3958 0.856 -0.381 -0.350 18 18 20 0 0
1.6201 3.0531 0.2722 0.775 -0.618 0.131 10 10 12 0 0
1.6120 3.0411 0.2749 0.773 -0.565 0.287 10 10 12 0 0
1.6040 3.0291 0.2777 0.798 -0.589 0.127 15 15 17 0 0
1.4158 2.9589 0.3221 -0.158 -0.895 0.416 18 18 20 0 0
1.3872 2.9400 0.3297 0.830 0.556 -0.027 15 15 17 0 0
1.5615 2.7024 0.3173 0.924 -0.379 0.057 28 28 30 0 0
1.5290 2.7012 0.3239 0.721 -0.565 0.402 31 31 33 0 0
1.3760 2.6424 0.3602 0.924 -0.266 -0.275 32 32 34 0 0
1.3938 2.5721 0.3633 0.924 -0.368 -0.100 26 26 28 0 0
1.3966 2.5241 0.3673 1.000 0.029 0.010 22 22 24 0 0
1.5671 2.7025 0.3307 0.834 -0.549 0.056 30 30 32 0 0
1.3960 2.5737 0.3775 0.913 -0.382 -0.145 28 28 30 0 0
1.3974 2.5263 0.3817 0.998 -0.043 -0.034 29 29 31 0 0
1.3284 2.4299 0.4048 0.323 -0.538 -0.779 30 30 32 0 0
1.4094 2.5862 0.3884 0.927 -0.319 -0.198 32 32 34 0 0
1.4023 2.5267 0.3954 0.982 0.006 -0.189 29 29 31 0 0
1.3946 2.5143 0.3982 0.970 -0.234 -0.066 29 29 31 0 0
1.3333 2.4459 0.4171 0.819 -0.084 -0.567 37 37 39 0 0
1.3149 2.4377 0.4216 0.986 0.067 -0.152 36 36 38 0 0
0.8125 2.2317 0.5433 -0.029 -0.983 -0.184 38 38 41 0 0
0.7532 2.2365 0.5550 -0.013 -0.982 -0.191 41 41 45 0 0
1.3179 2.4078 0.4386 0.992 -0.129 0.001 36 36 38 0 0
0.8786 2.2265 0.5458 0.209 -0.977 0.043 34 35 37 0 0
0.8270 2.2288 0.5561 -0.029 -0.983 -0.184 37 37 39 0 0
1.4320 2.6443 0.4080 0.819 -0.573 0.039 37 37 39 0 0
1.4109 2.5438 0.4217 0.843 -0.438 -0.313 33 33 35 0 0
1.4089 2.5290 0.4234 0.987 0.109 -0.120 31 31 33 0 0
1.4125 2.5119 0.4243 0.993 -0.050 -0.105 31 31 33 0 0
1.4081 2.4982 0.4264 0.934 -0.357 -0.030 32 32 34 0 0
1.3771 2.4953 0.4331 0.715 -0.343 0.609 34 34 36 0 0
0.8700 2.2319 0.5625 0.023 -0.977 -0.210 32 33 35 0 0
0.8226 2.2327 0.5722 -0.012 -0.974 -0.224 35 35 37 0 0
0.7817 2.2311 0.5808 -0.013 -0.982 -0.191 38 38 40 0 0
1.5912 2.9698 0.3597 0.735 -0.192 -0.650 22 22 24 0 0
1.4198 2.6365 0.4261 0.995 -0.070 -0.078 36 36 38 0 0
1.2701 2.3536 0.4833 0.835 -0.357 -0.419 29 30 34 0 0
0.9402 2.2568 0.5610 0.397 -0.529 0.750 27 28 30 0 0
1.6079 3.6176 0.3118 0.426 -0.822 0.377 50 50 52 0 0
1.6034 3.0306 0.3664 0.928 0.100 -0.359 15 15 17 0 0
1.3096 2.4496 0.4812 0.844 -0.192 -0.501 39 39 41 0 0
1.2382 2.3527 0.5050 0.517 -0.810 0.277 34 35 39 0 0
0.9134 2.2688 0.5809 0.383 -0.435 0.815 27 26 31 0 0
1.5489 3.7218 0.3300 0.658 0.656 -0.370 172 171 169 0 0
1.5587 3.7196 0.3435 0.658 0.656 -0.370 172 171 169 0 0
1.6296 3.6455 0.3351 0.992 0.103 -0.066 101 100 100 0 0
1.4131 2.6156 0.4740 0.828 -0.548 -0.116 34 34 36 0 0
1.6356 3.6454 0.3490 0.953 -0.283 -0.110 96 94 96 0 0
1.6193 2.9835 0.4117 0.394 -0.918 -0.046 18 18 20 0 0
1.4173 2.6164 0.4880 0.780 -0.601 -0.172 32 32 34 0 0
1.5609 3.6404 0.3808 0.323 -0.851 0.415 39 40 43 0 0
1.6274 2.9824 0.4249 0.709 -0.647 -0.279 16 16 18 0 0
1.5386 2.7389 0.4658 0.309 -0.936 0.169 27 27 29 0 0
1.4922 2.7439 0.4754 0.327 -0.882 0.338 28 28 30 0 0
1.0646 2.3815 0.6001 0.928 0.030 0.371 42 42 44 0 0
1.5568 3.6460 0.3965 0.180 -0.983 -0.032 40 39 42 0 0
1.6239 2.9869 0.4401 0.953 0.069 -0.295 16 16 18 0 0
1.4917 2.7468 0.4901 0.423 -0.844 0.330 26 26 28 0 0
1.0732 2.4125 0.6108 0.884 -0.427 0.189 43 43 45 0 0
1.0705 2.3976 0.6127 0.901 -0.248 0.355 43 43 45 0 0
0.7661 2.2852 0.6890 0.729 0.553 0.403 21 21 24 0 0
1.4891 2.7665 0.5039 0.792 -0.399 0.461 22 22 24 0 0
1.4897 2.7504 0.5051 0.699 -0.715 0.013 24 24 26 0 0
1.0949 2.4225 0.6205 0.650 -0.367 -0.665 41 41 43 0 0
1.0902 2.4084 0.6228 0.627 -0.394 -0.672 42 42 44 0 0
1.6327 2.9883 0.4677 0.899 -0.317 -0.302 16 16 18 0 0
1.4807 2.7729 0.5201 0.832 -0.353 0.429 21 21 23 0 0
1.3897 2.6543 0.5505 0.870 -0.483 -0.095 28 28 30 0 0
1.0878 2.4117 0.6384 0.438 0.213 -0.873 38 38 40 0 0
1.0958 2.3927 0.6383 0.533 0.226 -0.815 38 38 40 0 0
0.6960 2.2824 0.7363 0.748 0.660 0.062 21 21 23 0 0
0.7166 2.2588 0.7337 0.830 0.557 0.014 26 26 28 0 0
0.7069 2.2459 0.7370 0.874 -0.265 -0.407 29 29 31 0 0
1.6399 3.0036 0.4797 0.877 -0.226 -0.424 16 16 18 0 0
1.6375 2.9888 0.4815 0.899 -0.317 -0.302 16 16 18 0 0
1.4824 2.7748 0.5345 0.772 -0.607 0.189 19 19 21 0 0
0.7149 2.2617 0.7497 0.795 0.606 -0.023 23 23 25 0 0
0.6981 2.2514 0.7544 0.903 0.403 -0.146 27 27 29 0 0
0.6900 2.2379 0.7573 0.574 -0.529 -0.626 33 33 35 0 0
1.6402 3.0063 0.4943 0.965 0.035 -0.261 17 17 19 0 0
1.6468 2.9712 0.4958 0.671 -0.678 -0.300 16 16 18 0 0
1.4942 2.7881 0.5457 0.777 -0.454 0.435 15 15 17 0 0
1.4799 2.7786 0.5497 0.630 -0.770 0.100 15 15 17 0 0
1.4732 2.7657 0.5523 0.799 -0.584 0.144 17 17 19 0 0
1.3483 2.5504 0.5988 0.876 -0.066 -0.478 26 26 28 0 0
1.3597 2.5300 0.5980 0.822 -0.424 -0.380 27 27 29 0 0
1.3360 2.5240 0.6039 0.401 -0.749 -0.526 28 28 30 0 0
1.2092 2.4804 0.6360 0.596 -0.734 -0.325 34 34 34 0 0
0.6869 2.2739 0.7708 0.788 0.615 -0.023 20 20 22 0 0
0.7000 2.2530 0.7697 0.917 0.355 -0.181 24 24 26 0 0
0.7037 2.2354 0.7704 0.949 0.280 -0.144 28 28 30 0 0
1.6391 3.0257 0.5078 0.811 0.504 -0.298 17 17 19 0 0
1.4562 2.7601 0.5717 0.647 -0.745 -0.165 16 16 18 0 0
0.6776 2.2796 0.7884 0.751 0.660 -0.026 17 17 19 0 0
0.7005 2.2552 0.7853 0.913 0.311 -0.265 20 20 22 0 0
1.6414 3.0274 0.5220 0.848 0.477 -0.233 17 17 19 0 0
1.4845 2.7660 0.5798 0.686 -0.723 -0.082 13 13 15 0 0
1.4650 2.7589 0.5848 0.831 -0.511 -0.219 14 14 16 0 0
1.3592 2.6778 0.6157 0.750 -0.629 -0.205 20 20 22 0 0
1.4896 2.7664 0.5936 0.904 -0.428 0.012 12 12 14 0 0
1.4692 2.7597 0.5988 0.831 -0.511 -0.219 13 13 15 0 0
1.4555 2.7525 0.6176 0.821 -0.325 -0.469 13 13 15 0 0
1.2209 2.4857 0.6940 0.820 -0.562 0.107 20 18 23 0 0
1.6248 3.0442 0.5693 0.960 0.264 0.096 18 18 20 0 0
1.6488 2.9684 0.5700 0.931 -0.233 0.281 16 16 18 0 0
1.4627 2.7520 0.6311 0.811 -0.294 -0.506 13 13 15 0 0
1.2830 2.4160 0.7006 0.656 -0.660 -0.366 20 18 22 0 0
1.2739 2.4038 0.7037 0.917 -0.385 -0.106 20 18 22 0 0
1.2685 2.3902 0.7061 0.854 -0.482 -0.195 19 19 21 0 0
1.6270 3.0299 0.5850 0.941 0.304 0.151 17 17 19 0 0
1.4670 2.7368 0.6464 0.811 -0.306 -0.498 13 13 15 0 0
1.4759 2.7012 0.6473 0.646 -0.123 -0.753 16 16 18 0 0
1.4731 2.6865 0.6491 0.666 -0.177 -0.724 13 13 15 0 0
1.2398 2.4990 0.7191 -0.060 -0.989 -0.136 14 13 18 0 0
1.2856 2.4174 0.7151 0.712 -0.652 -0.262 16 15 20 0 0
1.2754 2.4057 0.7184 0.904 -0.423 -0.060 17 15 20 0 0
1.2687 2.3926 0.7210 0.754 -0.625 -0.203 17 17 19 0 0
1.4522 2.7302 0.6656 0.606 -0.796 0.003 13 13 15 0 0
1.4467 2.7008 0.6693 0.940 -0.247 -0.234 13 13 15 0 0
1.2880 2.4347 0.7283 0.449 -0.777 -0.442 15 14 19 0 0
1.7688 3.3354 0.5568 0.862 0.456 -0.223 22 22 24 0 0
1.4438 2.7206 0.6834 0.808 -0.588 0.028 11 11 13 0 0
1.4509 2.7016 0.6833 0.986 -0.044 -0.159 12 12 14 0 0
1.8072 3.2885 0.5813 0.684 0.633 -0.363 18 18 20 0 0
1.5905 2.9815 0.6729 0.833 0.200 0.515 14 14 16 0 0
1.5250 2.7879 0.7040 0.361 -0.880 -0.308 11 11 13 0 0
1.4673 2.7980 0.7171 0.081 -0.646 -0.759 11 11 13 0 0
1.4953 2.7694 0.7126 0.961 0.271 0.048 12 12 14 0 0
1.8176 3.2891 0.6087 0.787 0.607 -0.107 19 19 21 0 0
1.5849 2.9871 0.6889 0.828 0.318 0.462 13 13 15 0 0
1.4858 2.7924 0.7283 0.523 -0.722 0.453 11 11 13 0 0
1.4820 2.7622 0.7316 0.498 -0.785 -0.370 12 12 14 0 0
1.7872 3.3574 0.6258 0.980 -0.050 -0.194 29 29 31 0 0
1.7839 3.3428 0.6277 0.880 0.464 -0.104 26 26 28 0 0
1.6127 2.9284 0.7018 0.858 -0.511 0.052 19 19 21 0 0
1.5363 2.8201 0.7289 0.547 -0.745 0.383 17 18 20 0 0
1.4803 2.7816 0.7456 0.639 -0.646 -0.417 12 12 14 0 0
1.4799 2.7658 0.7470 0.633 -0.628 -0.452 12 12 14 0 0
1.4710 2.7060 0.7538 0.949 -0.147 -0.280 10 10 12 0 0
1.7057 3.7229 0.6327 0.644 0.058 -0.763 61 62 62 0 0
1.7875 3.3767 0.6393 0.896 0.321 0.308 31 31 33 0 0
1.7929 3.3575 0.6394 0.892 0.112 0.438 29 29 31 0 0
1.8121 3.3307 0.6368 0.958 -0.010 0.285 28 28 30 0 0
1.8098 3.3157 0.6385 0.982 -0.133 0.134 24 24 26 0 0
1.5162 2.8001 0.7506 0.361 -0.896 0.257 16 16 18 0 0
1.4894 2.7962 0.7575 0.666 -0.502 -0.552 14 14 16 0 0
1.4874 2.7811 0.7591 0.437 -0.630 -0.642 13 13 15 0 0
1.4831 2.7511 0.7625 0.703 -0.622 -0.345 13 13 15 0 0
1.4711 2.7405 0.7663 0.585 -0.578 -0.569 13 13 15 0 0
1.4682 2.7258 0.7681 0.724 -0.541 -0.428 13 13 15 0 0
1.4668 2.7105 0.7697 0.824 -0.380 -0.420 11 11 13 0 0
1.4667 2.6946 0.7709 0.859 -0.237 -0.454 11 11 13 0 0
1.7991 3.3736 0.6517 0.765 0.330 0.553 34 34 36 0 0
1.6844 2.9636 0.7115 0.143 -0.986 0.081 12 11 14 0 0
1.6242 2.9125 0.7304 1.000 0.004 -0.026 22 22 24 0 0
1.5016 2.8094 0.7686 0.457 -0.758 0.466 22 22 24 0 0
1.5002 2.7781 0.7714 0.433 -0.583 -0.688 16 16 18 0 0
1.4673 2.7129 0.7845 0.546 -0.525 -0.653 12 12 14 0 0
1.4477 2.6578 0.7936 0.916 -0.359 -0.178 10 10 12 0 0
1.7827 3.3857 0.6700 0.743 0.391 0.543 35 35 37 0 0
1.6246 2.9152 0.7452 1.000 0.004 -0.026 22 22 24 0 0
1.5944 2.8974 0.7540 0.889 -0.454 0.062 18 19 21 0 0
1.4905 2.7531 0.7909 0.657 -0.407 -0.635 19 17 20 0 0
1.6477 3.8357 0.6852 0.813 0.577 0.078 170 170 167 0 0
1.5937 2.8845 0.7703 0.905 -0.382 0.185 23 24 26 0 0
1.7071 2.9611 0.7511 0.163 -0.986 0.047 14 14 16 0 0
1.5102 2.8298 0.8106 0.650 -0.759 -0.037 37 37 39 0 0
1.5433 2.7987 0.8046 0.680 -0.729 0.084 38 38 40 0 0
1.4358 2.6549 0.8425 0.696 -0.651 -0.303 14 14 16 0 0
1.5409 3.3587 0.7790 0.866 0.260 -0.428 17 17 19 0 0
1.6862 2.9581 0.7716 0.064 -0.997 -0.053 13 13 15 0 0
1.5795 2.8487 0.8069 0.718 -0.413 0.560 30 30 33 0 0
1.4446 2.6696 0.8544 0.870 -0.484 -0.094 23 23 25 0 0
1.4340 2.6583 0.8580 0.749 -0.603 -0.275 15 15 17 0 0
1.5361 3.3644 0.7954 0.800 -0.324 -0.505 17 17 19 0 0
1.7181 2.9614 0.7783 0.216 -0.972 0.091 16 16 18 0 0
1.6933 2.9575 0.7849 0.139 -0.990 -0.011 15 15 17 0 0
1.5722 2.8388 0.8247 0.696 -0.177 0.696 30 31 33 0 0
1.5388 2.8221 0.8344 0.694 -0.692 0.201 37 36 41 0 0
1.4755 2.7867 0.8532 0.650 -0.753 -0.105 38 39 43 0 0
1.4704 2.6929 0.8614 0.730 -0.678 0.084 29 29 32 0 0
1.4582 2.6823 0.8653 0.721 -0.692 -0.031 25 25 27 0 0
1.4471 2.6712 0.8690 0.870 -0.484 -0.094 29 29 31 0 0
1.4338 2.6610 0.8731 0.891 -0.427 0.154 24 24 26 0 0
1.5384 3.3663 0.8102 0.821 -0.500 -0.277 18 18 20 0 0
1.7058 2.9543 0.7970 0.268 -0.963 0.036 15 15 17 0 0
1.6729 2.9542 0.8055 0.152 -0.988 -0.029 14 14 16 0 0
1.5545 2.8177 0.8459 0.824 -0.130 0.552 35 36 40 0 0
1.5534 2.8022 0.8474 0.985 -0.021 -0.171 36 37 41 0 0
1.4575 2.6853 0.8806 0.864 -0.430 0.263 32 31 34 0 0
1.4537 2.6710 0.8826 0.970 -0.236 -0.050 31 30 34 0 0
1.4502 2.6565 0.8845 0.970 -0.236 -0.050 33 33 36 0 0
1.7228 3.7574 0.7498 0.916 -0.277 -0.292 71 71 74 0 0
1.7773 3.4407 0.7585 0.723 0.543 0.427 36 36 38 0 0
1.5531 3.3116 0.8259 0.782 -0.557 -0.279 11 11 13 0 0
1.7088 2.9557 0.8112 0.268 -0.963 0.036 16 16 18 0 0
1.6824 2.9524 0.8183 0.181 -0.983 0.011 15 15 17 0 0
1.4585 2.6875 0.8954 0.829 -0.461 0.317 38 37 42 0 0
1.2846 2.5853 0.9479 0.866 -0.306 0.397 33 32 37 0 0
1.2623 2.5784 0.9541 -0.262 -0.367 -0.892 31 31 36 0 0
1.2777 2.5560 0.9518 -0.218 -0.348 -0.912 30 29 34 0 0
1.2495 2.5354 0.9605 -0.158 -0.108 -0.981 31 29 34 0 0
1.7334 3.7717 0.7616 0.681 -0.730 0.064 105 105 105 0 0
1.2776 2.5908 0.9648 0.818 -0.199 0.539 38 39 43 0 0
1.7310 3.7765 0.7774 0.962 -0.269 -0.045 90 90 90 0 0
1.5465 3.1551 0.8699 0.828 0.538 0.158 15 15 17 0 0
1.1349 2.5385 1.0215 0.454 0.098 0.885 41 40 45 0 0
1.7327 3.7790 0.7924 0.974 -0.085 0.208 83 83 83 0 0
1.7116 2.9309 0.8575 0.822 -0.504 0.264 14 14 16 0 0
1.3299 2.7193 0.9731 0.045 -0.824 -0.564 44 43 48 0 0
1.7278 3.7854 0.8089 0.950 0.031 0.310 80 80 80 0 0
1.7319 3.6129 0.8198 0.357 -0.650 -0.671 46 46 50 0 0
1.7270 2.9582 0.8666 0.452 -0.876 0.166 30 30 32 0 0
1.3504 2.9255 0.9689 0.438 0.148 0.887 32 33 35 0 0
1.3714 2.7201 0.9776 -0.173 -0.942 -0.289 44 43 48 0 0
1.3210 2.7259 0.9906 -0.179 -0.945 -0.275 44 43 48 0 0
1.7167 3.7954 0.8268 0.938 0.222 0.268 90 90 91 0 0
1.7027 3.5991 0.8441 0.271 -0.962 -0.031 40 42 45 0 0
1.5071 3.3343 0.9146 0.895 0.400 0.198 12 12 14 0 0
1.6371 2.9564 0.9059 -0.028 -0.998 -0.063 13 13 15 0 0
1.7352 3.7879 0.8380 0.160 -0.955 -0.248 118 118 119 0 0
1.6952 3.6067 0.8611 0.532 -0.238 0.813 47 46 51 0 0
1.5482 3.1663 0.9307 0.893 0.421 0.161 20 20 22 0 0
1.6145 2.9539 0.9274 -0.050 -0.972 -0.229 13 13 15 0 0
1.0736 2.3943 1.1110 -0.220 -0.728 -0.649 44 43 48 0 0
1.0434 2.3896 1.1195 -0.148 -0.659 -0.737 44 43 48 0 0
1.0396 2.3102 1.1259 0.807 -0.105 -0.581 41 40 45 0 0
1.7428 3.7869 0.8517 0.710 -0.627 -0.319 136 136 137 0 0
1.7361 3.7738 0.8544 0.744 -0.360 -0.562 73 72 78 0 0
1.7011 3.6067 0.8751 0.188 -0.800 0.570 51 49 53 0 0
1.5424 3.1722 0.9475 0.893 0.421 0.161 21 21 23 0 0
1.3647 2.6826 1.0286 0.832 -0.015 0.555 38 39 43 0 0
1.0488 2.3253 1.1382 0.653 -0.399 -0.644 42 41 46 0 0
1.0436 2.3112 1.1406 0.760 -0.211 -0.615 43 42 47 0 0
1.7425 3.7734 0.8683 0.745 -0.160 -0.647 82 82 84 0 0
1.7742 3.7581 0.8763 0.840 0.453 -0.300 77 77 79 0 0
1.5349 3.1489 0.9823 0.973 0.215 -0.077 21 19 22 0 0
1.7142 2.9306 0.9477 0.931 0.319 0.179 25 23 27 0 0
0.9464 2.6830 1.1743 0.350 0.440 -0.827 91 90 87 0 0
1.7561 3.7895 0.8949 0.985 -0.137 0.105 67 67 66 0 0
1.7557 3.7726 0.8961 0.901 -0.353 0.253 57 57 59 0 0
1.7496 3.7590 0.8986 0.901 -0.353 0.253 61 62 62 0 0
1.7214 3.6561 0.9132 0.847 0.474 -0.242 33 32 36 0 0
1.5442 3.1638 0.9943 0.862 0.505 -0.048 22 22 24 0 0
1.5309 3.1538 0.9986 0.946 0.291 0.143 22 20 23 0 0
1.3316 2.7211 1.0820 0.633 -0.399 0.664 34 35 39 0 0
1.5393 3.1693 1.0110 0.870 0.482 0.103 24 24 26 0 0
1.2285 2.7879 1.1378 0.911 0.412 -0.017 46 46 48 0 0
1.2201 2.7750 1.1409 0.986 0.014 -0.169 33 35 35 0 0
1.7449 3.7895 0.9451 0.929 -0.233 0.286 50 50 52 0 0
1.5384 3.1591 1.0432 0.876 0.460 0.145 25 25 27 0 0
1.2412 2.7851 1.1503 0.901 0.411 0.137 52 51 54 0 0
1.2322 2.7725 1.1537 0.999 -0.039 -0.019 42 43 43 0 0
1.2236 2.7597 1.1569 0.853 -0.472 -0.223 29 31 30 0 0
0.5772 2.0303 1.3846 0.124 -0.764 0.633 161 161 161 0 0
1.7452 3.7927 0.9606 0.943 -0.328 -0.058 59 60 62 0 0
1.2092 2.8351 1.1721 0.849 0.520 0.089 59 58 63 0 0
1.3084 2.7420 1.1500 0.839 0.271 0.472 45 46 51 0 0
1.2282 2.7605 1.1715 0.948 -0.243 -0.206 35 36 40 0 0
1.3080 2.7095 1.1522 0.844 -0.316 0.434 26 27 29 0 0
1.3019 2.7148 1.1694 0.850 -0.020 0.526 31 31 35 0 0
1.6071 2.8726 1.0884 0.502 -0.613 -0.611 11 12 14 0 0
1.2870 2.7404 1.1879 0.903 0.167 0.396 47 47 51 0 0
1.2906 2.7224 1.1880 0.850 -0.020 0.526 34 33 38 0 0
1.7090 2.9077 1.0725 0.713 -0.683 -0.156 30 30 32 0 0
1.6164 2.8711 1.1013 0.457 -0.662 -0.594 12 13 15 0 0
1.2570 2.8223 1.2073 0.992 0.126 0.020 46 47 51 0 0
1.2818 2.7289 1.2059 0.957 0.082 0.278 41 40 45 0 0
1.2760 2.7150 1.2084 0.772 -0.630 0.087 29 29 32 0 0
1.6283 2.8683 1.1135 0.457 -0.662 -0.594 13 14 16 0 0
1.6163 2.8578 1.1176 0.603 -0.365 -0.709 11 12 14 0 0
1.2563 2.8254 1.2233 0.992 0.126 0.020 37 38 41 0 0
1.2724 2.7357 1.2241 0.981 0.173 0.093 45 45 50 0 0
1.2756 2.7179 1.2243 0.961 -0.268 -0.071 35 35 38 0 0
1.7844 3.8042 1.0275 0.816 -0.578 -0.001 57 57 59 0 0
1.2493 2.8312 1.2410 0.986 -0.052 0.158 29 29 31 0 0
1.0856 2.6855 1.2972 0.034 -0.932 -0.360 70 70 71 0 0
1.7428 3.9020 1.0496 0.855 -0.497 0.147 170 170 168 0 0
1.9066 3.2691 1.0394 0.778 0.363 -0.513 25 25 27 0 0
1.5835 3.0750 1.1451 0.787 0.600 0.143 23 23 26 0 0
1.6575 2.8441 1.1372 0.573 0.101 -0.814 14 15 17 0 0
1.2706 2.7419 1.2562 0.993 0.117 0.031 55 54 59 0 0
1.2704 2.7091 1.2582 0.893 -0.444 -0.077 36 37 41 0 0
1.5680 3.0855 1.1647 0.770 0.605 0.202 23 23 26 0 0
1.6409 2.8547 1.1569 0.400 -0.821 -0.408 14 15 17 0 0
1.2723 2.7274 1.2725 0.957 -0.191 0.217 51 50 55 0 0
1.7435 3.9088 1.0809 0.928 -0.326 0.181 170 170 168 0 0
1.8937 3.3808 1.0672 0.956 -0.047 0.289 33 32 37 0 0
1.8964 3.3628 1.0675 0.927 -0.370 0.066 32 32 36 0 0
1.5502 3.1139 1.1840 0.833 0.540 0.121 21 21 23 0 0
1.2540 2.8209 1.2884 0.990 0.128 0.062 16 19 21 0 0
1.2724 2.7301 1.2882 0.900 -0.169 0.403 52 52 58 0 0
1.7844 3.8701 1.0870 0.976 0.211 0.058 169 169 167 0 0
1.8924 3.3847 1.0828 0.987 -0.004 0.162 30 30 32 0 0
1.8956 3.3664 1.0829 0.952 -0.274 0.138 27 27 29 0 0
1.9185 3.3374 1.0778 0.794 0.070 -0.604 27 27 29 0 0
1.5521 3.0994 1.2001 0.886 0.407 0.222 21 21 23 0 0
1.7008 2.8322 1.1713 0.888 -0.457 0.055 15 16 18 0 0
1.6938 2.8195 1.1741 0.863 -0.493 -0.109 13 14 16 0 0
1.2592 2.7881 1.3048 0.992 0.127 -0.009 39 41 46 0 0
1.2656 2.7523 1.3050 0.998 0.020 0.059 55 52 59 0 0
1.2332 2.7002 1.3176 0.574 -0.770 0.279 29 28 34 0 0
1.2540 2.8098 1.3212 0.996 0.085 0.001 17 19 23 0 0
1.2590 2.7910 1.3208 0.992 0.127 -0.009 32 34 39 0 0
1.2635 2.7559 1.3214 0.986 0.165 -0.016 51 49 55 0 0
1.2658 2.7219 1.3227 0.899 -0.117 0.423 54 52 58 0 0
1.1681 2.6809 1.3541 0.050 -0.897 -0.440 20 19 25 0 0
1.1400 2.6761 1.3628 0.831 -0.104 -0.546 19 18 23 0 0
1.1464 2.6569 1.3620 0.495 -0.737 -0.460 27 26 30 0 0
1.7882 3.8058 1.1212 0.880 -0.260 -0.397 56 55 60 0 0
1.5536 3.0880 1.2318 0.902 0.345 0.258 17 18 20 0 0
1.2579 2.7943 1.3370 0.992 0.123 0.024 27 28 33 0 0
1.2580 2.7280 1.3407 0.929 -0.180 0.324 55 52 59 0 0
1.2489 2.7154 1.3441 0.796 -0.566 0.213 51 48 55 0 0
1.1825 2.6775 1.3662 0.072 -0.863 -0.499 20 19 25 0 0
1.1564 2.6554 1.3752 0.495 -0.737 -0.460 20 19 24 0 0
1.8973 3.3751 1.1281 0.736 -0.087 -0.672 18 18 20 0 0
1.2636 2.7779 1.3523 0.994 0.089 0.060 35 32 39 0 0
1.2550 2.7485 1.3565 0.978 -0.208 -0.001 49 47 55 0 0
1.2529 2.7329 1.3580 0.929 -0.180 0.324 54 53 59 0 0
1.2474 2.7188 1.3605 0.934 -0.323 0.152 54 53 59 0 0
1.1540 2.6425 1.3928 0.522 -0.686 -0.507 27 26 32 0 0
1.9019 3.3757 1.1421 0.923 -0.371 -0.104 26 26 28 0 0
1.6975 2.8289 1.2340 0.941 -0.114 0.320 15 15 17 0 0
1.6600 2.8142 1.2462 0.876 -0.413 -0.251 15 15 17 0 0
1.6431 2.8059 1.2518 0.510 -0.755 -0.411 12 13 15 0 0
1.2543 2.7350 1.3735 0.878 -0.475 -0.055 53 52 58 0 0
1.2493 2.7206 1.3758 0.903 -0.430 0.015 54 53 59 0 0
1.2375 2.7092 1.3801 0.728 -0.636 -0.256 47 46 52 0 0
1.2298 2.6959 1.3831 0.841 -0.487 -0.236 40 40 47 0 0
1.2228 2.6824 1.3860 0.841 -0.487 -0.236 32 32 39 0 0
1.2087 2.6718 1.3909 0.206 -0.881 -0.427 21 20 26 0 0
1.9233 3.3836 1.1506 0.794 -0.142 -0.591 39 39 41 0 0
1.9153 3.3716 1.1537 0.851 -0.336 -0.403 35 35 37 0 0
1.9349 3.2461 1.1545 0.785 0.537 -0.307 28 28 30 0 0
1.5410 3.0865 1.2832 0.936 0.321 0.145 19 20 25 0 0
1.2648 2.7663 1.3848 0.979 0.012 -0.205 32 32 39 0 0
1.2534 2.7381 1.3898 0.929 -0.306 -0.207 48 47 53 0 0
1.2541 2.7213 1.3904 0.791 -0.576 -0.207 53 52 58 0 0
1.2446 2.7088 1.3940 0.598 -0.762 -0.249 52 51 57 0 0
1.8895 3.4222 1.1743 0.920 0.287 0.266 36 35 39 0 0
1.9295 3.3669 1.1650 0.885 0.165 -0.435 31 31 34 0 0
1.9463 3.3412 1.1612 0.901 0.272 -0.337 29 29 31 0 0
1.9298 3.2519 1.1711 0.714 0.282 -0.641 30 30 32 0 0
1.5581 3.2820 1.2834 0.699 -0.686 -0.203 14 14 16 0 0
1.6555 2.8058 1.2790 0.794 -0.461 -0.397 16 16 18 0 0
1.6306 2.8012 1.2869 0.364 -0.374 -0.853 13 13 15 0 0
1.2680 2.7677 1.3998 0.979 0.012 -0.205 24 24 30 0 0
1.2498 2.7093 1.4085 0.584 -0.792 -0.178 51 51 57 0 0
1.2371 2.6982 1.4130 0.755 -0.635 -0.165 48 48 54 0 0
1.2248 2.6704 1.4183 0.998 0.024 -0.055 36 34 40 0 0
1.9503 3.3421 1.1753 0.736 0.120 -0.667 27 27 29 0 0
1.9479 3.2290 1.1821 0.773 0.426 -0.470 30 30 32 0 0
1.5412 3.0758 1.3155 0.921 0.389 0.037 17 18 22 0 0
1.6621 2.8055 1.2925 0.794 -0.461 -0.397 17 17 19 0 0
1.6553 2.7925 1.2953 0.857 -0.382 -0.347 14 14 16 0 0
1.2675 2.7541 1.4168 0.916 -0.315 -0.248 31 29 35 0 0
1.2347 2.6854 1.4305 0.999 -0.009 0.041 43 42 48 0 0
1.1569 2.6851 1.4545 0.798 -0.506 0.329 34 32 39 0 0
1.9347 3.3704 1.1941 0.804 0.595 -0.006 26 25 29 0 0
1.9534 3.2292 1.1957 0.744 -0.163 -0.648 30 30 32 0 0
1.9439 3.2017 1.2000 0.596 -0.515 -0.616 23 23 25 0 0
1.5244 3.0703 1.3369 0.827 0.357 0.434 14 15 19 0 0
1.6858 2.8455 1.2986 0.702 -0.600 -0.383 41 40 43 0 0
1.6773 2.8334 1.3019 0.702 -0.600 -0.383 17 16 20 0 0
1.6371 2.7876 1.3167 0.668 -0.743 -0.043 13 13 15 0 0
1.2341 2.6883 1.4467 0.999 -0.009 0.041 44 45 50 0 0
1.8954 3.4286 1.2188 0.862 0.097 -0.497 18 18 22 0 0
1.9455 3.3676 1.2063 0.903 0.365 -0.226 15 14 18 0 0
1.9360 3.3564 1.2099 0.790 0.513 -0.336 16 16 18 0 0
2.0198 3.2614 1.1887 0.864 -0.475 -0.165 28 28 30 0 0
1.9480 3.2352 1.2124 0.884 -0.438 -0.161 30 30 32 0 0
1.2337 2.6912 1.4629 0.774 -0.585 -0.242 46 49 54 0 0
1.7851 3.9232 1.2437 0.997 -0.071 -0.025 170 170 168 0 0
1.8066 3.6340 1.2517 0.840 -0.525 -0.141 16 16 19 0 0
1.8016 3.6199 1.2540 0.770 -0.599 -0.220 18 19 23 0 0
1.9014 3.4285 1.2325 0.990 0.140 0.013 17 17 19 0 0
1.9412 3.3567 1.2237 0.799 0.504 -0.328 16 16 18 0 0
1.6753 2.8238 1.3340 0.913 -0.392 -0.114 20 17 24 0 0
1.1892 2.5968 1.4978 0.841 -0.505 -0.193 61 61 64 0 0
1.8109 3.6179 1.2670 0.348 -0.459 -0.817 21 22 24 0 0
1.8887 3.4389 1.2515 0.930 0.187 0.317 17 17 19 0 0
1.9372 3.3621 1.2401 0.846 0.491 -0.208 17 17 19 0 0
1.2624 2.7341 1.4841 0.221 -0.965 -0.137 32 29 36 0 0
1.1966 2.5964 1.5117 0.974 -0.206 0.097 51 50 54 0 0
1.1875 2.5837 1.5152 0.808 -0.574 -0.131 26 26 28 0 0
1.9537 3.3398 1.2515 0.949 0.311 -0.059 24 24 26 0 0
1.0757 2.6155 1.5653 0.400 -0.836 -0.376 26 26 28 0 0
1.0596 2.6054 1.5708 0.400 -0.836 -0.376 34 34 36 0 0
1.9092 3.4173 1.2773 0.804 0.050 0.593 34 34 38 0 0
1.9423 3.3657 1.2693 0.846 0.491 -0.208 28 28 30 0 0
1.9543 3.3426 1.2666 0.920 0.347 -0.180 25 25 27 0 0
1.2393 2.6665 1.5272 0.053 -0.666 -0.744 47 46 51 0 0
1.2498 2.6290 1.5256 0.213 -0.280 -0.936 44 43 48 0 0
1.0649 2.6059 1.5856 0.535 -0.780 -0.326 29 29 31 0 0
1.8885 3.4321 1.2988 0.746 0.119 0.655 30 31 35 0 0
1.9261 3.3945 1.2886 0.790 0.610 -0.058 30 31 34 0 0
1.6498 2.7661 1.4073 0.705 -0.616 -0.350 18 17 23 0 0
1.6252 2.7612 1.4154 0.451 -0.592 -0.668 16 15 20 0 0
1.2372 2.7199 1.5415 0.660 -0.531 -0.532 37 36 41 0 0
1.1927 2.6391 1.5596 0.428 -0.677 0.599 34 33 38 0 0
1.8954 3.4315 1.3123 0.748 -0.128 0.651 32 33 37 0 0
1.9643 3.3270 1.2951 0.879 0.476 -0.038 29 29 31 0 0
1.6912 2.7660 1.4096 0.535 -0.815 -0.224 18 17 22 0 0
1.2617 2.7121 1.5502 0.478 -0.711 -0.515 38 37 42 0 0
1.2486 2.7011 1.5550 0.449 -0.761 -0.468 47 46 51 0 0
1.8665 3.4342 1.3372 0.750 0.626 0.214 23 23 27 0 0
1.9454 3.3406 1.3160 0.816 0.539 0.208 17 17 19 0 0
1.9906 3.2503 1.3057 0.996 0.081 0.032 29 29 31 0 0
1.6892 2.7375 1.4272 0.810 -0.586 -0.037 15 14 19 0 0
1.6392 2.7281 1.4438 0.766 0.003 -0.643 15 15 17 0 0
1.2729 2.7100 1.5630 0.501 -0.536 -0.680 44 43 48 0 0
1.2551 2.6845 1.5699 0.969 -0.218 0.118 60 59 64 0 0
1.9283 3.3532 1.3366 0.748 0.651 -0.130 15 15 17 0 0
1.2594 2.7019 1.5840 0.610 -0.049 -0.791 68 66 69 0 0
1.5209 3.0517 1.4989 0.873 0.255 -0.416 23 22 28 0 0
1.5241 3.0197 1.5154 0.882 0.427 -0.200 16 15 21 0 0
0.9051 2.5850 1.7381 -0.317 -0.891 -0.325 173 173 173 0 0
1.9614 3.3312 1.3890 0.780 0.625 -0.031 28 28 30 0 0
0.9109 2.5710 1.7704 -0.313 -0.896 -0.316 174 174 174 0 0
1.9377 3.3641 1.4110 0.715 0.672 -0.193 35 35 37 0 0
1.9612 3.3346 1.4045 0.782 0.618 -0.087 37 37 39 0 0
1.9779 3.3089 1.4000 0.885 0.409 -0.222 31 31 33 0 0
1.7737 2.7472 1.4922 0.802 -0.467 -0.373 96 96 95 0 0
1.2824 2.6229 1.6613 -0.014 -0.287 -0.958 41 41 45 0 0
1.9930 3.2709 1.4121 0.973 0.230 0.015 28 28 30 0 0
0.9142 2.5580 1.8036 -0.298 -0.903 -0.311 173 173 173 0 0
1.9410 3.3687 1.4411 0.712 0.661 -0.239 16 14 17 0 0
1.9479 3.3483 1.4396 0.635 0.651 -0.416 17 16 18 0 0
1.9961 3.2888 1.4259 0.910 0.263 -0.320 22 22 24 0 0
1.9953 3.2728 1.4268 0.942 0.135 -0.309 28 28 30 0 0
2.0047 3.2513 1.4245 0.977 0.139 -0.159 30 30 32 0 0
1.3632 2.5942 1.6678 -0.007 -0.324 -0.946 72 74 73 0 0
1.2479 2.5930 1.7067 -0.018 -0.995 -0.100 51 49 54 0 0
1.9484 3.3678 1.4543 0.730 0.675 -0.103 15 13 16 0 0
2.0036 3.2879 1.4389 0.852 0.287 -0.438 22 22 24 0 0
1.7101 2.6565 1.5641 0.134 -0.595 -0.792 79 77 80 0 0
1.3061 2.5879 1.7035 -0.013 -0.963 -0.270 48 48 53 0 0
1.0556 2.5743 1.7888 0.425 -0.844 -0.328 66 64 67 0 0
1.0396 2.5640 1.7947 0.425 -0.844 -0.328 73 71 72 0 0
2.0238 3.2472 1.4492 0.513 -0.162 -0.843 30 30 32 0 0
1.5903 3.3146 1.6102 0.309 -0.950 0.035 20 20 22 0 0
1.8834 2.9496 1.5245 -0.138 -0.170 -0.976 10 10 14 0 0
1.8917 2.7855 1.5282 0.566 -0.217 -0.795 99 98 99 0 0
0.8838 2.5465 1.8820 -0.329 -0.910 -0.251 176 176 176 0 0
2.0353 3.2636 1.4756 0.768 0.199 -0.608 37 36 40 0 0
1.8752 3.8671 1.5233 0.967 -0.048 -0.249 86 86 88 0 0
2.0450 3.2615 1.4879 0.797 0.210 -0.566 33 33 35 0 0
2.0552 3.2395 1.4852 0.704 -0.139 -0.697 30 30 32 0 0
1.4352 2.6097 1.7233 0.491 0.037 0.870 65 64 69 0 0
0.8651 2.5421 1.9226 -0.324 -0.915 -0.238 176 176 176 0 0
1.8904 3.7918 1.5371 0.958 0.273 0.085 60 59 67 0 0
2.0544 3.2595 1.5003 0.971 0.066 0.228 27 27 29 0 0
1.8844 3.8686 1.5524 0.980 -0.158 -0.122 80 79 83 0 0
1.9570 3.4159 1.5439 0.537 0.220 0.814 37 36 39 0 0
1.9841 3.3840 1.5357 0.548 0.199 0.813 30 30 32 0 0
2.0079 3.3541 1.5285 0.613 0.182 0.769 22 22 25 0 0
2.0416 3.1911 1.5383 0.945 0.297 0.135 34 35 39 0 0
1.9762 2.8384 1.5740 0.724 -0.688 0.049 104 102 103 0 0
1.9503 2.8032 1.5843 0.027 -0.295 -0.955 93 91 92 0 0
1.8353 2.7622 1.6261 0.920 -0.184 0.345 32 32 36 0 0
1.8242 2.7514 1.6304 0.882 -0.060 0.467 24 24 29 0 0
1.8902 3.8898 1.5821 0.952 -0.290 -0.099 83 81 84 0 0
1.8866 3.8571 1.5846 0.980 -0.158 -0.122 48 45 52 0 0
2.0390 3.2119 1.5540 0.916 -0.133 0.380 32 32 36 0 0
1.8893 2.7715 1.6224 0.396 -0.721 0.569 33 31 37 0 0
1.8160 2.7259 1.6498 0.440 -0.867 0.233 23 23 25 0 0
1.8953 3.8729 1.5972 0.966 -0.232 -0.113 66 65 69 0 0
2.0636 2.9599 1.5697 0.470 -0.883 0.009 45 45 48 0 0
1.9757 2.9081 1.6026 0.737 -0.441 0.513 85 83 87 0 0
1.9708 2.8945 1.6048 0.926 -0.160 0.343 84 82 87 0 0
1.9294 2.7871 1.6232 0.317 -0.745 0.587 27 28 32 0 0
1.8936 2.7881 1.6358 0.259 -0.877 0.404 23 23 28 0 0
0.9600 2.5859 1.9729 0.801 -0.287 0.526 57 56 61 0 0
1.8950 3.8592 1.6140 0.903 -0.190 -0.385 56 55 60 0 0
1.8872 3.8465 1.6172 0.873 -0.367 -0.323 49 48 53 0 0
1.8821 3.8322 1.6195 0.873 -0.367 -0.323 43 42 47 0 0
2.0848 2.9838 1.5767 0.438 -0.852 0.287 56 54 57 0 0
1.9882 2.9048 1.6137 0.922 -0.212 0.323 73 72 75 0 0
2.0246 2.8391 1.6030 0.687 0.478 -0.547 36 34 37 0 0
1.9211 2.7938 1.6414 0.263 -0.958 0.112 24 23 29 0 0
1.8901 2.7926 1.6524 0.103 -0.963 -0.250 25 24 30 0 0
0.8912 2.7716 2.0079 0.804 0.332 -0.494 46 45 50 0 0
0.8684 2.7637 2.0163 0.312 -0.888 -0.337 44 43 48 0 0
0.9748 2.5997 1.9842 0.601 -0.677 0.425 52 51 54 0 0
2.0088 2.9454 1.6204 0.773 -0.218 0.596 67 67 69 0 0
1.9830 2.9263 1.6303 0.742 -0.179 0.646 54 54 56 0 0
0.8917 2.7742 2.0249 0.237 -0.616 -0.751 45 44 49 0 0
1.9081 3.8934 1.6407 0.599 -0.756 -0.265 106 106 108 0 0
2.1550 3.2424 1.5737 0.691 -0.531 -0.490 50 49 54 0 0
2.1476 3.2303 1.5768 0.686 -0.203 -0.699 48 48 52 0 0
2.0189 2.9273 1.6329 0.942 0.067 0.329 30 29 34 0 0
0.9394 2.7052 2.0274 0.065 0.445 -0.893 42 43 47 0 0
0.9869 2.6685 2.0116 -0.149 -0.006 -0.989 43 44 48 0 0
0.9361 2.5183 2.0347 -0.097 -0.965 0.244 139 139 139 0 0
1.9110 3.8953 1.6560 0.969 -0.212 -0.124 129 129 129 0 0
2.0289 2.9572 1.6438 0.852 0.410 -0.326 30 30 35 0 0
1.9734 2.8090 1.6686 0.348 -0.795 0.496 36 36 38 0 0
1.8992 2.7807 1.6963 0.185 -0.926 -0.330 48 46 51 0 0
1.0821 2.6320 1.9955 -0.170 -0.200 -0.965 43 43 48 0 0
1.0561 2.6257 2.0051 -0.220 -0.276 -0.936 45 45 50 0 0
2.0370 2.9881 1.6554 0.838 0.142 -0.527 28 29 34 0 0
2.0247 2.9783 1.6602 0.606 0.437 -0.665 19 20 25 0 0
2.0327 2.9582 1.6579 0.572 0.466 -0.675 15 16 21 0 0
2.2050 3.3054 1.6000 0.549 -0.375 -0.747 33 33 35 0 0
2.0739 2.9084 1.6600 0.553 0.060 -0.831 14 13 18 0 0
2.0727 2.8931 1.6609 0.326 -0.457 -0.827 13 14 18 0 0
2.0653 2.9156 1.6783 0.732 -0.301 -0.611 21 20 25 0 0
1.1245 2.6396 2.0305 0.138 0.460 -0.877 43 42 47 0 0
1.9282 3.8854 1.7317 0.934 0.023 -0.356 66 68 73 0 0
1.9287 3.8676 1.7320 0.934 0.023 -0.356 50 52 57 0 0
1.9349 3.8289 1.7308 0.914 -0.202 -0.352 42 41 46 0 0
1.9265 3.7991 1.7348 0.843 0.131 0.522 37 36 41 0 0
1.9440 3.9143 1.7413 0.609 -0.704 -0.366 155 154 155 0 0
1.9387 3.8127 1.7462 0.801 -0.355 -0.482 40 39 44 0 0
2.0259 3.1877 1.7315 0.276 -0.787 0.552 39 40 44 0 0
2.1133 2.9479 1.7060 0.862 -0.494 -0.114 44 46 45 0 0
2.1073 2.9350 1.7085 0.809 -0.530 -0.253 46 48 47 0 0
2.0557 3.1912 1.7361 0.243 -0.689 -0.683 37 37 41 0 0
2.1139 2.9505 1.7211 0.733 -0.602 -0.317 47 49 47 0 0
2.0674 3.2044 1.7471 -0.139 -0.182 -0.974 30 31 35 0 0
2.0666 2.8976 1.7557 0.182 -0.948 -0.263 41 42 44 0 0
2.0352 2.8973 1.7674 0.107 -0.955 0.277 20 21 23 0 0
2.1277 3.2238 1.7396 -0.277 -0.283 -0.918 31 32 34 0 0
2.1580 2.9816 1.7346 0.225 -0.275 -0.935 45 46 48 0 0
2.1061 2.9604 1.7547 0.648 -0.647 0.401 24 24 26 0 0
2.2364 2.9914 1.7202 0.928 -0.351 -0.124 48 47 52 0 0
2.2356 2.9760 1.7209 0.917 0.020 -0.399 44 45 47 0 0
2.0892 2.9720 1.7763 0.603 -0.347 0.718 29 28 33 0 0
2.2420 2.9756 1.7338 0.889 0.103 -0.446 30 29 34 0 0
2.2366 3.1251 1.7475 -0.019 -0.186 -0.982 43 42 47 0 0
2.2607 3.1151 1.7540 0.052 -0.088 -0.995 46 45 49 0 0
2.2969 3.1465 1.7547 0.186 -0.946 -0.265 45 45 49 0 0
1.4496 2.5501 2.0941 0.357 0.570 -0.740 84 82 86 0 0
1.4164 2.5476 2.1069 0.451 0.009 -0.892 57 55 59 0 0
1.4765 2.5415 2.1003 0.344 0.543 -0.766 72 71 76 0 0
1.9747 3.8444 1.8954 0.937 -0.075 -0.342 49 50 54 0 0
1.7024 2.5988 2.0600 0.255 -0.830 0.496 37 38 40 0 0
1.4665 2.5372 2.1536 0.012 -0.907 0.421 54 53 58 0 0
1.8593 2.5960 2.0145 0.157 -0.847 0.508 36 35 40 0 0
1.8169 2.5990 2.0311 0.155 -0.791 0.591 41 41 46 0 0
1.7316 2.6048 2.0646 0.156 -0.888 0.433 49 50 52 0 0
0.9999 2.5486 2.3706 0.663 -0.673 -0.328 69 69 68 0 0
1.0015 2.5309 2.3703 0.458 -0.827 -0.325 77 77 75 0 0
1.7766 2.6224 2.0785 0.466 -0.098 0.879 56 57 61 0 0
1.7228 2.5683 2.1169 0.412 -0.070 0.908 50 50 52 0 0
1.0259 2.5292 2.4125 0.478 -0.826 -0.300 70 70 72 0 0
1.6329 2.5181 2.2024 0.657 0.739 -0.149 59 59 60 0 0
1.6333 2.5205 2.2184 0.937 0.344 -0.063 58 58 59 0 0
2.1058 2.8560 2.0534 0.526 -0.761 -0.381 10 11 13 0 0
2.0608 2.8141 2.0724 0.440 -0.231 -0.868 18 18 20 0 0
1.9403 3.8430 2.1247 0.720 0.679 -0.143 52 51 55 0 0
2.1301 2.8788 2.0589 0.665 -0.401 -0.631 10 11 13 0 0
2.1204 2.8516 2.0632 0.233 -0.536 -0.812 12 12 14 0 0
2.0995 2.8300 2.0720 0.248 -0.632 -0.734 15 15 17 0 0
2.0160 3.7825 2.1109 0.689 0.682 -0.244 50 49 55 0 0
2.0312 3.7557 2.1049 0.677 0.723 0.138 41 42 47 0 0
2.1315 3.5781 2.0819 -0.254 -0.108 -0.961 28 28 30 0 0
2.1897 2.8547 2.0659 0.305 -0.714 -0.630 12 13 15 0 0
2.1675 2.8499 2.0752 0.257 -0.896 -0.362 14 14 16 0 0
2.1529 3.5518 2.0895 -0.146 0.074 -0.987 27 27 29 0 0
2.2859 3.3566 2.0362 0.940 0.063 0.336 24 24 25 0 0
2.1644 3.0799 2.0897 0.703 -0.695 0.153 32 31 36 0 0
2.1916 2.8566 2.0808 0.583 -0.771 0.257 18 18 22 0 0
2.0718 2.8042 2.1311 0.476 -0.506 -0.719 50 51 56 0 0
1.1046 2.5048 2.5366 0.293 -0.057 -0.954 53 52 54 0 0
2.1957 3.5298 2.0881 -0.047 0.077 -0.996 32 32 34 0 0
2.3006 3.3515 2.0460 0.918 -0.117 -0.378 24 24 26 0 0
2.2989 3.3360 2.0469 0.737 -0.012 -0.676 30 29 33 0 0
2.1233 2.8778 2.1247 0.708 -0.602 -0.368 38 39 41 0 0
2.1151 2.8659 2.1283 0.708 -0.602 -0.368 40 42 43 0 0
2.1029 2.8398 2.1336 0.718 -0.684 -0.131 43 48 49 0 0
2.0931 2.8287 2.1378 0.718 -0.684 -0.131 48 49 54 0 0
2.0848 2.8167 2.1414 0.760 -0.552 -0.343 43 44 49 0 0
2.0773 2.8044 2.1446 0.760 -0.552 -0.343 33 34 38 0 0
2.0796 2.7873 2.1439 0.627 -0.367 -0.687 33 34 38 0 0
2.0623 2.7796 2.1512 0.421 -0.699 -0.578 34 35 39 0 0
2.1823 2.8889 2.1471 0.475 0.784 -0.399 39 39 41 0 0
2.2662 2.9128 2.1271 0.400 0.249 -0.882 34 33 38 0 0
2.2749 2.8924 2.1235 0.448 0.334 -0.830 33 32 37 0 0
1.3004 2.4928 2.5574 0.376 -0.911 0.168 49 50 54 0 0
1.2596 2.4925 2.5748 0.674 -0.696 0.248 58 59 61 0 0
1.2745 2.5060 2.5855 0.569 -0.618 0.543 60 62 65 0 0
1.3567 2.4919 2.5673 0.288 -0.810 0.511 63 65 68 0 0
1.8616 2.5878 2.4470 0.248 -0.746 -0.618 52 52 56 0 0
2.3442 3.0198 2.2811 0.104 0.640 -0.762 41 40 45 0 0
2.0684 2.6459 2.4037 0.451 -0.319 -0.834 52 51 56 0 0
1.9796 2.6391 2.4433 -0.202 -0.468 -0.861 54 54 56 0 0
2.1165 3.7236 2.4004 0.667 0.739 -0.095 74 74 77 0 0
2.1833 2.8011 2.3685 0.757 -0.338 0.559 46 46 48 0 0
1.9463 2.6572 2.4744 -0.234 -0.792 -0.564 48 47 50 0 0
2.2700 3.4127 2.3471 0.880 0.289 0.376 33 32 37 0 0
2.1930 2.9441 2.3805 0.410 0.226 -0.884 46 45 50 0 0
2.1708 2.7781 2.3900 0.863 -0.217 0.456 47 47 51 0 0
1.9751 2.6467 2.4777 -0.227 -0.812 -0.538 45 43 48 0 0
2.1517 3.5881 2.4174 0.744 0.653 0.143 47 48 52 0 0
2.2370 3.5030 2.3786 0.350 -0.871 0.345 45 46 49 0 0
2.2151 3.4991 2.3885 0.438 -0.848 0.300 42 43 47 0 0
2.2440 3.4651 2.3753 0.890 0.368 0.269 41 42 47 0 0
2.2573 3.4404 2.3692 0.978 0.176 0.110 41 42 47 0 0
2.2601 3.4219 2.3679 0.912 0.329 0.245 41 40 45 0 0
2.2692 3.3998 2.3637 0.912 0.329 0.245 41 39 42 0 0
2.3740 3.1097 2.3153 0.889 0.006 0.458 32 31 36 0 0
2.1067 2.7803 2.4349 0.025 -0.808 -0.589 37 36 43 0 0
1.9958 2.6399 2.4845 -0.078 -0.949 -0.305 55 55 57 0 0
2.1500 3.6445 2.4350 0.328 0.512 -0.794 65 65 68 0 0
2.1887 3.5866 2.4172 0.642 0.648 -0.410 53 54 58 0 0
2.2105 3.5223 2.4070 0.826 -0.354 0.439 45 46 49 0 0
2.1934 3.5154 2.4148 0.608 -0.692 0.388 43 44 48 0 0
2.3632 3.1188 2.3361 0.889 0.006 0.458 25 24 29 0 0
2.2746 3.0696 2.3760 0.067 0.123 -0.990 34 34 37 0 0
2.2282 2.9481 2.3966 -0.071 -0.728 -0.682 29 28 32 0 0
2.2302 3.5140 2.4144 0.839 0.175 -0.515 47 48 50 0 0
2.3435 3.0841 2.3607 0.294 -0.771 -0.565 29 28 33 0 0
2.3202 3.0643 2.3713 0.378 -0.829 -0.412 26 25 30 0 0
2.3111 3.0530 2.3754 0.786 -0.029 -0.618 28 27 32 0 0
1.1481 2.5636 2.9024 0.221 -0.952 0.210 163 162 159 0 0
2.3286 3.0791 2.3834 0.716 -0.668 0.203 33 32 37 0 0
2.3158 3.0698 2.3892 0.625 -0.771 0.125 35 34 39 0 0
2.2071 2.8037 2.4374 0.004 0.011 -1.000 34 36 37 0 0
2.1956 2.7934 2.4426 0.083 -0.069 -0.994 34 34 36 0 0
2.1180 3.7271 2.5002 0.750 0.593 0.293 67 66 71 0 0
2.2472 3.4769 2.4393 0.892 0.452 -0.024 54 53 56 0 0
2.2462 3.4606 2.4396 0.704 0.407 -0.582 52 51 56 0 0
2.3381 3.1258 2.3953 0.874 -0.279 0.398 35 34 39 0 0
2.2826 2.8806 2.4192 0.557 0.018 -0.830 18 18 20 0 0
2.1971 2.7956 2.4579 0.152 -0.343 -0.927 14 14 18 0 0
2.2963 2.8766 2.4288 0.732 0.059 -0.679 15 15 17 0 0
2.1948 2.7996 2.4750 -0.006 -0.996 -0.090 13 13 17 0 0
2.3308 3.1199 2.4306 0.910 0.396 0.121 35 34 39 0 0
2.2944 2.8645 2.4455 0.929 0.368 -0.050 15 15 17 0 0
2.2061 2.7969 2.4858 -0.107 -0.931 -0.350 15 14 18 0 0
2.2221 2.7918 2.4943 -0.107 -0.931 -0.350 22 21 25 0 0
2.3122 2.8613 2.4689 0.845 0.303 -0.440 37 36 39 0 0
2.2663 2.7887 2.4897 0.869 -0.111 0.483 37 37 40 0 0
2.2458 2.7830 2.4992 0.724 0.006 0.689 38 37 41 0 0
2.2203 2.7796 2.5110 -0.122 -0.074 -0.990 41 39 44 0 0
2.0362 2.6595 2.5958 0.818 0.471 0.329 45 45 49 0 0
2.3082 3.1254 2.4893 0.707 0.028 -0.707 47 46 51 0 0
2.2206 2.7984 2.5271 0.718 -0.010 0.696 41 40 45 0 0
2.2148 2.7852 2.5297 0.727 -0.049 0.685 43 42 47 0 0
2.1254 2.7971 2.5716 0.423 -0.439 -0.792 42 41 46 0 0
1.9183 2.5871 2.6665 0.941 0.336 0.052 54 55 59 0 0
2.2051 2.8090 2.5505 0.736 -0.123 0.666 43 42 47 0 0
2.1978 2.7644 2.5535 0.440 -0.878 0.188 44 43 48 0 0
1.8896 2.6028 2.6966 0.833 0.497 -0.243 50 51 55 0 0
2.2410 2.8965 2.5829 0.525 -0.351 0.776 29 28 34 0 0
1.6807 2.5420 2.8615 0.014 -0.917 0.399 54 53 56 0 0
2.3488 3.0894 2.5663 0.901 -0.306 0.309 43 42 47 0 0
2.3424 3.0765 2.5692 0.758 -0.211 0.617 40 39 43 0 0
2.3031 3.1505 2.6053 0.588 -0.460 0.666 58 58 60 0 0
2.0438 4.0491 2.8130 0.556 0.769 -0.315 70 70 72 0 0
2.0760 4.0035 2.8486 -0.239 -0.166 -0.957 54 56 61 0 0
2.1852 4.0705 2.8479 -0.283 -0.950 -0.130 203 202 202 0 0
1.3054 2.5133 3.2526 0.111 -0.988 0.110 76 78 78 0 0
1.3896 3.0375 3.2402 -0.194 -0.794 -0.576 33 34 39 0 0
1.4492 2.5446 3.2166 0.182 -0.983 -0.011 53 54 56 0 0
1.3110 2.5164 3.2855 0.231 -0.964 0.133 83 82 81 0 0
2.3360 3.8000 2.9529 0.063 -0.291 -0.955 74 75 77 0 0
2.3553 3.7914 2.9596 -0.183 -0.203 -0.962 74 74 76 0 0
2.5346 3.4791 2.8893 0.643 0.720 -0.262 56 56 60 0 0
2.4642 3.4716 2.9260 -0.067 0.006 -0.998 53 53 57 0 0
2.2169 4.0184 3.0912 0.876 0.246 -0.414 65 63 68 0 0
2.5334 3.4161 2.9043 0.616 -0.344 -0.709 54 53 58 0 0
2.4300 2.7863 2.9379 0.611 -0.700 -0.370 41 40 45 0 0
2.0391 2.4910 3.1343 0.149 -0.653 -0.743 63 63 65 0 0
1.2471 2.5262 3.5530 -0.052 -0.968 0.245 110 110 110 0 0
2.2209 4.0197 3.1067 0.712 -0.094 -0.696 67 66 69 0 0
2.5111 3.3660 2.9309 -0.066 -0.040 -0.997 53 52 57 0 0
2.4677 2.7859 2.9342 0.196 -0.949 0.249 43 42 47 0 0
2.3173 2.7176 3.0115 0.774 0.622 0.117 48 47 52 0 0
2.3594 3.8606 3.0451 0.510 0.356 -0.783 55 54 57 0 0
2.3679 3.8374 3.0398 0.678 0.554 -0.483 53 52 57 0 0
2.3692 3.8189 3.0385 0.824 0.381 -0.419 51 50 55 0 0
2.3179 2.7202 3.0276 0.805 0.585 0.098 51 50 55 0 0
2.3836 3.8134 3.0477 0.754 0.305 -0.581 51 50 55 0 0
2.5710 3.3038 2.9297 0.440 0.309 -0.843 53 52 57 0 0
2.5208 2.8920 2.9419 0.838 0.400 -0.371 46 45 50 0 0
2.4346 2.7928 2.9843 0.784 -0.446 0.433 49 48 53 0 0
2.3901 2.7994 3.0083 0.714 0.337 0.614 49 48 53 0 0
2.2617 2.5899 3.0693 0.431 -0.727 -0.534 57 57 59 0 0
1.5699 2.5716 3.4373 0.970 0.104 -0.219 51 51 54 0 0
1.5857 2.5479 3.4281 0.880 -0.413 0.236 51 51 53 0 0
2.4927 2.8618 2.9720 0.515 -0.825 -0.235 49 48 53 0 0
2.4403 2.7928 2.9975 0.860 -0.478 -0.177 51 50 55 0 0
2.3965 2.7670 3.0200 0.722 0.341 0.602 53 52 57 0 0
2.6043 3.1593 2.9393 0.203 0.568 -0.798 49 48 53 0 0
2.5044 2.8747 2.9824 0.928 -0.090 -0.362 49 48 53 0 0
2.4986 2.8617 2.9850 0.515 -0.825 -0.235 49 48 53 0 0
