ply
format ascii 1.0
element vertex 701
property float x
property float y
property float z
property uchar diffuse_red
property uchar diffuse_green
property uchar diffuse_blue
end_header
0.8225467504848862 2.6994752471957124 -0.1829569546036468 173 171 172
0.7881919550576305 2.7315219878198866 -0.18066397404669393 173 171 172
0.7987009492853161 2.685287478463532 -0.17656551876394794 173 171 172
0.8205251891006575 2.6197400166773517 -0.17206843329871696 173 171 172
0.8735130001955409 2.500824734950928 -0.16645007461307876 173 171 172
0.8746021285344803 2.471991273558413 -0.1628578011062065 173 171 172
0.8649878747718188 2.4616682525833777 -0.1596744622260436 173 171 172
0.8538495533717073 2.453981171982399 -0.1565493805277533 173 171 172
0.8374650094089086 2.4552359909647814 -0.1536074874073879 173 171 172
0.767371591987728 2.547513889031341 -0.1524724004472669 173 171 172
0.8232408325037941 2.4262636153955275 -0.14709284897061226 173 171 172
0.9933376824974949 3.6235025575559696 -0.32147199043364655 173 173 173
0.8914251086257952 3.796327672589364 -0.3245906643541086 173 173 173
0.9472191363210982 3.6485168676165842 -0.31595332165340095 173 172 173
0.9572856418038342 3.594014781016794 -0.3107688795248985 173 171 172
0.9723395683982083 3.5298760837346244 -0.30527823801853365 173 171 172
0.9909195011868341 3.4591384574034 -0.29959899371805726 174 172 174
1.004896629482222 3.3980768496477363 -0.2943042842893124 174 171 174
1.0754121160232113 3.2252335595019295 -0.28520763942063376 173 171 174
1.0723618293831385 3.199124742912887 -0.28122573611072993 172 170 173
1.09764009618823 3.117385912248381 -0.27538814502198344 171 169 170
1.094711710618335 3.0915646426819374 -0.2714669029341573 169 167 169
1.0280779235878015 3.1903775057216874 -0.27165791031781134 166 165 167
1.036051089478145 3.143161342600944 -0.2670242402352214 151 150 151
1.0427397101406877 3.0987529167089045 -0.2625118728678511 117 117 118
1.0626849723372978 3.029034183133321 -0.2572252204820785 88 87 89
1.05170769028721 3.0193020348790984 -0.2538681168313968 81 80 83
1.0296547974832069 3.0308276879980154 -0.25117245373053637 73 72 76
1.0305666436836982 2.998370505608524 -0.2471175952439279 66 65 68
0.9932398039200239 3.0388505723010844 -0.24528701748207193 65 63 67
0.9641573424406971 3.063355305288331 -0.24294432989934306 66 65 68
0.9595936873987246 3.0413437761145836 -0.23920817681061868 79 78 80
0.9373710736236023 3.052662600118792 -0.23645326687422136 105 105 107
0.9472657175978849 3.0036790023968662 -0.23195504421964458 105 105 107
0.9573719965474816 2.954623915522232 -0.2274877873236174 91 91 92
0.9948827407240918 2.854935556977628 -0.22163992446999814 89 88 90
0.9659657932162045 2.8790048759582874 -0.21927201392285617 83 82 86
0.9557668552319738 2.8683053550754334 -0.21593702162488398 88 86 90
0.9304652815075231 2.8854101153188485 -0.21334988412258177 97 96 99
0.894576759196072 2.9217368374827144 -0.21125196926323586 106 105 107
0.8897367326782791 2.901086065128779 -0.20764049066428725 134 134 135
0.8836590442255416 2.882794616688695 -0.20410082010883723 159 157 158
0.8717961018593492 2.875074599628106 -0.20083728766653514 165 162 164
0.8676935559443297 2.8533615703161868 -0.1972277819565148 162 159 162
0.8766399567847064 2.808300322777786 -0.1930600759457063 159 156 159
0.8086773676913451 2.9013153186806253 -0.19224285594256157 158 157 157
0.9468465244413184 2.6256574557724686 -0.18262798315609674 160 159 158
0.9135573389638746 2.656908397024136 -0.1803635287840637 165 164 163
0.8953982716006206 2.6610787125214515 -0.17745072536004097 167 165 167
0.8673551265213377 2.6826271801008525 -0.17492071254279346 169 167 168
0.8489722606975206 2.6869832929138147 -0.17198952001699042 173 171 172
0.8214614469390021 2.707264523804232 -0.169395731344462 174 173 172
0.7526208908815191 2.7995348398509052 -0.16831439941060866 175 172 173
0.7443955107285952 2.7856207297635236 -0.16493623647637862 175 171 172
0.8140236140942843 2.6367806603044888 -0.1587977544529693 175 171 172
0.9358489385447972 2.398793855463328 -0.1509799155890731 175 171 172
0.905921061350878 2.4236985621808604 -0.14852843266888194 174 171 172
0.8926926030037997 2.4197414814916396 -0.14549523219242882 175 171 172
0.9104599723355493 2.362797862442545 -0.14145837131916372 174 171 172
0.8845547115147248 2.3805940585628522 -0.1388464157465112 173 171 173
0.8607429737373195 2.394671043666636 -0.13614838143208297 173 171 173
0.8367851002888312 2.4088551050771 -0.13343648358072324 173 171 173
0.8154509307709191 2.4184778798402164 -0.1306297102979741 173 172 173
0.730326899034451 2.5350918004098086 -0.12962064716319588 173 173 173
1.0935959512396636 3.4601055110894667 -0.30395260706297494 172 172 172
0.9281733134423031 3.7641659105690266 -0.3115196604943787 172 172 172
0.9541155248639268 3.6765362547475164 -0.30518788996008245 173 172 172
0.9677847727342326 3.6144133894524244 -0.29979724779947886 173 171 172
0.9925349778733492 3.5303708505874942 -0.29369982554242785 174 172 173
1.01684302776032 3.4478294627728894 -0.287711300466504 173 171 172
1.0407205322942275 3.366749625630655 -0.28182878951824936 171 170 170
1.0597157459332571 3.2959930352739364 -0.27634339142118 168 166 167
1.0976979676960137 3.1880264300249435 -0.26969188140929007 165 164 164
1.0967611190183897 3.1578608931838703 -0.26562756916895236 160 158 158
1.1271447597032687 3.0661529478058505 -0.25961884000132873 149 148 146
1.107666417959933 3.0730027166021383 -0.25678065605941996 134 133 132
1.1017887625628908 3.053154825751597 -0.2531015585098532 119 117 118
1.1122918126459038 3.001502912221181 -0.2484548348523985 83 83 84
1.1218051823044974 2.952123850992394 -0.24391182513843457 69 69 71
1.078026814169195 3.0060982541843067 -0.24250196336189872 58 57 62
1.0636960954607348 3.002905677509622 -0.23935352667101673 56 55 60
1.0436257154608997 3.0107024952199097 -0.23652424236901803 56 55 60
1.0649920505456523 2.9392088204403874 -0.23139680078125424 55 54 59
1.0300758400080183 2.975360467995254 -0.22938404851892064 57 56 61
1.0043187502142654 2.993822151662784 -0.22684223077560173 63 62 66
0.982283209087917 3.0050675839013476 -0.22408177958170084 75 75 77
0.9722471869720202 2.993598082301457 -0.22068756663653055 73 73 75
0.9714459499545874 2.964854626133354 -0.2168323230975227 65 65 67
0.9714007425305208 2.934870508150724 -0.21296168513552194 59 59 61
0.9909198983675194 2.8686590113293793 -0.20816177764289762 58 57 61
0.9662882965806115 2.8847531717259747 -0.20552999200146072 56 55 61
0.962438170019455 2.86229900405398 -0.20190246830530456 58 57 63
0.9360796507684921 2.881386545588991 -0.19932638651392764 64 63 66
0.9115347730001011 2.896963026695319 -0.19664448759085507 59 59 61
0.8941446124607006 2.8993119683785005 -0.1936254412017665 63 63 64
0.9014804204289026 2.856606189269135 -0.18952603762312814 94 92 95
0.9213920255424272 2.7913733337926634 -0.1849271401916241 94 92 95
0.9217546170304554 2.7618889533867037 -0.1811987605516842 82 80 85
0.9395308609266969 2.7012411230176143 -0.17678255882470112 77 75 80
0.9258491129021695 2.6973996734420105 -0.1736745023826582 73 72 77
0.9109557145319208 2.6957082795456593 -0.1706119462897211 75 75 78
0.8899860325317497 2.704801659206364 -0.167777890806029 83 83 85
0.8623377822067043 2.7256296249620497 -0.16517963441785227 100 99 102
0.8549986867064163 2.7103791723802684 -0.16181355317901513 132 130 133
0.8369542351559146 2.714043568797054 -0.15883896716017842 159 157 158
0.8150333938297685 2.72443847629446 -0.15599087514143956 167 165 166
0.7928306117008188 2.735208501488148 -0.1531372470113026 172 170 171
0.7934417463296243 2.7061300099171186 -0.14950861929988962 171 169 170
0.8073179004397452 2.654202441149666 -0.1454706678738557 171 169 170
0.8881289406810975 2.48688403201237 -0.13935503370133262 171 169 170
0.8610193830668394 2.5066375611986924 -0.13672128071220602 172 170 171
0.918077641147913 2.38173480298096 -0.13153196992885574 172 170 171
0.8755797400276817 2.427961365109091 -0.12936874821672484 173 171 172
0.8592622422765468 2.429199741055384 -0.12641154226464468 173 171 174
0.8411738677806608 2.433396220774202 -0.12349709997279623 173 171 174
0.8244828729196384 2.4351579953552633 -0.12053596909509545 173 171 174
0.8068312824828062 2.4384866981118973 -0.1175931833141079 173 172 173
0.767077018903853 2.4788878821482356 -0.11520368975560702 172 172 172
0.7810120441911301 2.429074884758255 -0.11144934320427513 172 172 172
0.7385323187868422 2.4736913007212804 -0.10908220368609217 172 172 172
1.1191752074118464 3.4489121974459707 -0.29210851530799925 172 172 172
1.058929346672262 3.5387284708611184 -0.2919962265386675 172 172 172
1.0699836710413546 3.4820525500325648 -0.28689885355050526 172 172 172
1.0809087064606488 3.4260403948038927 -0.2818612124623103 172 172 172
1.027554160734894 3.500759945428844 -0.28114768046118427 173 171 172
1.0581139319273825 3.4053626477810917 -0.27485897251366936 172 170 171
1.088340981911741 3.311337851435641 -0.2686812420526977 168 166 167
1.1030691881040502 3.249060163032739 -0.26357484690493044 155 154 153
1.1171488938928982 3.1885175538374146 -0.2585650646506855 125 125 123
1.1310169089383901 3.1288222026296326 -0.25362258245618535 112 112 110
1.1295058103782476 3.100001376727765 -0.2496632835403133 104 104 101
1.1383040489740464 3.0510221218381854 -0.2451134386088042 92 91 88
1.1163422676426298 3.0628182941681428 -0.24240564892138272 83 82 81
1.112147569131637 3.0397010340268453 -0.23865815619792818 81 80 80
1.1086398579257004 3.0153769366935337 -0.23488868695299298 75 74 77
1.1139420453847788 2.9740838447476583 -0.23064734965460465 69 68 73
1.083110872248466 3.002971376129458 -0.22841560424861984 62 61 66
1.0592673897925313 3.018124064907424 -0.22577449231012858 55 54 60
1.0468433075346824 3.0111906964861643 -0.22251017971487913 55 54 59
1.0325737618872999 3.0077943092144768 -0.2193424689770736 55 54 59
1.0449312681595342 2.953646245494884 -0.2148167589914644 57 56 61
1.024702616034775 2.9617144612293043 -0.21196651847637787 67 66 71
1.0111808438910401 2.956994820094759 -0.2087736601556372 71 70 73
0.9969555831251886 2.9535910492934443 -0.20561349806203 67 66 69
0.9882136991996188 2.9398782705776725 -0.20219181279701387 64 64 67
0.977105501215566 2.9306478186290037 -0.19888725715579025 54 54 56
1.00018347227875 2.8577725077851523 -0.19403203508834355 52 51 55
0.9837740255591509 2.8586665154539865 -0.1910004160806299 53 52 58
0.9750944178415201 2.845221133171502 -0.1876247147952662 53 51 57
0.9555552372574544 2.8518310953260535 -0.18472096208030603 58 57 62
0.94729849169073 2.83764770051582 -0.18133234898637768 61 60 63
0.9376289805850319 2.826108357139968 -0.17800958629791902 72 71 73
0.9331925590694259 2.805080886827146 -0.1744818436332657 71 69 74
0.9284598098429975 2.784703220376506 -0.17098003630183006 63 61 66
0.9227443188955909 2.766209214166883 -0.16752969096515447 59 56 62
0.9377259777847993 2.7105327514379445 -0.16331238733490222 56 54 61
0.9268205125932054 2.7016741252602 -0.1600940357151957 57 56 63
0.9035982683607664 2.714857623250668 -0.1573212766083627 59 58 65
0.815695700681952 2.8431130115461816 -0.156801906840224 62 61 67
0.7954052713221932 2.8503950226477337 -0.15383972016309944 61 59 64
0.7614701952338526 2.8817078484359984 -0.15132180551952207 58 56 59
0.7673647012655388 2.8425770337040723 -0.14746932131660256 83 81 83
0.8085650984300076 2.7417105139017015 -0.14252389006164645 126 124 126
0.7895737773306817 2.746810768916565 -0.1395329288176101 144 144 146
0.7621930361044633 2.7664521577753614 -0.13678530511759618 140 140 141
0.6983090913986343 2.849294955078673 -0.13508774361150466 139 139 140
0.6085929073713601 2.9761930974475472 -0.13404791743131955 138 138 138
0.886180567953909 2.468916310256965 -0.12266780983526648 146 146 146
0.8876452816916492 2.439554516725607 -0.11921005105522509 158 158 158
0.8629270939587608 2.4551777942020943 -0.11646118921046011 165 165 165
0.8465076601950411 2.4564952650103327 -0.11348157374617174 169 167 170
0.8227759916376151 2.4701895378298295 -0.11067620046115334 171 169 172
0.8071132894646912 2.470081941620966 -0.10766019107490937 174 172 175
0.7563067938618665 2.5292356975315973 -0.10545315075784079 172 171 173
0.7566163594554995 2.5019829861212886 -0.10204250828799716 172 172 172
0.7578403621477271 2.4733501773692526 -0.09863142753559312 171 171 171
0.7618609085414706 2.440209961047357 -0.09518249241154336 172 172 172
0.7707153050113034 2.3992209260087183 -0.09166077570330089 172 172 172
0.7633310751033283 2.385400674164569 -0.08848564860490488 172 172 172
0.7551146294704105 2.373012384147837 -0.08533332411981032 172 172 172
0.7129192948820723 2.4166079474686994 -0.08279595259430683 172 172 172
0.6478568392157126 2.4973721206388615 -0.08060782475702016 173 171 172
1.070798966128324 3.590671989587853 -0.2853469252234163 172 172 172
0.9066018956472905 3.859148724212102 -0.2875486226504249 172 172 172
0.9816866598997218 3.670163410170437 -0.27820866436194547 172 172 172
1.1242744590103961 3.3450910670368943 -0.264727515089813 172 171 172
1.1187394600862888 3.3231527312383786 -0.26090182986841276 170 169 170
1.1349486155642758 3.2573857313551486 -0.25574316673441894 162 160 161
1.1510237887530634 3.192359315951945 -0.2506519322915925 125 123 124
1.1607932876601201 3.1404430540103783 -0.2459976064492324 89 88 88
1.1492363873672464 3.1314890796947985 -0.24264758739435904 79 79 79
1.1514087456858069 3.0952398599279327 -0.2385035190045175 79 79 79
1.1445944000119477 3.077038762557085 -0.23490206083528292 75 75 75
1.152074812353203 3.030711072662081 -0.23051071171516896 69 67 69
1.124140607699069 3.054343627547376 -0.22811125323809311 83 82 84
1.1134913304305778 3.043885978969035 -0.2247465935088641 79 77 80
1.1083545833880009 3.0227060089722126 -0.22109295889575797 62 61 65
1.1048158786357818 2.9985371919952186 -0.21737058857583602 51 50 55
1.0927258266576645 2.9910671592433675 -0.2141047626614056 49 48 54
1.0551164379803204 3.032833398926975 -0.21212624177360617 51 50 57
1.0467416633648778 3.0180589828779985 -0.2086558562413468 54 53 58
1.0377548291833243 3.0045234542927926 -0.20522364458471515 55 54 59
1.039591525527581 2.9704067547043427 -0.2012833832857573 56 55 60
1.0331203873157204 2.952285973530752 -0.1977580545888757 72 70 75
1.0221966050822209 2.942683790354169 -0.19444824940824929 59 56 61
1.0112828415891224 2.9330905112923977 -0.1911414920810971 59 55 61
1.0003786228737854 2.9235069874764616 -0.1878377985474683 62 59 64
0.9915562461309184 2.9100559291373944 -0.18444785359405785 51 51 53
1.0093925810973268 2.8469711883494044 -0.179939767466808 50 50 54
0.9908356617937142 2.8518960318465427 -0.1769898244665285 52 51 56
0.9827045412579497 2.8374523433357046 -0.1736079318716462 52 50 57
0.9878932346546488 2.7985233593167447 -0.1697068581107528 57 53 59
0.9821161756803549 2.779976160794255 -0.166261382612104 72 68 73
0.9615974296192696 2.788491195574223 -0.16338587436746116 75 71 75
0.9502820437111863 2.780125878118122 -0.16015639700288908 68 66 71
0.9328284937488807 2.782924844197975 -0.15715116424909398 55 52 59
0.915336386170375 2.7857295505856623 -0.15413923670990692 53 50 57
0.9447680778805413 2.7038942306965468 -0.1495019542810625 53 51 59
0.9212566498107105 2.717692327047456 -0.14671562597328236 53 51 58
0.9084060933545652 2.7122721236651866 -0.14356147496783722 53 52 58
0.8438697387650892 2.7989850796668287 -0.1420596382229235 57 55 60
0.8326632023987138 2.7903019582087816 -0.13881110431064975 57 55 59
0.8123227782346818 2.797802651154098 -0.1358422445255385 56 54 58
0.8162893241242897 2.762348433540706 -0.13214336899034262 69 67 70
0.8475196056986162 2.6792131343482657 -0.12768847322878013 73 71 75
0.8444495487348026 2.6566771919430208 -0.1242617521192334 68 67 72
0.8402570564771804 2.6362198098323297 -0.12088069825704023 65 64 69
0.8853065707529943 2.5302976485440842 -0.11621644042078516 63 62 67
0.8226919969831503 2.611516756349272 -0.11439289053210933 60 60 61
0.8350583341266102 2.562748521350148 -0.11063428856839913 62 62 62
0.8111944561037145 2.576571165606744 -0.10778324996920774 68 68 68
0.8141635200991977 2.5442909925377215 -0.10429194505396322 88 88 88
0.8064542031996867 2.5304260978923194 -0.10106403454505403 124 122 125
0.7926949883752915 2.5269081653795733 -0.09797448836000927 152 150 153
0.7797982392878089 2.521912790512313 -0.09486491602236136 166 164 167
0.7632228775397456 2.5231238819573156 -0.09182878371458592 171 170 172
0.7480640290193293 2.5219021385119453 -0.08875896957202606 171 171 172
0.748979232930876 2.4936971386535087 -0.08538543015236055 171 171 171
0.7570615007961867 2.4536761697254508 -0.08190355771142221 172 172 172
0.7856701982542682 2.3797227736093234 -0.07809989727747252 172 172 172
0.7537329409159007 2.406696619830366 -0.07535088560862735 172 172 172
0.7456505833096968 2.3940044057548695 -0.07219879612326141 172 172 172
0.7338338857735662 2.3875132633388945 -0.06910874767974118 173 172 172
0.7270101786861365 2.3728310415238476 -0.06594833854610366 173 171 172
0.7225770921500597 2.3543007735402437 -0.06276352932063167 173 171 172
0.6629993260244685 2.425758237630861 -0.06029565903618117 173 171 172
0.8958237281017276 3.9249302517120612 -0.2775944771882525 172 172 172
0.9751739597672833 3.726043370925061 -0.2681768084262133 172 172 172
1.0511798407422743 3.535538929776302 -0.2591560650035481 172 172 172
1.1264723866933286 3.347954751567163 -0.25036081451204073 170 170 170
1.1642897170029791 3.2379303403521575 -0.24397735277162708 155 155 155
1.1707025779749354 3.192265166543293 -0.2395358418433765 101 101 101
1.2058762180136537 3.0889549631776037 -0.23347708427955416 80 80 80
1.1929514548580142 3.082955934175817 -0.2302358622507611 69 69 69
1.1579111756280451 3.1211734950258547 -0.2282246126927901 65 65 65
1.155144821015218 3.0947710463468656 -0.2244068264115337 66 66 66
1.156110656643464 3.0611246343326632 -0.22040858208634917 64 64 64
1.1571957711441714 3.027458405697309 -0.21643089972086316 68 68 70
1.1429194292858837 3.024243341056074 -0.21327500680481581 70 69 71
1.1151940456969363 3.04737557952555 -0.21079968357522527 50 48 51
1.103601265694235 3.038775004424275 -0.20749203740649452 47 45 48
1.0932833814621001 3.0277144640373628 -0.2041245552620583 57 55 59
1.0832497588822376 3.016142288498828 -0.20074831592321912 54 52 57
1.0755812493594221 3.0000473395137517 -0.19726614825964678 55 52 58
1.069136222921805 2.981677271241622 -0.1937372092872109 56 54 57
1.0617692444750482 2.965168507085833 -0.19026178440758507 55 53 56
1.0648973814930427 2.928711237562374 -0.1863313749952658 57 55 58
1.0579878935587252 2.9115697081067857 -0.18286556920134506 54 51 56
1.0455565263370752 2.904971601226584 -0.17964508754402864 51 49 55
1.0335915316313045 2.8974988145927734 -0.17640585205927223 58 56 60
1.0235541264973227 2.886414782329636 -0.17308959423511633 76 74 77
1.0248094963749557 2.8542240740241107 -0.16932829396518478 63 62 67
1.0186976525831768 2.835974639260391 -0.1658786789272546 51 51 56
1.0089403213609183 2.824593103537752 -0.16257948762324742 49 50 54
0.9932641698431783 2.824211405614547 -0.1595057572139636 45 45 49
0.9835298375357073 2.8128287199360145 -0.1562108627928248 55 54 59
0.982521656701333 2.785451539677755 -0.15261125926123414 65 61 66
0.9783003968257388 2.764117148649347 -0.14914293406335044 66 61 65
0.9653107306126775 2.7588914514057397 -0.14598536400902667 60 55 60
0.9523190638153148 2.7536648307233933 -0.14282729289426505 52 48 55
0.9360079044216161 2.754443646320319 -0.13977531144579508 52 49 56
0.9391515931021939 2.720080397811999 -0.13610834345178002 53 50 58
0.9338701869801896 2.7010687095200807 -0.13272423958034346 53 50 57
0.8979952383396131 2.7369339555278573 -0.1302592944304944 54 52 57
0.8788431082044588 2.7426598115881493 -0.12727414495710443 57 55 58
0.8728155666949221 2.7249723371387486 -0.12391069690921319 60 58 59
0.8559123144889752 2.726631979577191 -0.12085396370353518 67 65 66
0.8661788677568073 2.680295094619436 -0.11707285972765286 63 61 64
0.8627722129049411 2.658291686912521 -0.11367858535286646 58 57 60
0.8603518266840652 2.63467807547027 -0.11027444316264662 58 57 60
0.8564893738932754 2.613710394144767 -0.10692099383667508 56 56 59
0.8478906352459206 2.6010891353414376 -0.10369127930169636 55 55 57
0.8490246270950055 2.5716523113925502 -0.10024905540949547 55 55 57
0.8331592620275182 2.571736272671199 -0.09719671293230375 57 57 59
0.831121315973413 2.5479900674365368 -0.09384990918653507 59 59 61
0.8126516893258751 2.5525398962647214 -0.09085025022573084 56 56 57
0.7928529985928613 2.559286160264177 -0.08786719415835492 59 59 59
0.7811016691133258 2.552246791494813 -0.08472311180580988 76 76 76
0.7701537227866233 2.543854012952197 -0.08156579404633968 119 119 119
0.7571939801031464 2.5388795851782593 -0.07844525176444639 163 163 163
0.7156426276005284 2.582044413424305 -0.07579235460672684 169 169 170
0.7321340413908158 2.527471679918086 -0.07218863534187858 169 169 170
0.7372623958174023 2.4922425235246406 -0.06879710873701267 170 170 171
0.7616425627858008 2.4251458409257656 -0.06515866322858715 172 170 171
0.7496833535637863 2.418812738463285 -0.06206229029959587 173 171 172
0.7426690246599288 2.4043033017271718 -0.05890360577466858 173 171 172
0.7374601128882913 2.386879243982824 -0.05573095483724361 173 171 172
0.7299307937980513 2.3733493314695777 -0.05259467836826437 173 171 172
0.7205219492097344 2.3629511950752278 -0.049485069985235774 173 171 172
0.7330490530576332 2.3167999042750385 -0.04616344477391082 173 171 172
0.6399838414819249 2.4425932436198154 -0.04384261101267861 173 171 172
0.9257666733257972 3.942899599203459 -0.2694359150329185 172 172 172
0.8264408895162818 4.112854569680783 -0.27108007496130937 172 172 172
0.948956559703888 3.823122735138129 -0.25920853478958683 172 172 172
1.030641728814389 3.6196655066651946 -0.2500295889208974 172 172 172
1.1093513392812477 3.4238793644588306 -0.24121692393657534 170 170 170
1.1824685076129435 3.2410174052918785 -0.23290914838863913 157 157 157
1.2021334946551077 3.168227199862146 -0.22777331023191427 97 97 97
1.2112863800262748 3.117252208875785 -0.22328193558103504 77 77 77
1.219736193555859 3.0680507545308267 -0.2188723130695357 70 70 70
1.2062141815796763 3.0633308875005834 -0.2156726371933494 64 64 64
1.1664626159244653 3.1110882969694913 -0.21384068537133166 61 61 62
1.166689638374679 3.0787383297100215 -0.20990901894570207 60 60 60
1.1804140167021586 3.019796988759145 -0.20532425837055546 57 57 58
1.1617435662828097 3.0253350465921103 -0.20238781938366318 59 59 61
1.1354518075710742 3.0457972279845116 -0.19980899888317472 49 48 50
1.1205820440379477 3.0436408518615012 -0.19666326232227788 44 42 45
1.1097556982828913 3.033551335968197 -0.19332591685941597 60 58 61
1.0994051826653903 3.022567193720747 -0.1899708092125419 77 75 78
1.0860157493329732 3.017516071673472 -0.18675610831304368 74 72 77
1.0778519223702043 3.002361342077503 -0.18331208513488229 60 58 63
1.0782714035371983 2.9707567913745216 -0.17950931179079432 58 56 59
1.0724605950405297 2.9512943797958044 -0.1759917480240415 52 50 53
1.0563966594269485 2.951518948657152 -0.1729072698567018 48 46 49
1.0575400810526148 2.9189557141163753 -0.1691269285589047 46 44 48
1.0432550748362859 2.915839500992708 -0.16597651828708698 60 58 63
1.0473875994524429 2.8779244350134143 -0.16211754476760293 70 68 72
1.0317558886738978 2.8774310102960046 -0.15902856400925236 79 77 80
1.0151044880209263 2.8788077185745795 -0.1559718679799974 74 74 76
1.0124605375859685 2.853978213741604 -0.15240823299538747 58 59 61
1.0139443217517887 2.821613789910033 -0.14871826318303183 48 49 52
0.9975259543525574 2.8226200635042558 -0.1456611882831837 39 40 43
1.0006269687474236 2.787541713126824 -0.1419509976510842 55 55 58
1.0024800659090967 2.754976694179793 -0.13830792295539696 57 55 58
0.9993833805822315 2.7316801842649348 -0.13484497668472478 75 71 73
0.9774485231614861 2.742901748402747 -0.1319745962632995 78 73 78
0.9554169310790609 2.7541727640744122 -0.12909155271765516 75 72 77
0.9535132483919939 2.728846585364806 -0.12561029156693065 67 65 71
0.921265777074376 2.758442313667775 -0.12300013384155356 58 55 63
0.9268622343213846 2.7197112337732285 -0.11932448493944575 52 49 56
0.902338836665969 2.735195927661948 -0.11647654207903879 58 56 61
0.8933778840662773 2.7227390822286597 -0.11320964758120772 56 54 56
0.8844323468276812 2.7103032538308702 -0.10994832239870689 62 60 62
0.8845847372446698 2.6817909521178 -0.10647382717943343 63 61 64
0.8792458969349927 2.6631409520684306 -0.10314753938698984 57 55 60
0.8799481478942557 2.633955331452225 -0.09969682150975234 53 52 56
0.8767667186225838 2.61174786876642 -0.09635129614580568 51 51 51
0.873863381374452 2.5891736602347706 -0.09301457451525669 53 53 53
0.8659855348864592 2.575378548023483 -0.08979304462926019 55 55 55
0.8635853068518305 2.5521425907336663 -0.08647246508824308 54 54 55
0.8484892163453563 2.5509692740248764 -0.08340369509589524 52 52 54
0.8308845008636916 2.5540820731699547 -0.08037566957501491 51 51 53
0.8200712260429925 2.5454807090237757 -0.07722374268819715 52 52 54
0.8263203752988691 2.507734215985074 -0.07379554098054547 47 47 47
0.8123468718415061 2.5046601995095266 -0.07071066409294424 69 69 69
0.7895299151109827 2.516576030247828 -0.0677547158662592 83 83 83
0.7614656247818962 2.5372401979120824 -0.06485732477192419 111 111 110
0.698738432049624 2.616128055265121 -0.062400064841495795 130 130 129
0.6956559544878859 2.5942635463174 -0.05911585673848496 119 119 118
0.7013154392502486 2.557885255410339 -0.05574156408388936 131 131 129
0.7054794161245286 2.524216123275642 -0.052410487660911 154 152 153
0.7021996306770477 2.503110672914807 -0.049181339442272765 165 163 164
0.7108593590624742 2.462345968763217 -0.04584921786920648 170 168 169
0.7045405421818922 2.446538292509346 -0.042682385829959923 172 170 171
0.7048873655198131 2.419842737463758 -0.03946882721720468 173 171 172
0.7034742374731409 2.3961769888596653 -0.03628666000740832 173 171 172
0.7042344407533394 2.3690883787684163 -0.03310488127547967 173 171 172
0.6979758919063045 2.3535673038845655 -0.02998494686224562 173 171 172
0.6406923639226286 2.4208374883163213 -0.027154538253452043 173 171 172
1.0671092733366507 3.6914935659740333 -0.2502076642471065 172 172 172
0.9371675343874706 3.9271726998794905 -0.2535605871005512 172 172 172
0.8934368873654899 3.9819335217889433 -0.25170763486088654 172 172 172
0.9891468250935016 3.7478954253374424 -0.2418988490559284 171 171 171
1.0750222724558822 3.5359324235814746 -0.23285838689495025 171 171 171
1.1595629833793175 3.3283501698794122 -0.22409032894088943 167 167 167
1.2386729309892628 3.133467637610884 -0.2158084132737912 119 119 119
1.2228376797971958 3.1332783492174032 -0.21270684975580795 78 78 78
1.2327091714344323 3.0809431504683396 -0.20827164783265534 70 70 70
1.2398207909336842 3.03454599602935 -0.204020866268311 63 63 63
1.2194367704514437 3.0437538646082727 -0.20117593089022417 58 58 60
1.1704961090636874 3.1100355541966067 -0.19970890529551028 55 54 58
1.1701551241848291 3.0787970355729843 -0.19584974600456512 52 51 55
1.184808785671815 3.0179603198740277 -0.19131203743084618 51 51 54
1.1610641240906707 3.0335558959560096 -0.18858932150513286 49 49 51
1.1422658181029184 3.039231178268421 -0.18562375607085152 40 40 42
1.1294262599104359 3.0331132731432913 -0.18238476352908506 49 47 50
1.1232260170119979 3.014007859650236 -0.17885964503509266 68 66 68
1.1106198800138272 3.00748775087195 -0.17561719853401248 77 75 77
1.1004942390754184 2.996156801510453 -0.17227287827338428 72 70 73
1.0973528557088956 2.971361466057544 -0.16865159261044144 59 57 61
1.1009429215276956 2.9337440930747496 -0.16478218390133365 48 46 49
1.0808066819085087 2.9418989070264754 -0.16185756231327647 47 45 48
1.0588528959966594 2.9534204983255177 -0.1589883677188968 38 36 39
1.0608570476394736 2.9191859493832952 -0.15522136666032027 50 48 51
1.0448067677534656 2.9194169759828323 -0.15212903185832238 59 57 60
1.0609953686718225 2.8586751173302307 -0.1479012528673993 65 63 66
1.047219843672567 2.8547615155487818 -0.14474793458297996 75 73 74
1.0320309156430638 2.8534839737580238 -0.14163989300575908 76 76 78
1.0212606371442488 2.843915571093899 -0.1383842487484201 63 63 65
1.0294563734059987 2.7990707948468656 -0.13453271783714738 47 48 50
1.0223962767684684 2.7828099119662633 -0.13118580504770705 44 45 47
1.0185117904660932 2.7607601202173995 -0.12775340434833743 41 42 43
1.0219028327662456 2.7254402565975604 -0.12412425808666278 41 41 41
1.0125006623879556 2.713799668804149 -0.12088299483227416 73 72 71
0.9972037769180405 2.7129715520745115 -0.11780853246761058 85 81 83
0.9827720203660009 2.7105318413483905 -0.11470658864354627 91 88 92
0.9695379552634824 2.705895313707551 -0.11157076224512102 85 83 88
0.9561110643610671 2.701598478466394 -0.10843869219474334 63 60 67
0.929995473082183 2.7201300709039544 -0.10561151682728298 54 51 58
0.9293282735691166 2.6928440743354374 -0.10216883798406512 55 53 58
0.9198538160898898 2.681452354898291 -0.09894373785881128 53 51 53
0.9095430345257962 2.671590377929786 -0.09574178111590437 61 59 62
0.8891282470741116 2.6796796937526737 -0.09275505362614461 53 51 54
0.9082559272943501 2.6177864260895687 -0.08895887035723937 44 42 47
0.9100005829332033 2.58690978846924 -0.08554912525108405 49 48 53
0.8097457281393324 2.7351641478735798 -0.08405877003254775 53 53 56
0.7584577879695006 2.796705075192018 -0.08155979649579231 54 53 56
0.7034999543901899 2.864149930021649 -0.07906418089291156 56 56 59
0.8771610591577162 2.534313746368416 -0.07277867032045726 51 51 53
0.8693332138741025 2.5206373610575517 -0.06959629740874418 50 50 52
0.8471867660560086 2.531688363960707 -0.06663250967736895 51 51 53
0.8445137878731913 2.5091875127237877 -0.06338087606515619 64 64 66
0.8505221781592686 2.471956224813184 -0.060028498440096056 77 77 77
0.8359730755881742 2.469990470465027 -0.05696128706889125 79 79 79
0.8164132396632953 2.476508395582105 -0.05394998083861818 80 80 80
0.7899785580745259 2.494574117468047 -0.05100420581550119 79 79 78
0.7660687693193697 2.508212976056038 -0.048011809474657385 75 75 75
0.6931459470546377 2.604075258721423 -0.04547390488766351 70 70 70
0.6842753097558562 2.591966947457918 -0.04227918936184777 65 65 64
0.6709782943555734 2.587288534072338 -0.03912603898392247 73 71 72
0.6643262479894055 2.5715538275771324 -0.03592234295010954 103 101 102
0.6669404488877423 2.5405365391682015 -0.032664571555506616 136 134 135
0.6791021042299688 2.4939334956349173 -0.0293705849801823 164 162 163
0.6792731192387998 2.467343367670262 -0.02617535588479364 170 168 169
0.6786402934656935 2.442216726504944 -0.023001540830001888 173 171 172
0.6831313672863356 2.408854281803311 -0.01982391783167964 173 171 172
0.6795579348436015 2.3888135980415472 -0.016695928674893723 173 171 172
0.6808432140664784 2.360989864745699 -0.013567547303205585 173 171 172
0.6364258416959615 2.4072093352866926 -0.010544026808535445 173 171 172
1.1196976817972082 3.624196818210835 -0.23667380447909547 172 172 171
1.1093501778870636 3.6108616669944946 -0.23305566989586485 172 172 172
0.8662790393247566 4.083091126679394 -0.24227125674467598 172 172 172
0.9629212019287525 3.845609604006522 -0.23264293067674652 171 171 171
1.034025537828431 3.6628331069080984 -0.2245934344145729 171 171 171
1.1361732405962062 3.4174860076119393 -0.21509584336969656 171 171 171
1.218156668659908 3.2154459901475034 -0.20685840524523513 145 145 146
1.2862807699860936 3.04330710925391 -0.19950332106890412 81 80 82
1.2493567947633952 3.0864270659566797 -0.19747128054503765 67 66 68
1.23874282705725 3.07578839816779 -0.1941245681040687 61 60 61
1.2395236133525738 3.042164349175965 -0.19024412849502043 56 55 58
1.231663694327913 3.0261479391578767 -0.18678972956374046 52 51 56
1.1743754998936136 3.1092912670462263 -0.18558499515604587 51 50 55
1.1831974965820553 3.0597355484318856 -0.18136256656999677 50 49 54
1.1735727906660367 3.0472085741849684 -0.17798237729929722 48 48 52
1.1708759921580774 3.0210084989418893 -0.17431388407983706 45 45 47
1.1516517742830552 3.0275800420019396 -0.17135148765351343 41 40 43
1.1432386755480506 3.012803535822096 -0.16793787594211484 53 51 54
1.1375307693060552 2.992798812012404 -0.16442497962764718 63 61 63
1.1250019145584256 2.9862066094662403 -0.16119000136012573 68 66 68
1.1127316436411645 2.9791170709831025 -0.15794582277378222 64 62 65
1.0930872821594488 2.986308034613951 -0.15497574946907394 52 50 53
1.0945523327538167 2.952700569063782 -0.1512307960431889 39 38 40
1.0909050262516626 2.929123849311244 -0.14769149994596403 39 38 40
1.0677382023897337 2.9430265620756324 -0.14483919550562924 45 45 47
1.0570835693934166 2.932931309545772 -0.1415497250309648 48 47 50
1.0849186196690352 2.8497911344127855 -0.13700864751402442 52 51 53
1.0828154180065375 2.8238629166946403 -0.1334885684320214 63 62 64
1.0842571337760072 2.7914075281950055 -0.12987723915152832 69 68 70
1.0823692589422276 2.765403419765118 -0.1263900673634336 67 67 69
1.0442286255038369 2.807344022849355 -0.12397921356534997 55 55 57
1.0470461474880137 2.7726219090566784 -0.12036443429554289 38 39 41
1.0371374829599307 2.761735924625686 -0.11712566125167506 41 42 43
1.0284895357747104 2.748556811514282 -0.1138578180988078 38 39 40
1.0230983253747434 2.729433599982921 -0.11051243381670073 45 45 46
1.0181193805112314 2.709653130072444 -0.10716865127956698 55 55 55
1.0009807506652635 2.7122089050855487 -0.10413150548630057 72 70 72
0.991172896243353 2.7013491459497194 -0.10091554547247361 83 81 84
0.9816965489437757 2.689925244488526 -0.09769659962259003 76 74 78
0.9719832995635557 2.678971279128736 -0.09448779785942901 54 52 58
0.9532731652305703 2.684262427487246 -0.0914721303548619 59 57 64
0.9545559933442176 2.6535891255648343 -0.08804354086569349 46 45 49
0.9486861927270113 2.6358888096148982 -0.08477544339621373 51 50 51
0.9716798016701771 2.5668525564230595 -0.0809814023498211 47 45 47
0.959667242656474 2.5604185084320235 -0.07786611988941028 47 45 49
0.9406040322438923 2.566459432550176 -0.07487149452295805 52 49 54
0.8992630804237363 2.611671470665761 -0.07222863760414111 65 63 68
0.8834373691784372 2.611714527222699 -0.06914626901650078 69 68 72
0.8311789503384439 2.6754498676138807 -0.06659508763581612 68 67 71
0.8938962265790038 2.5382743776403025 -0.06237855815737081 59 57 62
0.885507539574144 2.5255409172323815 -0.059214745876208064 52 51 54
0.8704055542101862 2.5244751623368185 -0.05614058576993414 49 49 51
0.863207482203629 2.509747541280752 -0.0529698840257542 52 52 54
0.8565985539229839 2.4940723657120847 -0.049800475000390365 64 64 66
0.8590498614629846 2.462958331558082 -0.04654699104555532 68 68 69
0.849939683596351 2.451747268798259 -0.04342501061775811 67 67 68
0.8358698666384687 2.4490053954227955 -0.04035119378159907 60 59 61
0.8117600036768285 2.4632466229104923 -0.03735550664639736 61 60 62
0.7924815959600628 2.469192490461551 -0.03430749635037761 64 62 65
0.7091877439485893 2.5827054226626203 -0.03167160217857634 64 64 66
0.7031430404354743 2.565930109547062 -0.028480323930588525 63 63 65
0.6840564117689958 2.5710089973607597 -0.02536574599970065 59 58 60
0.6669300184219648 2.572749586638612 -0.0222332165590714 63 62 64
0.6521212775246936 2.5705943507429825 -0.019085598176872276 69 68 69
0.6449845162883854 2.5557379170478978 -0.015911408514880487 93 92 94
0.6666225869663758 2.4935703530197464 -0.012676717436954199 146 143 145
0.6669418063199277 2.4667733989958527 -0.009525049325360357 169 168 168
0.6672586817882116 2.440127131841311 -0.006390996863624487 172 171 170
0.6668354812706808 2.414832227017276 -0.0032746369077649717 172 171 171
0.6653949594040331 2.3913250356722875 -0.00017421465338768316 173 171 172
0.6335563809856638 2.417122245110631 0.0029433238916954374 173 171 172
0.5766865871490757 2.4830587313369175 0.00613016715310527 173 171 172
1.1404120696230622 3.5884170811709417 -0.22089598261534688 172 172 171
0.9487217396291723 3.919124427660977 -0.22254156869099345 171 171 171
1.0052533418834262 3.76551009445378 -0.2154126041076373 171 171 171
1.1016076394457843 3.5305953976640856 -0.20644950641599696 170 170 170
1.1969002377116547 3.299705119079116 -0.19775527015027167 163 163 163
1.2754494358128379 3.105016264585814 -0.19007133262876263 101 101 103
1.3152993374522879 2.991031854492017 -0.1843708755936737 69 68 70
1.2630241999190732 3.0656910837596554 -0.1829803916450437 61 59 62
1.2505084496597954 3.058988671941778 -0.17973612145073675 54 53 56
1.2516848154652034 3.024603997224425 -0.17589332790629802 50 48 53
1.2152374603794893 3.0662261772887778 -0.17368812831887848 48 47 52
1.2073434977851685 3.0501876551161304 -0.17024278138225546 48 47 52
1.2000347125589288 3.0330590202671166 -0.1667828686401861 48 47 52
1.1907302129343917 3.0199906184183716 -0.1634131991193592 48 47 51
1.1656134649045318 3.0383294687866607 -0.1606682258041811 46 46 48
1.1626252721169232 3.012774979720998 -0.1570560946716396 47 47 49
1.1543588584483901 2.9977570042997277 -0.1536587203577191 54 52 55
1.1516842975914368 2.9718514912268876 -0.15006641061773673 61 59 62
1.141181435077283 2.961382067262038 -0.1467699934150924 62 60 63
1.1370037003204443 2.9386486050441 -0.1432591447820395 63 61 64
1.123819922893416 2.9334895813022963 -0.14006691371925423 41 39 42
1.1137921989923893 2.9222350684660174 -0.13677051958357034 38 38 40
1.105534839147927 2.9076187602832926 -0.13342249807007717 40 40 42
1.0718182624744128 2.941817591884355 -0.13087258130989593 51 51 53
1.0776174305128676 2.900335817163502 -0.12709413584760032 50 50 52
1.0972693178795403 2.8328027400460174 -0.12294180831272478 49 49 51
1.0953559226758427 2.806560444635382 -0.11945862477580826 58 58 60
1.0987255613687417 2.7705104484057044 -0.11584795960606048 60 60 62
1.0902151856343916 2.757007214483314 -0.11258225415866119 56 56 58
1.0643808816355969 2.775983996580818 -0.10977236572781957 38 38 40
1.0602905055443372 2.754233289312754 -0.10639503419368534 37 37 39
1.0542843316865453 2.7361608448615438 -0.10307834489535334 38 38 40
1.034842107468183 2.7430433998666555 -0.10008724814775322 44 44 46
1.0180323446510007 2.7449778551936035 -0.09702539606556254 46 46 48
1.0231029581760827 2.7066677306196154 -0.09348001859442245 48 48 50
1.0068715508578028 2.707578377972726 -0.09041011937537474 61 61 63
1.0009691241773782 2.6896093844696543 -0.08712599609183053 73 73 75
0.9955463522875933 2.6708595237257455 -0.08384328013000375 56 54 59
0.9935627373631022 2.645982435545494 -0.08050806723027648 54 53 58
0.9763399339436879 2.6487199580593623 -0.0774604792342446 53 52 58
0.9662531443129821 2.6385772199729756 -0.07428421863265927 41 40 44
0.9571631561620229 2.6266827608860903 -0.07109560759643563 39 39 38
0.9704105653730946 2.5750057770996504 -0.06756767999341273 37 35 37
0.9669205179058078 2.553398607668571 -0.06432488335212744 58 56 59
0.9392421197983886 2.5747201172930927 -0.061431708803335316 61 59 64
0.9176822615971252 2.585054206081598 -0.058434881346748624 74 72 76
0.9122437163906445 2.566944585610644 -0.055224918166662695 86 86 88
0.9059237086711418 2.550467893666876 -0.052035814603494435 69 69 71
0.8947336562265994 2.542564130954476 -0.048908780159109044 53 53 55
0.896849600909441 2.5115494346085256 -0.04564913374251167 54 54 56
0.8939394289086985 2.489421361546496 -0.04245816002463071 44 44 46
0.8907124990254188 2.4679580819646123 -0.03928392107246392 52 52 54
0.8844930465790362 2.451753261756994 -0.036146709217702855 55 55 57
0.8814124617964776 2.4302464070930014 -0.03299595982131526 52 52 54
0.8694802595660588 2.423962944318535 -0.029915563582437077 74 73 75
0.8564151178114208 2.419610916573828 -0.026842153147248693 68 66 69
0.8346883528698531 2.429929937751517 -0.023810863963107887 65 63 66
0.8166646103894454 2.433881300630916 -0.020750256521225585 62 60 63
0.7298982688150842 2.553448430766368 -0.01792676289256384 51 51 53
0.710065680283017 2.5598868760757196 -0.014806633086994647 51 51 53
0.6971210690917341 2.5547292590835684 -0.011661392433696793 52 52 54
0.6815752116032536 2.5538983828679216 -0.008519414142192594 49 49 51
0.6614668056438335 2.5606027291908497 -0.005376782831918225 63 63 65
0.6418119431538085 2.5664692779988374 -0.002223703007244393 63 63 66
0.6403439484003172 2.5422896541960496 0.0009279427385113781 78 78 79
0.644231412405746 2.5094459484003453 0.004057421312190224 135 133 134
0.6481656521142732 2.476714657446446 0.007164425864857882 169 166 165
0.6449520404952249 2.4558249076242507 0.010268118828971162 173 171 172
0.637681844216226 2.4416311348480373 0.013372822037512055 173 171 172
0.6383783501088424 2.4145975405749875 0.01643877606818339 173 171 172
0.6384410331889495 2.3887341825771777 0.01949019686679998 173 171 172
1.157229041978454 3.595830149548788 -0.20953116872495076 171 171 169
0.8833479426562518 4.100700490898356 -0.21478144661239884 172 172 172
0.9756161617973496 3.8709575410894796 -0.20603430424223373 172 172 172
1.0740206793145535 3.6302432296032134 -0.19720932994698953 170 170 170
1.1671740139399813 3.4023018188157694 -0.18884681660573177 166 166 166
1.2568249048941733 3.1833727104920504 -0.18085042660740042 130 130 130
1.313463318538386 3.0340397394648546 -0.17450939207674582 71 71 73
1.3461621381861375 2.934888071523896 -0.1693351270338318 59 59 61
1.2991314258416642 2.999139532285427 -0.16761122278544788 52 52 54
1.2452507924853053 3.076752693594035 -0.16610456246505617 46 46 49
1.2249650110739048 3.0857083184593463 -0.1631667553602284 44 43 48
1.2101112964613439 3.083595054122897 -0.1600013526856502 44 43 48
1.1738089924747532 3.1245201640979787 -0.1576565579110183 45 44 49
1.1832573760809346 3.0735701221885763 -0.15355288152807206 45 44 49
1.2061613366761685 2.9961663597236012 -0.14899827445964053 45 45 49
1.1817408497134974 3.013234616870907 -0.14619713498354941 45 45 47
1.179167715135008 2.9869379443833783 -0.1426155305482968 55 55 57
1.1683260168001746 2.977080575345228 -0.13933246525352766 55 54 57
1.1643841354640565 2.953721096435905 -0.13582553421304167 56 54 57
1.1754292989121473 2.9012167311151327 -0.13185374705030029 56 54 57
1.1570974859102 2.9062447698511074 -0.12884038864865877 53 51 54
1.1413172803453193 2.9062419870662777 -0.1257398406965899 36 34 37
1.1249703412076577 2.907288337868039 -0.12265067415616959 38 38 40
1.1208203614404388 2.8848177201346434 -0.11920683494584566 41 41 43
1.0993669847109213 2.895633665463045 -0.11625725169742551 44 44 46
1.106204962605849 2.8523130357149085 -0.11253318591411104 46 46 48
1.122938496437342 2.7904593769461394 -0.10858530870628924 45 45 47
1.111780937323863 2.7818716278962254 -0.10538870359552283 49 49 51
1.1075650808902133 2.760203828791232 -0.10202583258063114 51 51 53
1.1149787135793312 2.7167910523794063 -0.09840408256840111 50 50 53
1.0960582280917217 2.722987354936384 -0.09541173077686571 33 33 36
1.0839621087515539 2.716359235968725 -0.09225996322553814 35 35 38
1.0707666447688853 2.7117810402642943 -0.08913200722112835 38 38 41
1.0443612294651805 2.7316580339785563 -0.08626945803081393 47 47 49
1.0198791168317582 2.7477941156307693 -0.08334716925282143 44 44 46
1.013255774523817 2.7309395108030743 -0.0800743451427583 37 37 39
1.0122167304822673 2.7039408755160674 -0.07671201954360007 41 42 44
1.0089779725789851 2.681113185827533 -0.07340543263164129 43 44 46
1.0108873709575876 2.649054322379062 -0.07003044089943444 40 39 43
1.0111577687219233 2.6201582898450386 -0.06670342190000667 55 54 59
0.999199547838353 2.61349661293748 -0.06357482078406479 35 35 39
0.9854323473587256 2.610093430205401 -0.060471988169195134 36 36 38
0.9624558617785999 2.623166421833881 -0.05748719101279248 37 37 38
0.9717099133632164 2.5785895241181316 -0.054090840495759185 44 43 45
0.9632850107037327 2.565727513425495 -0.050931114563251945 50 48 51
0.9540390647252068 2.5543719633618576 -0.0477863039373605 59 57 61
0.9353625009755884 2.5597012814208067 -0.044740457306823744 57 55 60
0.937128792497077 2.52900246088419 -0.04149644277873521 74 75 77
0.9330853322196827 2.508664076592223 -0.03832295080238768 50 51 53
0.9244448576908625 2.4964567378675504 -0.035197453932847955 50 51 53
0.909963210460918 2.494456460939263 -0.03211836545017027 60 60 62
0.896954422856197 2.48987683657756 -0.029026917279981357 38 38 40
0.9084714019174339 2.4429367893204046 -0.025798715933805894 48 48 50
0.8981532411762319 2.4338637424488803 -0.02271025313339553 52 52 54
0.8996428084893096 2.404571181244116 -0.019576371189992725 65 65 67
0.8808548531788286 2.410088368178362 -0.016530616416274846 90 90 92
0.8554057047711215 2.4268644799671217 -0.013493209300233622 92 90 93
0.813397332337139 2.471567326476249 -0.01046928916069112 75 73 76
0.7662441921429415 2.524606658466555 -0.007409782510255369 60 58 61
0.7321901854949069 2.555168234783535 -0.004294409756949447 48 47 50
0.7411294825146734 2.5133238866083634 -0.0011558643900702048 41 41 43
0.7164997611226303 2.5278685257892324 0.0019815845717907066 46 45 48
0.7147631259245676 2.50412328854736 0.00510039137603957 43 43 46
0.6896528656954772 2.5193145965998363 0.008256603581726474 47 46 49
0.6911168360772353 2.490389445028109 0.011352536261926005 44 45 48
0.6678620778984691 2.5023821895471214 0.014518366593486987 55 58 61
0.6364198284067665 2.52770249126611 0.017733729676106147 70 70 72
0.6369064230983658 2.5005299748889764 0.020816664021627795 142 139 140
0.637063649232963 2.4740439945572708 0.02388399878122921 170 168 169
0.6355075407966504 2.450487841316474 0.026945220514413115 172 170 171
0.6350899620871981 2.425210709536589 0.029984076749862976 173 171 172
0.6202094771009133 2.423420515398813 0.033116947348290626 173 171 172
0.6670120163158513 2.322355842967128 0.03574413259087422 173 171 172
1.3461279984341998 3.237378485834843 -0.18982939693892864 171 171 169
0.9293658358579413 4.086186341681654 -0.20569862533095484 171 171 169
0.9682375289885077 3.967138333168911 -0.19961267964649232 171 171 170
1.0629819264792564 3.731651370275419 -0.19109381170349732 172 172 172
1.1005289140733578 3.617667043732733 -0.1853315313086875 171 171 171
1.1735218156644283 3.4307047804901196 -0.17812875638289782 167 167 167
1.239239207316472 3.2602953221312445 -0.17140339411880207 139 139 139
1.297576770858052 3.1064577985555863 -0.1651370879329201 84 84 85
1.31457508228223 3.038896287294031 -0.16068527671415467 61 61 63
1.3070913531837396 3.022018710155021 -0.15726062011524983 51 51 53
1.290140415197091 3.024560050523643 -0.1542123098201027 42 43 45
1.240841195936353 3.0928244868489267 -0.15237728901494585 40 41 44
1.2176975813607378 3.107515441584184 -0.14951132481710389 40 41 45
1.2289264714384263 3.052688718574633 -0.14539288731566152 41 40 45
1.1977992858018136 3.083372832612528 -0.1428001080078557 42 41 46
1.2007915630692345 3.0454669347537835 -0.1390121092073569 43 42 47
1.2243354947838534 2.9668328972154594 -0.13457193112742283 44 43 48
1.2153049881057052 2.9534662057920125 -0.1312478198960746 42 43 45
1.1979270166373799 2.956672278762881 -0.12819209422517652 47 47 49
1.1828759720271989 2.9552217456288177 -0.12505730279820926 57 57 59
1.202382249837794 2.8859012709280116 -0.12089677845675068 55 54 56
1.1958618719971628 2.8679646725191024 -0.11753973238312293 46 44 47
1.177521059413793 2.8731452449369095 -0.11452222929794703 44 42 45
1.154019778958163 2.8882531454648026 -0.11163390734349132 36 34 37
1.1323274283932319 2.899703107477119 -0.10867973870777908 38 38 40
1.1150579334368318 2.9025043000777195 -0.1055986374313696 39 39 41
1.0897239909820433 2.9207059808732003 -0.1027063263739349 41 41 43
1.117071756323267 2.8380692875376075 -0.09855377731694331 43 43 45
1.0895733675491983 2.8604077185801846 -0.09571252410642583 41 41 43
1.108563712140144 2.7943861844123417 -0.09183129418159258 41 41 43
1.1153998020917004 2.751779482540628 -0.08825817398150798 43 43 45
1.0945847058577556 2.761482429858378 -0.08527518281092134 41 40 45
1.0945785427881112 2.7320604593633235 -0.08187589703320486 32 31 36
1.0945718873648458 2.702817679078163 -0.07849720964272983 33 32 37
1.0725588836739082 2.7146931277081237 -0.07552896660784697 35 35 38
1.054217818777793 2.7196300885207485 -0.0724832780211061 34 34 36
