ply
format ascii 1.0
element vertex 731
property float x
property float y
property float z
property uchar diffuse_red
property uchar diffuse_green
property uchar diffuse_blue
end_header
1.004436770552203 1.9215607390526444 0.7700574965648789 167 167 167
0.9689229512455393 1.9298515688018474 0.7717218129544233 142 142 143
0.5564417674998862 2.925173753887322 0.7163600499918051 30 30 32
0.5741586888382584 2.9430798752096257 0.7136984731922096 31 31 33
0.5795936759917812 2.957639361289163 0.7121287339120624 26 26 28
0.565695763459138 2.9668142193534783 0.7122873446174657 25 25 27
0.5322966215454359 2.970455964061556 0.7141977950938654 24 24 26
0.5046167061559935 3.1056000913099147 0.7048039159092638 18 18 20
0.5242483193387444 3.1245885963657885 0.7019255468070922 17 17 19
0.5106525061206827 3.133538576952892 0.7020828236496804 18 18 20
0.5360979614041435 3.1675316759543652 0.697572632423376 20 20 22
0.5903790637487657 3.2107209170679614 0.6903877785725805 22 22 24
0.5855788677531355 3.2224664321671277 0.6897300056874253 24 24 26
0.5763271742700875 3.2328014352990473 0.6894843739111284 32 32 34
0.5536324432437973 3.238853888759348 0.6904852707012206 39 38 43
0.5543919538835047 3.2523064441705403 0.6893172913717838 36 35 40
0.5486331277243831 3.2636824346384405 0.6887537374102467 32 31 36
0.6612979031890452 3.407370808699303 0.6693508204469774 13 13 15
0.7860150084071262 3.8085868522575814 0.6277536126915488 44 45 47
0.7867578958890028 3.822823211167063 0.6265216154649789 46 47 49
0.7973250779662092 3.840851857544486 0.624323597407415 51 52 54
0.8053701867771714 3.857953149021748 0.6223697364698038 61 61 60
0.8268134895537079 3.880297029497566 0.619092557054959 116 115 113
1.0248364243270185 1.8989289958785145 0.783511802859972 168 168 168
0.9847974977866896 1.9067594044408362 0.7854531793723555 156 156 156
0.5648512660831435 2.5416370391258916 0.7600667335862161 37 36 41
0.5197452865995368 2.83855091221509 0.7384097069272085 27 27 29
0.5675544299222646 2.9422223170614252 0.7267373102074921 26 26 28
0.5765302373798477 2.957758900295817 0.7248709205132109 24 24 26
0.5056255359904945 3.1199473311145876 0.7160329961170028 17 17 19
0.5646157829287737 3.150973884124599 0.7096499567179713 17 17 19
0.520636652211503 3.1506723719185366 0.7125192022615165 20 20 22
0.5882946969451692 3.211090580741769 0.7031429726815839 22 22 24
0.5821881861843485 3.2224248028221076 0.7025998216014058 21 21 23
0.5747507309633435 3.2333267694181966 0.702178523350276 37 37 39
0.559935261464908 3.241872928171295 0.7024293675619534 42 41 44
0.5678079277240263 3.2576060901087045 0.7006180521173223 36 35 38
0.6562268842579455 3.406734733417353 0.6825569842539434 13 13 15
0.7852480240401621 3.8094397590027094 0.6408826749590457 44 45 47
0.7866626529709164 3.8239348169185607 0.6395914965114704 47 48 50
0.786524063847577 3.837846468713998 0.6384490561793879 54 55 57
0.8046868348203794 3.8588449904596627 0.635536452537601 69 69 68
0.8112080607345105 3.87539533171908 0.6337449054967608 127 126 124
1.0062803021776903 1.8843074273650449 0.7988171326420478 165 165 165
0.9651655882060751 1.8920236859113397 0.8007747495274495 136 136 138
0.5747626080208097 2.5191888892413457 0.7736947797886465 37 36 41
0.5808431371566826 2.53331096820246 0.7721468168416685 36 35 40
0.5750244168679899 2.544805012858032 0.7715662262100769 35 34 39
0.5171254539223206 2.5572704255259944 0.7741911515710136 34 34 37
0.5174666613175043 2.570057844777959 0.7731153092918914 34 34 36
0.5781274969178867 2.841951957843441 0.7468708421224202 24 24 26
0.5140095407010018 2.902504532494155 0.7459233445509609 24 24 26
0.5516450783905253 2.9257840058830986 0.7416296368963661 24 24 26
0.5714316828504654 2.944263803514651 0.738857702143077 24 24 26
0.572915268946274 2.9577243702186826 0.7376542895370292 22 22 24
0.5433660585913646 3.145505022368037 0.7240360489883693 17 17 19
0.5100069205941614 3.148417424781722 0.7259004626592083 20 20 22
0.587386542320012 3.211826705608642 0.7157907230094249 23 22 26
0.58237010426803 3.22350269861158 0.7151445169613553 26 25 29
0.5729175781526188 3.2337710568345366 0.7148942307728522 42 42 46
0.5700005834257236 3.2460869713720477 0.7140628151817392 43 43 45
0.7882986501986712 3.853660841388865 0.6501968015976812 88 88 87
0.819421057593455 3.8797478284259297 0.6460825119974744 113 113 111
0.516332886866409 2.519904479068266 0.7896438811457593 34 33 37
0.5243079329972471 2.5343718517380514 0.7879651542623595 33 33 36
0.5229336366352955 2.5467699334367015 0.7870313761424088 32 32 34
0.5284259398047595 2.5607291639279373 0.7855470750627183 31 31 33
0.5267320700975165 2.573073105466724 0.7846373976319734 30 30 32
0.5560764746173505 2.850059725848196 0.7600828085736892 24 24 26
0.5243404877433113 2.8933437011930914 0.7584795264730635 22 22 24
0.6004645222000693 2.927095970602121 0.7510256562172906 22 22 24
0.5436058211089676 2.9245367902004284 0.7547326975013859 20 20 22
0.5622965258956799 2.9427041138504713 0.7520910606649867 15 15 17
0.5746126041935737 2.9591691708091115 0.7499812806405167 16 16 18
0.5292006064184795 3.1290852869156525 0.7388183371206438 17 17 19
0.5591663795791066 3.151325678744622 0.7351487408399331 17 17 19
0.5839108237132301 3.2250071796096274 0.7275752197175427 39 38 43
0.5761973899489994 3.2358279719367293 0.7271608509792096 44 43 48
0.5860769696545469 3.2522108096963067 0.7252076701415623 42 42 44
0.8784053699954908 3.8472810870795877 0.658354061842573 42 42 44
0.7862675514408789 3.854029022016106 0.6634663653372821 81 81 80
0.8115523691508328 3.877849607118519 0.6599548639797174 79 79 77
0.8133735302281121 3.892604689618566 0.6586309743686886 131 130 128
0.978557242779906 1.8564193910938331 0.8285602619888259 130 130 131
0.537127251601595 2.5254061434704336 0.8002730779936933 31 31 33
0.5455328873367647 2.540008460425323 0.7985747421700984 28 28 30
0.5373827506107482 2.5509186515002433 0.7981704012289645 26 26 28
0.527890048976449 2.561504598355263 0.7978730269093424 25 25 27
0.5401205091324002 2.5770336652728023 0.7958697080816944 25 25 27
0.5576761343888302 2.8384746057332686 0.7734274519820514 23 23 25
0.5542357429166563 2.850523497212654 0.7726477680723216 25 25 27
0.5052650252938877 2.8633188415323474 0.7745348930287393 22 22 24
0.5459426879812666 2.900170857321987 0.7690826126045185 21 21 23
0.585956565141101 2.9371570624582732 0.763659122869427 18 18 20
0.5810629514675619 2.948870523669929 0.7629939506624466 14 14 16
0.5624122066736424 2.956741122923332 0.7634674297507668 16 16 18
0.542751311837862 2.9642719834831794 0.7640292270371184 18 18 20
0.5533672955921668 3.137413223382705 0.749227207547281 16 16 18
0.5618405154864998 3.1531475455672773 0.7474322047126994 17 17 19
0.5844542826967645 3.2261994583149827 0.7401004116398786 46 45 50
0.5775455316032755 3.237276526961138 0.7396080414244388 45 44 49
0.6472727125713502 3.650846678338719 0.7015931766694109 30 29 32
0.7052278592992633 3.685876272405854 0.695254847433518 35 35 38
0.7208576696184514 3.7054249442325107 0.6927189876846953 43 43 45
0.8647636246829974 3.8432334505940147 0.6728219328253017 45 45 45
0.7808738700694265 3.8530949832168933 0.6770412169876576 65 65 63
0.8089998577308984 3.8780174527259392 0.6733169968217241 70 70 68
0.8213369113540249 3.8968807259489737 0.6710344952726865 100 99 97
0.9575447556089799 1.841664460694593 0.843840893281256 105 105 107
0.6027538370119503 2.540863636611127 0.8075487513229602 27 27 29
0.5368049572143078 2.5389512370826646 0.8115511460834246 24 24 26
0.5296059480421119 2.550062171562106 0.8110654792634007 21 22 24
0.5194713953690102 2.5604902146445876 0.8108066873899623 22 22 24
0.5333635416430477 2.5891411603032193 0.8076613244702672 22 22 24
0.5494188739463824 2.8243110841224848 0.7875582203370726 19 19 21
0.5563397719140963 2.8390722483262145 0.7859514978167934 20 20 22
0.552706139461026 2.851069529791934 0.7851856385227005 21 21 23
0.5400554100166483 2.860658044491116 0.7851420277518446 21 21 23
0.5762790405105936 2.896349875400431 0.7801203180904631 19 19 21
0.571181471843097 2.9079926112852457 0.7794687402161817 18 18 20
0.5932131141668195 2.9270494745098716 0.7766305638589424 17 17 19
0.566932458309581 2.958972785063478 0.7755616160574303 17 17 19
0.5274523310541332 2.96095016899934 0.7777031729192508 18 18 20
0.5749914907657159 3.0004539017855105 0.7717107990938005 17 17 19
0.5371038194407991 3.002719565186545 0.7737359792766649 17 17 19
0.5002257816629709 3.148421927045216 0.7640119899726515 22 22 24
0.5145835588319225 3.165929665557066 0.7617476548832987 26 26 28
0.5883826350105966 3.2151969989054305 0.7534278998200684 44 44 48
0.5862774817014542 3.2277939705883165 0.7525240149641004 47 46 51
0.6048137977383691 3.2469089462255543 0.7498849706254986 44 43 48
0.6485977130156677 3.3814887825905657 0.7363627961750561 14 14 16
0.6318821443982805 3.3893771780607205 0.7366948330246536 12 12 14
0.6424856626540841 3.406372882578977 0.7346912001378636 11 11 13
0.6362417085362081 3.620685494359357 0.7175886219328458 22 22 24
0.6562434636980101 3.6416014113610267 0.7147173253362099 24 24 26
0.6988407138464532 3.670901295870572 0.7098448203269804 29 29 31
0.7246157656888996 3.6941521389679974 0.7064464910837305 38 38 40
0.7367874690157468 3.712457475437607 0.7042446555534937 44 44 45
0.7613565228166004 3.735438515468694 0.7009386566111607 44 44 45
0.8535912799336343 3.840125207188072 0.6870268713837532 57 57 57
0.878925509364528 3.892228889164464 0.6813027087981458 57 57 56
0.9035500668565961 3.9159736130795317 0.6779312312978355 63 63 62
0.933368498740585 3.941848021886718 0.6740832439425315 87 86 84
0.9958691244339906 1.8212078293851022 0.8561451071371485 140 138 141
0.5919028135940059 2.5393536333342697 0.8207626003987439 23 23 25
0.6000286191362403 2.5539933616567527 0.8191130307175147 20 21 23
0.5573132572443703 2.5572052500608136 0.8212758567712556 19 20 22
0.5353022528342064 2.564983429600333 0.8218932444932101 19 20 22
0.5222167438810009 2.66406132234603 0.8145920409718004 20 21 23
0.5160934337360814 2.6753695166277343 0.8140214083310165 20 21 23
0.5094007192360386 2.7633826246416366 0.8072557862244851 20 20 22
0.524202690711796 2.7928897208489127 0.8040204155504901 18 18 20
0.522253144399955 2.8052643467059193 0.8031263936044042 18 18 20
0.5617404381328001 2.828480772286501 0.799001136239389 18 18 20
0.5665285299829955 2.8427048501646968 0.7975746863302998 18 18 20
0.5521484076065317 2.851873086531281 0.7976462612783772 18 18 20
0.570948122748489 2.8698525355532483 0.7951199399098539 20 20 22
0.5604716878555938 2.880043885607881 0.7948869659075228 19 19 21
0.5695343768072995 2.895488394787807 0.7931189031330509 18 18 20
0.5701404706624321 2.9086726061379133 0.7920141530329255 17 17 19
0.5960223642650218 2.9287868901632312 0.788912686332449 17 17 19
0.5539162391090786 2.943287188413481 0.7901244948056889 16 16 18
0.5439546630131548 2.953534496036548 0.7898577658319148 16 16 18
0.515348855597641 2.95852173524715 0.7910759121631821 16 16 18
0.5407415221748201 2.9786706428307284 0.787999392300989 16 16 18
0.5238845418275365 2.9999170112765117 0.7872309347816474 15 15 17
0.578170397674018 3.028552506935383 0.781826089065107 15 15 17
0.5107231481946634 3.1657433539717794 0.7745150570203707 33 33 35
0.5843287132102064 3.2017071022244106 0.7674191050012142 37 37 39
0.5832883288600129 3.2146265506345193 0.7664292675626766 48 48 50
0.5929429926135812 3.2309101610229947 0.7645594948129849 48 48 50
0.6190590209283817 3.2524358885305804 0.7613301555963418 38 37 42
0.6405276835945337 3.3798670580705554 0.7497665543215205 14 14 16
0.6336453418859846 3.4044682378597613 0.7481597952044088 12 12 14
0.6385789069629371 3.595444969365091 0.7323754090489523 19 19 21
0.6064945263709115 3.597414773567099 0.7340358933834326 21 21 23
0.6450415915318233 3.624988013190121 0.7296102742958909 21 21 23
0.6656684741589982 3.646153899505691 0.7267215918868986 24 24 26
0.70248778143714 3.6733555604926735 0.7224241689493146 28 28 30
0.7308682750442471 3.697581780134831 0.7188471088037482 34 34 36
0.7503418510850777 3.7186132703806103 0.7160347736448428 35 35 37
0.754402404536922 3.7339750528956004 0.7145572381300735 35 35 37
0.8351109053662074 3.8342219334243812 0.7018394471337692 59 59 61
0.8884645299559577 3.8970942303577303 0.6937079761023497 54 54 55
0.9000329226084246 3.9157797127216716 0.6915346260081905 56 58 57
0.9251599923709174 3.939819964698148 0.688157256378664 81 82 79
0.5584731562347771 2.520066275875288 0.8366271681722548 21 21 23
0.5840198373090628 2.538500786460784 0.8337275026021808 21 21 23
0.5842252397914407 2.551356960936878 0.8326765114342383 18 18 20
0.5540630522328479 2.557371080192525 0.8338535891171405 18 19 21
0.5384062394905509 2.566587734627896 0.8339717161890114 18 19 21
0.5890223269714354 2.6810787355966084 0.8219215107763576 18 19 21
0.5757013006662711 2.6907560973278644 0.821873563343722 18 19 21
0.5659761228752901 2.7012751321679374 0.821559241255758 20 20 22
0.5427748184815355 2.708451446740293 0.8222584437617388 22 22 24
0.5371511497387513 2.71991395222376 0.821641627804166 21 21 23
0.5471244465620668 2.7352590283081 0.8198506668111065 21 21 23
0.5452469581586689 2.747668111577121 0.8189507019453134 20 20 22
0.5632083097134922 2.765100070942993 0.8165504392865672 20 20 22
0.4984729833649395 2.761530349382159 0.8204092449953269 20 20 22
0.510713579312037 2.777492813089267 0.8184433159961017 19 19 21
0.5262467650262135 2.7943563924312533 0.8162229298914842 18 18 20
0.5270654468861066 2.8074563748166788 0.8151184001667598 18 18 20
0.5587709224169407 2.828651711353629 0.8116558149532901 18 18 20
0.579674256275661 2.8471193954764753 0.8090095453694611 18 18 20
0.5638457792906927 2.855926838222189 0.809170232108949 18 18 20
0.5709633828826348 2.8708129765092165 0.8075738751691622 19 19 21
0.5632158433189729 2.88173853825631 0.8071176118058577 18 18 20
0.570311791999286 2.896659509889954 0.8055196321948677 17 17 19
0.5681016374642985 2.9090810799528013 0.8046370039375409 16 16 18
0.5924575846800837 2.928779581742395 0.8017007894079271 16 16 18
0.5985405378108452 2.943534930815352 0.8001720697815586 15 15 17
0.564143062070769 2.947092106109312 0.8017814119579398 16 16 18
0.5292879988038729 2.989419086120504 0.8002807226071099 14 14 16
0.5445228565665428 3.0067977603157927 0.7980351340675951 14 14 16
0.5249294519151055 3.0142132267586983 0.7985160224629373 14 14 16
0.5231891816377713 3.026738866460396 0.7975990642959357 14 14 16
0.5214479777068091 3.0392667309723826 0.7966819777018265 14 14 16
0.5232432096489302 3.0528336072097177 0.7954858344994986 14 14 16
0.5297951406521924 3.080890456898127 0.7928555746436342 14 14 16
0.5293831968847694 3.1069378543166417 0.7907718715972275 16 16 18
0.5422099272829592 3.176475704463549 0.7844410407172604 37 37 39
0.5592945585095778 3.1949473413919405 0.7820050513551887 38 38 40
0.583596837638744 3.2157431331713187 0.7789830600820427 48 48 50
0.6102033697861448 3.237357537687214 0.7757677899786825 44 44 47
0.656179364563859 3.3861175826481418 0.7612021875649122 13 13 15
0.6793464916454321 3.6522658580556824 0.7384014403836362 20 20 22
0.6908970986588804 3.6702076087441227 0.7363135014423586 24 24 26
0.7243430983879059 3.6962916168082027 0.7323595860717436 25 25 27
0.7463215293709714 3.7182469651573515 0.729371982128987 29 29 31
0.7525018338851861 3.73439568464319 0.7277252134311076 33 33 35
0.7546753405196915 3.749073591902104 0.7264183607979005 35 35 37
0.7810924606369329 3.7729030099414187 0.723034411221229 38 38 40
0.8589516624298349 3.8444888641773787 0.712951446659758 49 49 51
0.8677057368841002 3.8619529870005636 0.7110563605282271 48 48 50
0.8790336337557357 3.880451392821957 0.7089356879313025 49 49 51
0.8721997624282629 3.8919600618624735 0.7083818809576716 52 52 52
0.8868050178652757 3.9118031536229347 0.7059717202549989 58 60 59
0.8459521341548267 3.9100091725818653 0.7083698170783111 79 79 77
0.5303557998163095 2.32505527658341 0.8662470401554621 22 22 24
0.5798870804082111 2.5256829628106106 0.8474330653107025 19 19 21
0.6088939700179714 2.544928578658861 0.8443291534086981 18 18 20
0.5830988949979536 2.5520049631634487 0.845140737794142 17 18 20
0.5573016504185543 2.5590010992099006 0.845958902588599 16 17 19
0.5590804806440615 2.5721891640256036 0.8448012968230991 16 17 19
0.5550965139573587 2.584071125023333 0.8440575607024313 16 17 19
0.5522127873947739 2.6090015873492116 0.8422038067994156 17 18 20
0.5817394359172035 2.693147172034794 0.8338442080896274 17 18 20
0.5788002373226016 2.7053374982852625 0.8330196738230435 21 21 23
0.5660224352191474 2.7151027724972465 0.832917446510651 28 28 30
0.5586154234178943 2.7261646105825013 0.8324231141954272 19 19 21
0.5584235180630591 2.7390113904054174 0.831398553873166 20 20 22
0.5586192724646811 2.7519634383640126 0.8303447505943972 19 19 21
0.5483395186738441 2.762272098357678 0.8300649548586714 18 18 20
0.49091937451887935 2.7605358166276157 0.8332802837526898 19 19 21
0.4998504702885954 2.7756396374661736 0.8315852783830112 18 18 20
0.5317436081252503 2.796716056237142 0.8281793012327336 18 18 20
0.5423578608600502 2.8123760751416103 0.8263493415890001 18 18 20
0.5706892002755897 2.832720696907393 0.8231930851147171 18 18 20
0.6130652229674719 2.8699394562396616 0.817925332319664 19 19 21
0.5702637747095342 2.8715828075178433 0.8200854350357762 18 18 20
0.5871244468170616 2.889123154000737 0.8177694474540845 17 17 19
0.578819152220677 2.9521346384335803 0.8131385592706571 15 15 17
0.5470404267774278 2.995444144254475 0.8113519677822092 13 13 15
0.5344973863667928 3.004907476518605 0.8112614886003167 13 13 15
0.5270916807288486 3.01581495576126 0.8107795203009 14 14 16
0.5298113493563583 3.029638679641515 0.8095203186425087 15 15 17
0.5285153327878687 3.0423100505592906 0.8085690249769272 15 15 17
0.5234226545178093 3.0538721976190257 0.8079104340839695 14 14 16
0.528114392631372 3.068311327666889 0.8064960344193486 14 14 16
0.5384173951732436 3.084440612759555 0.8046449450594122 16 16 18
0.5370739456223192 3.097138328408081 0.8036940698097421 17 17 19
0.5338352388982568 3.1092709239031002 0.8028902277805177 18 18 20
0.5329083066441717 3.1220989654223605 0.8019065454815584 20 20 22
0.5323272815237488 3.1350374851107383 0.8008954368481054 23 23 25
0.5327692491870614 3.148295184496322 0.7998038252416234 35 34 39
0.5272850174635607 3.159742056186851 0.7991754919612465 38 37 42
0.560901364152879 3.1832624505122307 0.7954803503233345 36 35 40
0.5817860373913948 3.20295291541845 0.7927756369404346 42 42 45
0.6077595000656975 3.2243165242291396 0.7896635883142046 47 47 49
0.6632162070720847 3.4030074968846376 0.7722992979397215 12 12 14
0.6526927886267723 3.6299776212370367 0.7545799525649786 16 16 18
0.7118116216971859 3.6790150720314347 0.7474634179857931 19 19 21
0.7356380243854705 3.7015879313978326 0.7443689595174556 22 22 24
0.7593234509468473 3.7242036222831505 0.7412786016577202 27 27 29
0.744286701646819 3.7324588487770236 0.7414190032653754 33 33 35
0.7582582065543695 3.751550421750786 0.7391328066950729 36 36 38
0.7919122894266319 3.7781205970526295 0.7351899767070822 45 45 47
0.8667353249346171 3.848623777747292 0.7255031969069796 46 45 50
0.8732644639109036 3.865251222399372 0.7238141106451441 47 46 51
0.8772055266541755 3.880912886548879 0.7223414396792064 46 45 50
0.8592950270716062 3.8881243986914646 0.7227198352637305 50 50 51
0.8097112045320903 3.882940006937973 0.7257931982549701 59 61 60
0.8458115105277808 3.9111242505403725 0.7215893295963963 81 82 80
0.5353992859859529 2.3268960044656937 0.878139401098767 21 21 23
0.5929545513747795 2.5294627802962806 0.8588950341921254 17 17 19
0.6096278260237982 2.5588515619655237 0.8556704626261816 17 17 19
0.5717451908199152 2.5887920682229653 0.8552369772009158 15 16 18
0.5912670086492298 2.6834684405378106 0.8466259526077309 16 17 19
0.5733387176522492 2.6920314756336308 0.8468706503801374 16 17 19
0.5848656459591975 2.7077493720280827 0.8450104383742606 18 18 20
0.5730997703417744 2.7177752031139653 0.8448174971908948 18 18 20
0.5779278126354787 2.731886883490387 0.8434343127798707 17 17 19
0.5731238528380086 2.7436167807737304 0.8427428228402417 17 17 19
0.5694330712761442 2.755618650997678 0.8419716573221993 17 17 19
0.5675076011321746 2.768063460890321 0.8410732061918836 17 17 19
0.565600923959328 2.7805148824741037 0.8401732478669305 17 17 19
0.4891649123212549 2.7738296140082577 0.8446821432325562 17 17 19
0.5324610560482246 2.8107443554878015 0.8394700880412916 17 17 19
0.5467129230171619 2.827389139728952 0.8373938870970572 17 17 19
0.5627209315599683 2.844554930271859 0.8351846133633107 18 18 20
0.6141337293497597 2.8711830766907838 0.8303760776312353 18 18 20
0.5948012094228436 2.8790958258454844 0.8307459316243043 17 17 19
0.5810840100604089 2.8884601177956593 0.8307074829282632 16 16 18
0.5773205962001768 2.900479437445013 0.8299386921514201 15 15 17
0.6043528000009277 2.920883053374274 0.826896684192559 14 14 16
0.5257359028438013 3.0033768210401783 0.8243635615524721 13 13 15
0.5419483820176347 3.0210749156483914 0.8221009512604086 13 13 15
0.5372096347156239 3.0327655109750675 0.8214092255560523 15 15 17
0.5343952341301398 3.045009276930264 0.8205731044487232 27 27 29
0.5367313668829892 3.0587627624420035 0.819348168491034 15 15 17
0.5389142418261448 3.0724878396805164 0.8181334769405872 15 15 17
0.5461515743841454 3.087729734057286 0.8165343942614204 16 16 18
0.533586393443934 3.0970921416701733 0.8164362245934442 19 19 21
0.539004225296116 3.111820857765056 0.814972879486635 23 23 25
0.53982235346854 3.1251875216499267 0.8138578735430592 27 26 29
0.53187738055733 3.1359026102418093 0.8134110509787239 33 32 36
0.5407595220624548 3.1517418340745493 0.8116785577788699 38 37 42
0.5614734497836694 3.1712584371428627 0.8090360906064653 37 36 41
0.5830420454014584 3.191121045071737 0.8063214430150932 39 38 43
0.6094809331257582 3.212582934960621 0.8032253590179942 46 45 49
0.7530556919417846 3.7368627460920147 0.7536974859466342 35 35 37
0.8794752641361767 3.8688020930280405 0.7365409921484409 45 44 49
0.8849312651690272 3.8850632393450097 0.734952707382768 46 45 50
0.8542635023663087 3.887339622041008 0.7363639103710358 51 50 55
0.8469172266984303 3.9127277055014655 0.7347086713571747 93 92 90
1.0515707225012 1.7919184468938738 0.9072028165234693 116 116 118
0.5538951509811213 2.3313664218058343 0.8891643083277796 20 20 22
0.5594653057803716 2.4719800829304748 0.8776459200979435 17 17 19
0.5476297456472399 2.4821604141398965 0.8774286122532916 17 17 19
0.5762532001298961 2.513884638222783 0.8734511294262054 17 17 19
0.5872603091286765 2.529102601799195 0.8716803607986793 17 17 19
0.6224093259976352 2.5497392397340093 0.8682602206768908 17 17 19
0.6143666682055967 2.56081821626115 0.86778000015419 17 17 19
0.5998959526880279 2.570425571860158 0.867741248214441 16 16 18
0.5950579989644065 2.5821849835053934 0.8670451887629151 15 15 17
0.6141822938964355 2.59943286784655 0.8647032311464943 13 14 16
0.5956900976597184 2.6209403345123383 0.8639160397091297 13 14 16
0.6018934452852637 2.6611035621261716 0.8603936841090063 14 15 17
0.6044773820598139 2.6746460716158293 0.859181191883629 15 16 18
0.5951555525520551 2.68533189324451 0.8587968391138904 15 16 18
0.5853484563092154 2.6958761250708623 0.8584482507568819 16 16 18
0.5881207723978843 2.7094749717106748 0.8572217652001051 17 17 19
0.5889674716774671 2.7226170376057155 0.8561288014472649 17 17 19
0.5871334007634657 2.7351048915979477 0.8552231841110881 16 16 18
0.5722349241695412 2.744328675878514 0.8552366383485119 16 16 18
0.5651388619688403 2.755473652678292 0.8547034518681066 16 16 18
0.4931910628713845 2.775796901211128 0.8567040957477233 16 16 18
0.5281138196445592 2.8105554242809077 0.8521667430517276 17 17 19
0.5741702318803289 2.835533188669497 0.847850127892383 17 17 19
0.6049276246222677 2.856642526051745 0.8446134681812562 16 16 18
0.6177947782570337 2.938636412099915 0.837412298226216 14 14 16
0.6037579910723798 2.9478920440182375 0.8373797936949943 14 14 16
0.6240466565620983 2.9666415106143544 0.8348591674211518 14 14 16
0.5680919354000972 3.0164887222763124 0.8336945139348347 13 13 15
0.5420672185068054 3.0220910871231528 0.8345579505049265 13 13 15
0.5429175733065528 3.035404422375773 0.8334511148431814 14 14 16
0.5439631901428158 3.0487863231086796 0.832328961805312 35 35 37
0.5460114636947471 3.0624747929613743 0.831131792237712 17 17 19
0.548996553914152 3.0764556819227167 0.8298640541450855 15 15 17
0.5516205898954933 3.0903484672738575 0.828621547824917 17 17 19
0.560666892016538 3.1061778504029127 0.826900704061819 20 20 22
0.5364553218431415 3.1120531261309208 0.8276509800429578 24 24 26
0.5399285308278172 3.126220387264086 0.826343754868799 33 33 36
0.543222097307033 3.140353930441919 0.825048275137751 39 38 43
0.5607777607417073 3.1588690856691426 0.8226840686388236 36 35 39
0.5859995296289858 3.1798126143322114 0.8197395553489195 38 37 41
0.613042949852077 3.2014173150851497 0.8166504234053891 46 45 49
0.6394096790948661 3.2229157223660327 0.8136038793264702 41 40 45
0.6515431009754133 3.6454069296232854 0.7792273491345163 15 15 15
0.6843510598305715 3.6711379653255145 0.775518014904426 16 16 16
0.7209671255499985 3.6984054707973315 0.7714940274437828 25 25 27
0.7148373091512912 3.7099216505491657 0.7708824933893312 35 35 37
0.7505735484097764 3.737066148000772 0.7669126639551191 40 40 42
0.7790526795136177 3.761624697786743 0.7635151284933308 39 39 41
0.8859934372505929 3.8724733667463997 0.7492682985149602 43 42 47
0.8921158611437991 3.8890072473335406 0.7476384622278456 45 44 49
0.7952719522854041 3.8656120167749517 0.7543873714777729 52 52 56
0.8067352538689143 3.8841047957043715 0.7523318978758884 65 65 64
0.8403512413638552 3.911326616215535 0.7484627110863786 118 117 114
0.8899305260228803 1.812467760686143 0.9264224115322558 49 49 50
0.5821679309372447 2.3885366029646096 0.8955820580326708 18 18 20
0.5739672803694859 2.514276795344087 0.8859729222979748 17 17 19
0.5716412315363688 2.526548324469876 0.88510956740141 17 17 19
0.537211109094184 2.5316716374948243 0.8863816450977786 17 17 19
0.5421813661970363 2.6093903195123116 0.8799525195986562 11 12 14
0.6095585805556016 2.6379981917120583 0.8743878005371375 11 12 14
0.6218494865029851 2.666776477940668 0.8714972756439342 14 15 17
0.60159789496261 2.687813386052216 0.8708107921338067 14 15 17
0.5902521485752719 2.6979955502432853 0.8705538435377597 14 15 17
0.5938716517701027 2.7118130319580187 0.8692773324990877 15 15 17
0.5970941089231634 2.7255534979333227 0.868026324709094 15 16 18
0.5918666404697266 2.7372145119124256 0.8673531339296713 14 15 17
0.5856956090806686 2.748629958916103 0.8667455290716671 15 15 17
0.5781313561563752 2.7596816929199663 0.8662348545268026 14 14 16
0.6346513723836656 2.8523446533350705 0.8561009189409898 16 16 18
0.5948857173944938 2.8679898542410034 0.8567957560236971 16 16 18
0.5715286113077825 2.8747926226987666 0.857393872227461 16 16 18
0.5800277886839922 2.95538790929998 0.850563578869342 13 13 15
0.5785319402769182 3.0204643081773725 0.8454563062388849 12 12 14
0.5505145036594408 3.0255092672163206 0.8464217347054094 12 12 14
0.551369508749351 3.0388412392651603 0.8453187563629456 13 13 15
0.5513066207427314 3.051916932562142 0.8442809641509446 13 13 15
0.5530168986075998 3.0655216954492457 0.8431145406287555 13 13 15
0.5561572751244866 3.0795635346113444 0.8418435475773239 14 14 16
0.5585421116253648 3.0934005641753406 0.8406257220748038 17 17 19
0.5674700727726473 3.1092103453645565 0.8389316094323191 25 25 27
0.545711335792576 3.1158341959624205 0.8394659806930685 34 34 36
0.5493276959255697 3.1300638991791034 0.8381568090610554 37 37 40
0.554604469127749 3.1448200726350417 0.8367247144452706 37 36 41
0.5896148221510805 3.1687000224759956 0.8331155879177126 32 32 34
0.6143685632653005 3.189556201335262 0.8302476002102246 42 42 44
0.6449318751145628 3.2123063015647153 0.8269453918730871 40 40 42
0.5669920023693926 3.6020297124135587 0.7997251778522652 15 15 15
0.6159209835356725 3.6334562867549076 0.7948362047778267 20 20 20
0.676569574407715 3.669385051930328 0.7890170243744175 29 29 30
0.6796735692378205 3.684242410304106 0.7876828889107459 35 35 37
0.72210461625396 3.713747548340701 0.7832639132124639 37 37 39
0.8778994347838778 3.856379522191886 0.764308513409965 43 42 47
0.8800995598426561 3.8713731034312664 0.7630076356609246 41 40 45
0.8881408186798083 3.8886413624379896 0.7612406880235347 47 46 51
0.8246571744650502 3.9063467815941917 0.7629287692963337 124 123 119
0.9181895829474044 1.8038051957304466 0.9384968913128862 52 52 52
0.6090268010177339 2.331146021129117 0.9112790377485629 16 15 20
0.580669434384538 2.3383222215874016 0.9120485698123367 17 17 19
0.5527642503324075 2.4595952076836642 0.9037504827952837 16 16 18
0.5553781199058712 2.523848208816654 0.8985327426192574 16 16 18
0.6008925122262896 2.5467527026716117 0.894568399559911 16 16 18
0.5320085533740702 2.544138848531052 0.8980270529371581 15 15 17
0.5704835078277455 2.616894132215911 0.8904425116592728 11 12 14
0.5785112812457618 2.6316274873169507 0.8888954419362294 10 11 13
0.6092634905859872 2.651770841207362 0.8858468125748202 11 12 14
0.565649615920121 2.6800533462107747 0.8856630373825864 13 14 16
0.5508478116031703 2.6893334970406815 0.8856259157155719 13 14 16
0.5439505530888438 2.7005083933871536 0.885065462572069 13 14 16
0.5822815051881075 2.7746269299380586 0.8773796315507049 14 14 16
0.5440280378772656 3.011555257840997 0.8604001496681108 12 12 14
0.5526137630400789 3.027098570241545 0.8587625256472401 12 12 14
0.551136722054525 3.0397598364851355 0.8578283829759731 12 12 14
0.5520544984396548 3.053123861920845 0.8567254828955525 13 13 15
0.5558283715211414 3.067338754970323 0.8554203095075756 14 14 16
0.5599977244431449 3.081692418289218 0.8540854664260157 16 16 18
0.5644228340641689 3.096145421629484 0.8527306750285921 21 21 23
0.5688558828048424 3.110625032218827 0.8513733993126953 31 31 33
0.5567861413597315 3.1201651261414125 0.8511867109239061 37 37 39
0.5614569017924071 3.13473621127921 0.8498109622613985 36 36 39
0.5664622459996644 3.149434263558792 0.8484093541004288 35 34 39
0.6131701010374254 3.1769224722606357 0.8440252537425603 44 44 46
0.59673062623569 3.425236065009566 0.8251134314948452 11 11 13
0.593116156977545 3.6126530965742325 0.8104244960439202 19 19 19
0.6423234062601918 3.6442384571045663 0.8055975743668249 24 24 24
0.6883882071921217 3.674852443081754 0.800995996674204 28 28 29
0.8109165118634765 3.7898624410366812 0.7860938228008714 48 48 51
0.8366279958311794 3.8136157456427338 0.7829969036747488 46 45 50
0.8470902156179785 3.831659562969352 0.7810724517119481 41 40 45
0.8615743176325779 3.851290933448758 0.7788322910311742 39 38 43
0.8768803134582142 3.871300554907823 0.7765233459065278 40 39 45
0.8782476501658028 3.885986833380008 0.7752943898730879 49 48 53
0.8204108962074271 3.9058505101743752 0.7764494479094786 101 100 96
1.0792415584166641 1.7844308919794787 0.9454483407017606 112 112 114
0.9273900118562923 1.7928210434966783 0.9517117808768641 58 58 59
0.9113401245151984 1.8037861828944521 0.9515779140800982 49 49 47
0.6211964297564554 2.5521800670793007 0.9057114314147197 15 15 17
0.5724701567505036 2.5541227023702224 0.9077804458947484 14 14 16
0.5663322275632363 2.629681525753196 0.9020935818124031 10 11 13
0.5493057141855595 2.702745954913019 0.8971003301861181 12 13 15
0.6541656378852267 2.820017027984118 0.8830568327183094 13 13 15
0.5443256560331355 3.0126213775466884 0.8728568688768763 12 12 14
0.5486294504864657 3.0269328193346983 0.8715304086544097 12 12 14
0.5530603943095994 3.0413048850548066 0.8701933616823061 12 12 14
0.5568349725516225 3.0555093728761653 0.868899485266325 12 12 14
0.560615157648119 3.0697374007317033 0.8676034941828469 17 17 19
0.5656958428981702 3.084371850812506 0.8662160919974791 23 23 25
0.5697390158323856 3.0987242652768487 0.8648982832378067 31 31 33
0.5783817702520794 3.1144755972233678 0.8632602145725684 38 38 41
0.5644234569206353 3.123464930905625 0.8631869780645368 38 37 42
0.5700227340857986 3.138333537140281 0.861757431600061 37 36 41
0.5756342356099587 3.153234301547184 0.8603247880741643 44 43 48
0.5843818241697462 3.1691238526008014 0.8586710228386911 40 40 42
0.5999302596296638 3.187147431795118 0.85653854611821 29 29 31
0.6110095985008921 3.2038504313803666 0.8547141915639368 19 19 21
0.6148316759773383 3.2183407365677614 0.8533955779319655 16 16 18
0.5538857495189893 3.2257802802525095 0.8555878489147339 15 15 17
0.5688616188228973 3.4168240796132427 0.839818224734255 11 11 13
0.585674549524113 3.43594445546863 0.8375414608157276 11 11 13
0.735189809601145 3.720867310119018 0.808221896166025 32 32 34
0.7669422409983152 3.746582034968168 0.8047429860314133 39 39 41
0.8465832063182387 3.832622491663376 0.7943159900043442 37 36 41
0.8568976779435473 3.8506603684931813 0.7924211071770735 38 37 43
0.8794469618587627 3.8734544887983406 0.7895925935998246 41 40 47
0.8800194807560469 3.8878409168874493 0.7884303965865671 62 61 65
0.8195113086115872 3.906665854079758 0.7897036064136569 79 80 75
0.845762051843748 3.931102814301905 0.7865765342535669 132 133 128
0.951113212412702 1.770594745428705 0.9651973234875546 101 101 103
0.9373610587894194 1.781901932614258 0.964913343755634 67 67 69
0.9203142629573766 1.7927849311354587 0.9648077543080542 53 53 55
0.8942875103707549 1.8025497879797945 0.9651853980332531 52 52 51
0.5892670573841078 2.5459630356715865 0.9201409589434766 14 14 16
0.5993174908756124 2.561056915257693 0.9185113809792206 14 13 15
0.5250742844161341 3.008077064315295 0.8866203453139385 12 12 14
0.5324536593347903 3.02324586530082 0.8851024519625812 12 12 14
0.5408764909064397 3.0387522704041223 0.883512073354505 12 12 14
0.5498970735494372 3.054471535954033 0.8818786403801305 16 16 18
0.5582192190118116 3.070025735261148 0.8802889347523143 25 25 27
0.570621081932345 3.0868245111195636 0.8784217552389009 34 34 36
0.5750637896449723 3.1013073980951193 0.8770870797588012 40 40 42
0.5724683590252269 3.1137081283910772 0.876225982494469 40 39 43
0.5743798466965462 3.127465264130199 0.8750598107914835 38 37 42
0.5808353877123503 3.142613849849595 0.8735841736693202 40 39 44
0.5868580174675265 3.157662052773487 0.8721354882061563 36 35 40
0.5972568163995072 3.1740808180992452 0.8703863702738561 28 28 30
0.6175817215013766 3.1936032751464016 0.8679562025975269 19 19 21
0.6170611848038012 3.206746954727336 0.866945335914027 16 16 18
0.6078499843354411 3.2171893166801304 0.8665294883902009 15 15 17
0.5605229395883031 3.215662446164661 0.8687328698160134 14 14 16
0.5790033618116193 3.2347174305835096 0.8664206622296036 14 14 16
0.5253616252525652 3.4030892477015273 0.8555390932232363 11 11 13
0.5275829461168576 3.417148847920603 0.8543354934532356 12 12 14
0.5307746248079532 3.4315586907108395 0.853061632121381 13 13 15
0.709734022549709 3.69872968711254 0.8241704123325224 31 31 33
0.7764421702648824 3.7512710587884452 0.8171014878095321 37 37 39
0.8231910297278621 3.7967914516701153 0.8114633672687683 35 35 37
0.840968360441376 3.845716209678562 0.806832783672465 39 38 44
0.866381113790955 3.869590062092641 0.8038364068501072 59 58 64
0.8810430807799032 3.889406431646276 0.8016323992114701 75 74 79
0.8210120722136012 3.9084230455040343 0.8027792049186311 70 71 67
0.8518411416180831 3.9346739475975085 0.7993574468866982 114 114 110
0.9514908626940258 1.7714318640535398 0.9779315017896547 95 95 97
0.9363962673811271 1.7825847474722032 0.9776982594690803 64 64 66
0.9132144483917226 1.7927447946984711 0.9778859098065402 50 50 51
0.8994310302413677 1.803958239472629 0.9775922937711775 42 42 43
0.5871001164308317 2.54638008579268 0.932685805290728 14 14 16
0.598871872414876 2.561860815498308 0.9309736748573132 13 13 15
0.6073598198197114 2.576646174336273 0.9294553394220387 14 12 15
0.5036337379430824 2.963942603322969 0.9035171747405776 12 12 14
0.5389884617144062 3.0130513124230296 0.8981702268391174 12 12 14
0.54470363376606 3.027767049908106 0.8967749864084746 13 13 15
0.550111820643513 3.042422216295876 0.8953975153645787 20 20 22
0.5621027094399963 3.0590297841023717 0.8935878165489538 27 27 29
0.567731204987592 3.073816545060053 0.8921906899189757 36 36 38
0.5779834303464242 3.0899999683857713 0.890487983266844 41 41 43
0.572321840930983 3.1014910462263217 0.8898280320163457 40 40 42
0.5779614636541274 3.1163548268408645 0.8884243999343726 38 37 41
0.5808668923536235 3.130423659766387 0.887199044602273 39 38 43
0.5891159958700712 3.146130307414776 0.8856186732326885 36 35 40
0.6040674424689009 3.1639170307498157 0.8835909966473986 28 27 32
0.6163163335389521 3.1809369686387035 0.8817380483807822 21 21 23
0.6213767166846182 3.1957931437375344 0.8803595876136935 17 17 19
0.6322126167981694 3.2124664143124995 0.8785937449312708 16 16 18
0.5747157415221857 3.2078827804725267 0.8813922387253912 15 15 17
0.5769799145231346 3.221841975107087 0.8802026786472366 14 14 16
0.5989909770160826 3.4157635007587057 0.8640779123280228 11 11 13
0.5282802375010445 3.4051336649614123 0.8679106648144458 11 11 13
0.5193665978041476 3.4153933539984167 0.867485150262441 35 35 37
0.5100292890177243 3.4254844020388795 0.8670908213595113 24 24 26
0.6556786431992929 3.6524582027543513 0.8431312646254635 24 24 24
0.6952707384852234 3.680736293598477 0.839236309154161 26 26 27
0.7103942440452634 3.700095431228192 0.8370781570624597 26 26 28
0.8130341518207034 3.794100725187702 0.825359498013818 34 34 36
0.8387080814537635 3.8319309237026453 0.8213067847849346 39 38 44
0.8448157523064529 3.8483500113661995 0.8197614592949936 55 54 61
0.8701558454080992 3.872209310904531 0.8168173241649436 64 64 68
0.8871239357992131 3.8929299365251007 0.8144742588877711 52 51 56
0.8955201146606417 3.9103885999585772 0.8127504028638388 51 50 55
0.9045609443008003 3.928139197219665 0.8109763273694787 58 58 60
0.8179618100159554 3.90839484804087 0.8161971685344842 68 68 67
0.8517724764274847 3.935823187764603 0.8126140686096625 106 106 103
0.9490892507489367 1.7719511210417034 0.9908091079756383 89 89 91
0.9166752893511476 1.7939471201103905 0.9904166448201333 48 48 51
0.8818802188126529 1.8026581628633753 0.9911578829573653 42 42 43
0.8665606493788982 1.8136205825070584 0.9909281897831524 44 44 46
0.8434476192017799 1.8235846462588414 0.9910946328503354 47 47 50
0.5707314490851347 2.5436260914434197 0.9460546595015412 14 14 16
0.5634533854277397 3.0472889275163833 0.9070569832154491 30 30 31
0.5733923821550894 3.063323627004152 0.9054001252085542 37 36 40
0.5811832207883074 3.0787697043056355 0.9038769105804892 42 42 45
0.5863273344981834 3.093468285824033 0.902520093363266 40 40 44
0.5907396842055239 3.107975734914389 0.9012080695708555 36 35 41
0.5841655366148184 3.119216290184693 0.9005995570847471 39 38 43
0.5913368612611012 3.1345842532122243 0.8991077346725759 36 36 39
0.6046864971694508 3.151858748522676 0.8972148764130153 25 25 28
0.5779449211203997 3.156967455556813 0.8979082975753091 20 19 23
0.5706160446576342 3.167942724508993 0.89735130163969 18 18 20
0.5879847557156429 3.1865169382169727 0.8951929225668347 16 16 18
0.5931423686696449 3.2013741172543955 0.8938231806117962 16 16 18
0.6045699608387509 3.2182139415546596 0.8920427213457114 14 14 16
0.6001156691939921 3.2301212634443903 0.8912956245108521 14 14 16
0.5805124139289619 3.4105674197112648 0.8780180369250465 11 11 13
0.5078091308070317 3.399218962420015 0.8818722649292693 11 11 13
0.5018688708735963 3.4104605312260388 0.8812377885399468 20 20 22
0.49593504815797496 3.4216919211166616 0.8806038434273944 14 14 16
0.6370158130029572 3.633080781003224 0.8583506226098502 18 18 19
0.6593778989838971 3.654925070579838 0.8557332133754789 19 19 20
0.7719604420017162 3.724049985243924 0.8457428979524679 19 19 21
0.8069528391413595 3.778954112637037 0.8400304598414416 31 31 35
0.7981772061663112 3.789630225058034 0.8395558819275337 33 33 36
0.8165441609929875 3.8105959155592726 0.8371701607738471 39 39 41
0.8260303331016668 3.8282475235384466 0.8354056455620051 52 52 56
0.8608158067502624 3.855646451033765 0.8318475638280811 54 55 60
0.877030004475092 3.876024467446226 0.8295955998850204 47 47 51
0.8983542386632579 3.898449403014715 0.8269752704071061 47 47 52
0.907344779205226 3.9161636262228816 0.825226109202487 51 49 54
0.8487011931439873 3.935788373557264 0.8260897346976237 103 103 100
0.9461692187402773 1.772410732612029 1.0037077781519903 88 88 90
0.9165088736914547 1.7947228639344668 1.0031380456093262 47 46 50
0.8977351346196352 1.8053469682173828 1.0030492684139038 41 40 43
0.5324522639071322 3.026193036651913 0.9225228134333214 33 33 37
0.5659823569013123 3.0490139549853534 0.9194338016429555 40 40 42
0.5862031603231077 3.068065952012572 0.9171599278365089 42 42 45
0.5878285224328224 3.081722701136475 0.9160350007305599 39 38 43
0.5964545966907558 3.0974673336372907 0.9144731179481698 32 31 36
0.5640675596888611 3.1010316951927708 0.9154671090920324 37 36 42
0.554566936965602 3.1113498238730406 0.915038206964485 34 34 38
0.5623738131210131 3.126860663311782 0.9135266374712866 25 25 27
0.5894587912880427 3.1482531562291465 0.9108015377856258 20 20 22
0.5780433814626986 3.1580080185736983 0.9104915429395783 16 16 18
0.5809592748354645 3.1721274077759807 0.9092800246317783 15 15 17
0.5939746122251824 3.189381603988875 0.9074286018163019 14 14 16
0.6093136779319873 3.2074115310380034 0.9054257151567701 14 14 16
0.619219811992094 3.2238091691967115 0.903762860489688 14 14 16
0.6169177956910542 3.2364196377292354 0.9028733503487494 14 14 16
0.5621173803326036 3.4053947564180382 0.8918943047257333 11 11 13
0.500792975574793 3.3978798666993537 0.8948847379491006 10 10 12
0.49212276881861394 3.408176164991789 0.8944249445305689 19 19 21
0.48532983507818805 3.4190961714371455 0.8938430195806215 14 14 16
0.7991862536333472 3.7911570830227075 0.8526170037352978 40 39 43
0.8180291747355188 3.812310860373082 0.8502338908005105 46 46 48
0.8227360715606318 3.8281440955243804 0.8488189215198602 43 44 47
0.8762498506498669 3.876891223952174 0.8429312073024628 44 45 50
0.9214590707195466 3.9085719742961147 0.8386954598702013 47 46 50
0.8200006688479293 3.9115338754880766 0.8424467906044019 69 68 67
0.8411887327555067 3.9340004696600173 0.8398696413158495 106 105 102
0.5417732316449083 3.016795980871617 0.9354564347816167 35 34 40
0.5666296079953227 3.0370634014481745 0.932952236927823 43 42 48
0.5966120273649341 3.0589185330629047 0.9301321835571856 44 43 47
0.6230295033429225 3.0798437350063215 0.9275183096245185 39 39 42
0.6000345217762812 3.086315711739965 0.9278832301428037 33 32 37
0.6066115940568472 3.101478205646198 0.9264622755826153 39 38 42
0.5662345107683611 3.102676922297829 0.9278896865639027 33 33 35
0.5578188864767781 3.113325316801826 0.9273825160766362 21 21 23
0.557138751828518 3.1262857420214716 0.9264051953869259 22 22 24
0.5999736119385675 3.1524528208367015 0.9227675805661227 16 16 18
0.5800197054626384 3.159621890556857 0.9229640627590455 13 13 15
0.5972383567048113 3.178136788931586 0.9208830374216759 13 13 15
0.6004228000831016 3.1923896750013228 0.9196602021838731 13 13 15
0.6411025080017655 3.2183014824863863 0.9161234813861686 13 13 15
0.6358824850615019 3.2300370647776524 0.9154118677255241 13 13 15
0.6267995948167328 3.240550317563015 0.9149402771733395 15 15 17
0.6066545098958169 3.247547787188126 0.9151572361892784 16 16 18
0.585225006015465 3.254074985798392 0.9154589441585241 17 17 19
0.7710497742019621 3.7537962595530794 0.8697924103193511 36 35 40
0.8188808946215195 3.7997553085017137 0.8644351109329806 38 38 41
0.8294704175111128 3.8178121397886606 0.8626391151724082 40 40 42
0.8487387676488942 3.8533359620439076 0.8591647042657887 42 44 48
0.876132865835858 3.8780138808819835 0.8562236615041852 45 45 49
0.8292571129200007 3.9163410684672795 0.855022600110374 72 71 70
0.8371782580640744 3.933593121196372 0.8533893439720575 123 122 119
1.021418228772375 1.782636838409658 1.0258473091192977 85 85 87
0.5847334406976596 2.899069038450404 0.955552847039044 11 12 14
0.5977780527730082 2.9156844719286457 0.9538020181007502 11 12 14
0.6049638047637523 2.9307504372203224 0.9523818478493996 11 12 14
0.6060347445177015 2.983584648005677 0.9482714859042163 17 17 19
0.6048332147528847 2.9964022383464037 0.9473270012105395 27 26 31
0.5433032918580356 3.0051453168962556 0.948871720544893 40 39 44
0.5710533570275264 3.0262013223444795 0.9462484536049195 43 42 47
0.5912191050540652 3.0451681463167537 0.9440596521104873 47 46 50
0.6222944249676396 3.0673909923549147 0.9412265657246548 40 39 44
0.6523238073934279 3.08942522055689 0.9384457276939577 36 35 41
0.6110213065982302 3.0905529936742298 0.9398480137575491 38 37 42
0.6168001609118476 3.10550145893765 0.9384876258112462 29 29 31
0.6111095422789852 3.1170587582006135 0.9378021255746719 21 21 21
0.5680221086293198 3.1173871239501394 0.939330376567585 17 17 18
0.5612335912429687 3.12852478891185 0.9387168018299996 19 19 21
0.5903264482732072 3.1505367545771046 0.9359714467786261 16 16 18
0.5898994149744492 3.1636491157950455 0.9349763199407776 13 13 15
0.6536670041287673 3.1964773379979095 0.9301471644330384 13 13 15
0.6293593264573357 3.202343732446596 0.9305714975317306 13 13 15
0.6423294521847163 3.219709548471801 0.9287655249031407 13 13 15
0.6294046693645408 3.2290427511618147 0.9285122624613428 13 13 15
0.6205670549881995 3.2396228013582316 0.9280155432216186 15 15 17
0.5979761422617546 3.2458364231888126 0.9283512171809394 16 16 18
0.5556594355469737 3.2457135115735274 0.9298864572778215 17 17 19
0.6001686289479553 3.4338412212446734 0.9137832914284907 11 11 13
0.5688866539467272 3.436572120463865 0.9147007308973195 10 10 12
0.541581651932295 3.440569466018305 0.9153771763533005 25 25 27
0.6745640413835385 3.6364327677815114 0.8954878730749138 19 19 21
0.677941759817062 3.6513664808469564 0.8942151971885752 16 16 18
0.6851329097973353 3.6677237571343935 0.8926953154761115 17 17 19
0.8254871303420936 3.8034051026661646 0.8771782273826698 36 36 39
0.8666058857654496 3.875506388531883 0.8701390584279072 43 43 46
0.8290814008138873 3.9174437383907854 0.8682600730101234 76 75 74
1.020227391045827 1.7833022608384623 1.0387859690360888 85 85 88
0.9393388594787762 1.786904550558647 1.0412970795746872 54 53 58
0.6006457808111949 2.878164912336735 0.9692158740149549 11 12 14
0.6003953481640616 2.891178462394614 0.9682257261040573 11 11 14
0.5986084070603103 2.903784371413122 0.9673198154798681 13 12 17
0.610787529960328 2.920192537529052 0.9656407860983851 13 12 17
0.6081618889657294 2.932597912741647 0.9647791695657877 12 11 16
0.5725178162895425 2.935904058675347 0.9657537929467404 12 11 16
0.5788206043573448 2.9507267340653787 0.9643989589915241 16 15 20
0.535471877559746 2.9517245041555986 0.9658162661803721 25 24 29
0.6037391974609959 2.9839215186116106 0.9609925436459493 35 34 39
0.5610265150301093 2.998097584194525 0.9613765090611062 42 41 46
0.5800604255481498 3.0166401540936385 0.9592974361972425 46 45 50
0.5994785124682127 3.0353686214622426 0.957190856369914 46 45 48
0.6155897805505358 3.0532163328864863 0.9552658334657175 37 37 39
0.6462097547205806 3.075355797521068 0.952511422867213 36 36 38
0.6203522925375932 3.0943053480073277 0.9519481624685783 26 26 28
0.6215975910937754 3.107928848128778 0.9508596555012502 17 17 19
0.6089904569922701 3.117432795146543 0.9505647035089978 15 15 17
0.609120701298678 3.130723597854913 0.9495401578042967 13 13 15
0.5806496322613157 3.135390084852448 0.9501631799540489 13 13 15
0.5921549529387731 3.1521026604618254 0.9484840080090247 17 17 19
0.594776491078472 3.16615160272852 0.9473154207268477 13 13 15
0.6115733951194913 3.1845725143212866 0.9453227768149366 13 13 15
0.6115014688074687 3.1978505113955755 0.9443061811412449 13 13 15
0.6302893552996753 3.21699645605881 0.9421892782913704 13 13 15
0.619551158374227 3.2269922665569197 0.9417921688466743 13 13 15
0.6211291691663492 3.2408289140138002 0.9406758370727097 15 15 17
0.5925186147855502 3.2451407593987107 0.9413308845972403 18 18 20
0.5443625837235532 3.243149324055224 0.9431432800966076 18 18 20
