ply
format ascii 1.0
element vertex 881
property float x
property float y
property float z
property float nx
property float ny
property float nz
property uchar diffuse_red
property uchar diffuse_green
property uchar diffuse_blue
property uchar class
property uchar detection
end_header
0.6417 3.0531 0.9252 -0.989 -0.016 -0.149 35 36 40 0 0
0.6582 3.1212 0.9211 -0.996 -0.079 0.052 58 58 59 0 0
0.6589 3.1458 0.9198 -0.998 -0.055 -0.029 52 52 53 0 0
0.6430 3.1488 0.9203 -0.996 0.038 0.083 45 44 50 0 0
1.0233 1.7347 0.9894 -0.262 -0.850 -0.457 92 92 92 0 0
1.0090 1.7389 0.9898 -0.262 -0.850 -0.457 65 66 70 0 0
0.5998 1.7630 1.0057 -0.977 0.024 -0.213 69 68 71 0 0
0.6811 2.0575 0.9876 -0.239 -0.482 0.843 56 55 56 0 0
0.6741 2.0692 0.9873 -0.123 -0.333 0.935 53 53 53 0 0
0.5796 2.3834 0.9756 -0.206 -0.280 0.938 28 27 32 0 0
0.5527 2.3725 0.9772 -0.346 -0.160 0.924 29 28 33 0 0
0.5405 2.3996 0.9764 -0.880 0.475 0.017 31 30 35 0 0
0.6407 3.0986 0.9374 -0.991 0.082 0.102 54 54 55 0 0
1.0051 1.7352 1.0032 -0.465 -0.837 -0.286 67 68 72 0 0
0.9881 1.7367 1.0038 -0.618 -0.717 -0.322 45 45 50 0 0
0.9778 1.7448 1.0039 -0.628 -0.735 -0.255 39 36 43 0 0
0.6061 1.7696 1.0177 -0.712 -0.313 -0.629 59 58 63 0 0
0.6421 3.1004 0.9516 -0.987 0.049 0.155 48 48 50 0 0
0.6431 3.1253 0.9504 -0.987 0.049 0.155 41 40 45 0 0
0.7476 3.5319 0.9264 -0.876 0.446 0.184 26 26 28 0 0
0.7546 3.5667 0.9244 -0.546 -0.081 0.834 27 27 29 0 0
0.7327 3.5624 0.9255 -0.365 -0.371 0.854 31 31 33 0 0
0.9610 1.7284 1.0183 -0.554 -0.816 0.166 37 35 43 0 0
0.6125 1.7396 1.0316 -0.748 -0.657 -0.098 35 32 39 0 0
0.6035 1.7485 1.0315 -0.444 -0.584 0.680 34 30 37 0 0
0.6017 1.7649 1.0308 -0.796 -0.604 -0.049 37 34 41 0 0
0.6770 3.0750 0.9658 -0.760 -0.571 -0.311 57 56 60 0 0
0.6539 3.0921 0.9659 -0.644 -0.484 -0.592 50 50 50 0 0
0.7518 3.5375 0.9410 -0.764 0.270 0.587 27 27 29 0 0
0.7688 3.5858 0.9380 -0.378 -0.061 0.924 28 28 30 0 0
1.0716 1.7633 1.0255 -0.587 0.072 0.806 167 167 167 0 0
0.6288 1.7383 1.0437 -0.500 -0.457 0.736 27 26 31 0 0
0.6059 1.7510 1.0440 -0.509 -0.517 0.688 21 20 26 0 0
0.6009 1.7641 1.0436 -0.730 -0.672 0.122 27 26 32 0 0
0.6873 3.0182 0.9825 -0.997 -0.082 -0.012 40 39 45 0 0
0.6815 3.0573 0.9809 -0.909 -0.350 -0.227 61 61 63 0 0
0.6839 3.0371 0.9961 -0.971 -0.049 -0.235 63 66 68 0 0
0.6673 3.0625 0.9956 -0.409 -0.737 -0.538 53 53 55 0 0
0.6600 3.1236 0.9931 -0.882 -0.313 0.352 35 35 37 0 0
0.6670 3.1563 0.9914 -0.993 -0.012 0.120 34 34 36 0 0
0.7096 3.3814 0.9797 -0.917 0.398 -0.015 32 32 34 0 0
0.6912 1.7483 1.0663 -0.676 -0.188 -0.712 25 25 27 0 0
0.6858 1.7610 1.0660 0.097 -0.909 -0.405 23 23 25 0 0
0.5962 2.5931 1.0330 -0.953 0.239 -0.187 30 29 34 0 0
0.5999 2.6191 1.0317 -0.955 0.217 -0.204 31 30 35 0 0
0.6853 2.9927 1.0123 -0.990 -0.050 -0.131 57 57 59 0 0
0.6639 3.1051 1.0082 -0.950 -0.211 0.231 34 33 36 0 0
0.6848 3.1793 1.0042 -0.921 0.138 0.365 35 35 37 0 0
0.6935 3.2145 1.0024 -0.966 0.229 -0.123 34 34 36 0 0
0.7099 3.3818 0.9945 -0.925 0.378 0.050 30 30 32 0 0
0.7817 3.6032 0.9823 -0.657 0.109 0.746 31 31 33 0 0
0.6831 1.7217 1.0805 -0.898 -0.411 -0.156 21 21 23 0 0
0.6880 1.7450 1.0793 -0.440 -0.750 -0.494 22 22 24 0 0
0.6386 2.7318 1.0393 -0.455 -0.763 -0.459 38 36 40 0 0
0.6983 2.9401 1.0284 -0.807 -0.295 -0.511 51 52 53 0 0
0.6942 2.9578 1.0278 -0.795 -0.306 -0.523 58 59 59 0 0
0.6878 2.9728 1.0274 -0.961 -0.084 -0.265 66 67 67 0 0
0.6740 3.0477 1.0247 -0.897 -0.409 -0.168 48 47 50 0 0
0.6946 3.1920 1.0179 -0.852 0.106 0.513 35 35 37 0 0
0.6963 3.2182 1.0167 -0.895 0.139 0.425 34 34 36 0 0
0.6827 3.3213 1.0129 -0.955 0.178 0.236 35 35 38 0 0
0.7433 3.4509 1.0052 -0.995 0.010 0.101 29 29 31 0 0
0.8489 1.6722 1.0895 0.167 -0.986 0.008 26 26 28 0 0
0.6852 1.7239 1.0930 -0.249 -0.746 -0.618 23 23 25 0 0
0.5816 1.7805 1.0942 -0.906 -0.412 0.094 17 17 19 0 0
0.5641 2.2631 1.0750 -0.305 -0.780 0.546 30 29 34 0 0
0.6939 2.9346 1.0431 -0.920 -0.221 -0.322 66 68 67 0 0
0.6898 2.9524 1.0425 -0.920 -0.221 -0.322 69 71 70 0 0
0.6855 2.9699 1.0419 -0.953 -0.168 -0.253 54 56 57 0 0
0.6721 3.0454 1.0393 -0.897 -0.428 -0.112 32 32 34 0 0
0.6897 3.3549 1.0260 -0.980 0.098 0.170 29 29 31 0 0
0.8001 3.6281 1.0110 -0.869 0.254 0.425 33 33 35 0 0
0.8147 3.6735 1.0086 -0.910 0.337 0.240 35 35 37 0 0
0.8367 3.7292 1.0056 -0.934 0.313 0.172 35 35 37 0 0
0.7847 3.6843 1.0092 -0.684 -0.728 0.032 36 35 39 0 0
0.8489 1.6722 1.1023 0.017 -0.999 -0.043 25 25 27 0 0
0.5768 1.7754 1.1073 -0.614 -0.729 0.302 36 36 38 0 0
0.6896 2.9522 1.0568 -0.963 -0.208 0.172 44 45 46 0 0
0.6858 2.9702 1.0562 -0.975 -0.152 0.162 49 50 54 0 0
0.6831 2.9898 1.0555 -0.990 -0.125 0.064 48 49 53 0 0
0.6801 3.0788 1.0520 -0.992 -0.040 0.116 32 32 34 0 0
0.8252 3.6877 1.0230 -0.872 0.322 0.370 36 36 38 0 0
0.7332 1.6645 1.1192 0.086 -0.992 0.092 24 24 26 0 0
0.7612 1.7106 1.1165 -0.074 -0.531 -0.844 23 23 25 0 0
0.7364 1.7400 1.1162 -0.062 -0.818 -0.572 22 21 24 0 0
0.5795 1.7782 1.1197 -0.614 -0.729 0.302 34 34 36 0 0
0.5650 1.7997 1.1194 -0.746 -0.660 -0.089 35 35 37 0 0
0.6879 2.9728 1.0703 -0.848 -0.018 0.529 49 49 52 0 0
0.6873 2.9951 1.0694 -0.858 -0.010 0.514 36 36 40 0 0
0.6870 3.0178 1.0686 -0.918 0.117 0.379 26 26 30 0 0
0.8029 3.6064 1.0422 -0.827 0.444 0.345 31 31 33 0 0
0.7691 1.7187 1.1287 0.235 -0.959 -0.160 23 23 25 0 0
0.7175 1.7388 1.1296 -0.246 -0.746 -0.618 31 29 32 0 0
0.5630 1.7792 1.1329 -0.803 -0.530 -0.274 37 37 39 0 0
0.5628 1.7974 1.1322 -0.337 -0.941 0.039 40 40 42 0 0
0.6001 1.9311 1.1261 -0.907 0.413 -0.084 17 17 19 0 0
0.6938 2.9803 1.0841 -0.745 0.034 0.666 33 32 36 0 0
0.6920 3.3335 1.0710 -0.987 0.047 0.156 31 31 33 0 0
0.7868 3.5594 1.0597 -0.820 0.387 0.422 29 29 31 0 0
0.7924 3.6689 1.0554 -0.713 -0.661 -0.234 36 35 38 0 0
0.7637 1.7132 1.1419 0.230 -0.925 0.302 23 23 25 0 0
0.7234 1.7267 1.1426 0.347 -0.938 -0.007 32 30 33 0 0
0.5694 1.7676 1.1458 -0.780 -0.569 -0.262 31 31 33 0 0
0.7069 2.8377 1.1031 -0.864 -0.497 0.088 21 21 23 0 0
0.7059 2.9955 1.0975 -0.775 0.058 0.629 18 18 22 0 0
0.7913 3.6675 1.0708 -0.775 -0.627 -0.077 36 36 38 0 0
0.7812 3.6795 1.0706 -0.846 -0.522 -0.111 39 38 43 0 0
1.1347 1.8059 1.1407 0.549 -0.819 -0.165 167 167 169 0 0
0.8661 1.6893 1.1525 -0.041 -0.963 -0.268 24 24 26 0 0
0.8490 1.6903 1.1530 -0.233 -0.898 -0.374 32 32 34 0 0
0.8369 1.6963 1.1531 -0.526 -0.823 -0.216 34 34 36 0 0
0.7632 1.6767 1.1559 -0.111 -0.980 0.166 24 24 26 0 0
0.5773 1.7393 1.1591 0.003 -0.792 -0.610 21 21 24 0 0
0.6467 2.4621 1.1321 -0.817 0.276 0.506 28 27 32 0 0
0.6598 2.4986 1.1304 -0.760 0.333 0.558 21 20 25 0 0
0.6722 2.5343 1.1288 -0.765 0.332 0.552 19 18 23 0 0
0.7181 2.8291 1.1173 -0.833 -0.447 0.325 21 19 22 0 0
0.7028 2.8551 1.1168 -0.805 -0.549 0.224 27 27 29 0 0
0.7186 2.9199 1.1141 -0.741 0.016 0.671 44 43 46 0 0
0.7179 2.9646 1.1126 -0.728 0.029 0.685 18 16 19 0 0
0.7168 2.9863 1.1118 -0.775 0.058 0.629 19 17 20 0 0
0.8011 3.6808 1.0853 -0.708 -0.699 0.100 36 36 39 0 0
0.7813 3.6797 1.0859 -0.781 -0.612 -0.126 38 37 42 0 0
0.8626 1.6858 1.1656 -0.041 -0.963 -0.268 26 26 28 0 0
0.8516 1.6929 1.1656 -0.793 -0.591 -0.148 37 37 39 0 0
0.7637 1.6771 1.1686 -0.031 -0.941 0.336 24 24 26 0 0
0.7362 2.7623 1.1331 -0.746 -0.476 0.466 19 18 20 0 0
0.7141 2.8465 1.1309 -0.833 -0.447 0.325 38 38 40 0 0
0.7201 2.8991 1.1290 -0.955 -0.184 -0.233 44 44 46 0 0
0.7223 2.9244 1.1281 -0.949 -0.193 0.247 22 21 23 0 0
0.7278 2.9541 1.1269 -0.802 -0.016 0.597 14 12 15 0 0
0.7360 2.9873 1.1256 -0.740 0.073 0.668 17 15 19 0 0
0.7258 2.9975 1.1256 -0.923 0.141 0.358 18 16 21 0 0
0.7798 3.6776 1.1013 -0.787 -0.586 -0.190 38 37 42 0 0
0.8662 1.6893 1.1782 -0.020 -0.998 0.059 28 28 30 0 0
0.8541 1.6954 1.1783 -0.701 -0.574 0.423 30 30 32 0 0
0.6886 1.7274 1.1818 -0.521 -0.851 -0.056 19 18 21 0 0
0.7109 2.8877 1.1438 -0.762 -0.273 -0.587 15 15 17 0 0
0.7252 2.9281 1.1422 -0.949 -0.193 0.247 16 15 17 0 0
0.8012 3.3060 1.1280 0.430 -0.889 0.160 34 33 38 0 0
0.7407 3.2759 1.1306 -0.487 -0.724 0.489 39 38 43 0 0
0.8670 1.6901 1.1910 -0.020 -0.998 0.059 30 30 32 0 0
0.8583 1.6995 1.1910 -0.701 -0.574 0.423 31 31 33 0 0
0.6079 1.7349 1.1963 -0.944 -0.326 0.053 32 32 34 0 0
0.6015 1.7831 1.1950 -0.712 -0.702 0.013 33 33 35 0 0
0.7920 3.2941 1.1434 0.325 -0.853 0.409 34 33 38 0 0
0.8707 1.6938 1.2037 -0.302 -0.776 0.553 29 29 31 0 0
0.8643 1.7055 1.2035 -0.473 -0.614 0.632 31 31 33 0 0
0.8532 1.7125 1.2036 -0.557 -0.677 0.482 31 31 33 0 0
0.6223 1.7316 1.2087 -0.915 -0.245 -0.320 35 35 38 0 0
0.6071 1.7340 1.2090 -0.919 -0.380 0.103 43 43 45 0 0
0.5624 1.9280 1.2044 -0.834 -0.353 -0.423 28 28 30 0 0
0.5543 1.9383 1.2043 -0.498 -0.572 -0.652 29 29 31 0 0
0.8091 2.8504 1.1709 0.503 -0.807 0.310 12 12 14 0 0
0.7873 3.0052 1.1669 -0.613 0.179 0.770 19 18 20 0 0
0.8824 1.6873 1.2165 0.385 -0.923 -0.025 28 29 31 0 0
0.8690 1.6920 1.2166 0.136 -0.929 -0.344 29 29 31 0 0
0.6976 1.7366 1.2194 -0.223 -0.734 -0.641 22 20 23 0 0
0.5578 1.9231 1.2175 -0.834 -0.353 -0.423 31 31 33 0 0
0.5480 1.9313 1.2175 -0.516 -0.642 -0.568 30 30 32 0 0
0.5980 2.1219 1.2109 -0.852 0.071 0.519 38 38 40 0 0
0.5942 2.1374 1.2105 -0.755 0.098 0.649 39 39 41 0 0
0.8050 2.9583 1.1822 -0.042 -0.290 0.956 18 16 19 0 0
0.9084 1.6949 1.2285 0.371 -0.928 0.042 33 34 36 0 0
0.8716 1.6946 1.2294 0.076 -0.951 0.300 29 28 31 0 0
0.6100 1.7736 1.2332 -0.613 -0.665 -0.426 54 54 56 0 0
0.5536 1.9185 1.2305 -0.916 -0.353 -0.188 36 36 38 0 0
0.5492 1.9326 1.2302 -0.862 -0.479 -0.165 32 32 34 0 0
0.6015 2.0283 1.2265 -0.841 0.466 0.273 30 30 32 0 0
0.6188 2.0668 1.2250 -0.864 0.421 0.276 31 31 33 0 0
0.8525 2.8579 1.1983 -0.346 -0.586 0.732 9 9 11 0 0
0.8656 3.1728 1.1894 -0.763 -0.007 0.647 21 19 24 0 0
0.8595 3.1887 1.1891 -0.824 0.207 0.527 22 19 26 0 0
0.8496 3.3200 1.1858 0.516 -0.762 -0.391 35 34 39 0 0
0.6882 1.7269 1.2454 -0.376 -0.875 -0.305 25 22 28 0 0
0.5474 1.9117 1.2436 -0.720 -0.677 0.156 41 41 43 0 0
0.5575 1.9417 1.2427 -0.936 -0.246 0.254 35 35 37 0 0
0.8870 2.8993 1.2108 -0.216 -0.433 0.875 8 8 10 0 0
0.8234 3.2863 1.2021 0.423 -0.763 -0.489 36 35 40 0 0
0.7968 3.2763 1.2030 0.538 -0.771 -0.341 36 35 40 0 0
0.7339 1.7192 1.2573 -0.683 -0.178 0.708 34 33 38 0 0
0.5684 1.9536 1.2550 -0.870 -0.056 0.490 38 38 40 0 0
0.8863 3.2943 1.2155 -0.937 0.099 0.334 31 32 37 0 0
0.8110 3.2464 1.2182 0.469 -0.815 -0.339 35 35 38 0 0
0.8072 3.2655 1.2178 0.409 -0.815 -0.411 36 36 39 0 0
0.7849 3.6845 1.2080 -0.268 -0.883 -0.385 40 39 44 0 0
0.8473 1.7066 1.2682 -0.740 -0.144 0.657 46 46 47 0 0
0.5649 1.9308 1.2685 -0.838 -0.117 0.533 43 42 46 0 0
0.5708 1.9563 1.2677 -0.834 0.075 0.546 38 38 40 0 0
0.6104 2.2154 1.2609 -0.823 -0.462 -0.331 9 9 11 0 0
0.9279 2.9484 1.2376 0.105 -0.758 -0.644 8 8 10 0 0
1.0160 3.2176 1.2296 -0.903 -0.287 -0.319 23 22 28 0 0
0.8858 3.2937 1.2304 -0.994 0.011 0.107 31 32 36 0 0
0.7973 3.2528 1.2331 0.409 -0.815 -0.411 36 36 38 0 0
0.7519 3.2183 1.2348 0.345 -0.886 -0.310 36 36 40 0 0
0.7000 3.1990 1.2362 0.230 -0.887 -0.400 42 41 46 0 0
0.6888 3.2083 1.2362 -0.460 -0.809 -0.366 37 36 41 0 0
0.7808 3.6790 1.2235 -0.268 -0.883 -0.385 40 39 44 0 0
0.8343 1.6937 1.2816 0.145 -0.647 0.749 53 53 53 0 0
0.6471 1.7028 1.2848 0.370 -0.905 -0.210 40 41 43 0 0
0.6155 1.7610 1.2841 -0.753 -0.580 0.311 37 37 40 0 0
0.6076 1.7711 1.2840 -0.910 -0.372 0.181 39 38 43 0 0
0.6044 1.7862 1.2838 -0.712 -0.547 0.441 39 40 42 0 0
0.5951 1.7947 1.2837 -0.598 -0.606 0.525 44 45 47 0 0
0.5856 1.8032 1.2837 -0.579 -0.589 0.564 46 47 49 0 0
0.5792 1.8149 1.2836 -0.574 -0.624 0.530 44 45 48 0 0
0.5709 1.8246 1.2835 -0.595 -0.501 0.628 44 45 49 0 0
0.5721 1.9576 1.2806 -0.812 0.146 0.565 38 38 40 0 0
0.5916 2.0562 1.2780 -0.893 0.353 -0.281 39 38 43 0 0
0.8791 3.2851 1.2456 -0.975 0.197 0.100 32 33 36 0 0
0.8088 3.2435 1.2478 0.502 -0.806 -0.313 36 36 38 0 0
0.7868 3.2392 1.2483 0.422 -0.852 -0.311 36 36 38 0 0
0.6851 3.2036 1.2510 -0.506 -0.787 -0.354 37 36 41 0 0
0.8470 1.7244 1.2935 -0.999 -0.010 0.046 57 57 56 0 0
0.6218 1.7677 1.2965 -0.258 -0.727 0.636 42 41 45 0 0
0.6091 1.7911 1.2963 -0.770 -0.557 0.311 42 43 45 0 0
0.5988 1.7987 1.2963 -0.842 -0.280 0.461 42 43 45 0 0
0.5705 1.8428 1.2959 -0.681 -0.686 0.256 46 47 51 0 0
0.8546 3.2301 1.2621 -0.927 0.013 -0.376 31 32 34 0 0
0.8473 3.2447 1.2619 -0.995 0.099 0.007 33 34 36 0 0
0.7783 3.6498 1.2547 -0.031 -0.950 -0.311 37 36 41 0 0
0.7874 1.7554 1.3068 -0.289 -0.249 0.924 60 60 60 0 0
0.7594 1.7634 1.3071 -0.400 0.087 0.913 52 51 57 0 0
0.6114 1.7935 1.3089 -0.619 -0.137 0.774 39 38 43 0 0
0.5667 1.8573 1.3084 -0.609 -0.358 0.708 42 41 46 0 0
0.8483 3.2221 1.2771 -0.980 0.088 -0.181 32 32 34 0 0
0.8788 3.2848 1.2754 -0.975 0.156 -0.158 34 34 36 0 0
0.7677 3.6611 1.2699 -0.608 -0.755 -0.245 39 39 41 0 0
0.7956 1.7637 1.3194 -0.190 -0.208 0.960 65 65 65 0 0
0.6283 1.8113 1.3210 -0.637 -0.259 0.726 33 32 37 0 0
0.6036 1.8223 1.3212 -0.687 -0.515 0.512 41 40 45 0 0
0.6021 2.0097 1.3178 -0.787 -0.375 -0.490 53 53 57 0 0
0.8704 2.7463 1.3003 -0.531 -0.344 -0.774 6 6 8 0 0
0.7859 3.2142 1.2930 0.295 -0.941 -0.169 36 36 38 0 0
0.7030 3.2029 1.2945 -0.582 -0.674 0.456 38 38 40 0 0
0.7041 3.2282 1.2940 -0.875 -0.193 0.444 37 37 39 0 0
0.7988 3.6520 1.2848 0.101 -0.985 -0.137 39 39 41 0 0
0.7274 3.6317 1.2863 -0.875 -0.421 -0.240 45 45 47 0 0
0.8233 1.7917 1.3314 -0.175 -0.200 0.964 73 73 75 0 0
0.6340 1.8173 1.3336 -0.569 -0.307 0.763 40 39 44 0 0
0.8614 3.2149 1.3066 -0.976 -0.005 0.219 31 31 33 0 0
0.7825 3.2099 1.3078 0.249 -0.968 0.014 36 36 38 0 0
0.7381 3.1768 1.3090 -0.685 -0.575 0.447 37 37 39 0 0
0.7192 3.2000 1.3089 -0.667 -0.480 0.571 44 44 46 0 0
0.7112 3.2135 1.3088 -0.854 -0.220 0.471 39 39 41 0 0
0.8179 3.6521 1.2998 0.106 -0.986 -0.129 43 42 46 0 0
0.7736 3.6434 1.3006 -0.579 -0.815 -0.029 38 38 40 0 0
0.7697 3.6638 1.3003 -0.843 -0.538 -0.003 40 40 42 0 0
0.7278 3.6322 1.3014 -0.800 -0.596 -0.066 46 46 48 0 0
0.8498 1.8002 1.3438 -0.294 -0.400 0.868 68 67 71 0 0
0.8389 1.8076 1.3438 -0.305 -0.392 0.868 71 70 75 0 0
0.8395 1.8267 1.3435 -0.619 -0.357 0.700 65 63 66 0 0
0.7276 1.8227 1.3451 0.559 -0.826 -0.069 45 44 47 0 0
0.5997 2.0071 1.3439 -0.888 -0.011 0.460 37 38 43 0 0
0.8651 3.2196 1.3213 -0.976 0.100 0.193 32 32 35 0 0
0.8060 3.2161 1.3221 0.510 -0.860 -0.020 35 35 37 0 0
0.7827 3.2102 1.3225 0.249 -0.968 0.014 36 36 38 0 0
0.7259 3.1849 1.3237 -0.760 -0.412 0.503 43 43 45 0 0
0.7208 3.2021 1.3235 -0.839 -0.156 0.521 43 43 46 0 0
0.7177 3.2220 1.3232 -0.858 -0.094 0.505 39 39 41 0 0
0.7731 3.6426 1.3158 -0.662 -0.747 0.065 38 37 41 0 0
0.7248 3.6280 1.3167 -0.824 -0.544 0.159 46 46 48 0 0
1.1148 1.9161 1.3519 0.416 -0.661 0.625 166 166 166 0 0
0.8351 1.8222 1.3567 -0.856 -0.517 -0.011 57 55 58 0 0
0.8387 1.8444 1.3563 -0.992 -0.026 -0.125 53 51 54 0 0
0.7239 1.8189 1.3581 0.552 -0.831 -0.076 45 45 45 0 0
0.6713 1.8567 1.3581 -0.724 -0.002 0.690 40 39 44 0 0
0.6616 1.8651 1.3581 -0.586 -0.154 0.796 39 38 43 0 0
0.6571 1.8790 1.3580 -0.442 -0.276 0.854 38 37 42 0 0
0.6587 1.8995 1.3577 -0.078 -0.621 0.780 40 39 44 0 0
0.6311 1.9078 1.3579 -0.406 -0.452 0.795 42 41 47 0 0
0.8582 3.1635 1.3370 -0.776 -0.331 0.537 23 22 27 0 0
0.8690 3.2245 1.3359 -0.914 0.041 0.404 33 32 37 0 0
0.7634 3.1855 1.3378 -0.282 -0.913 0.295 36 36 38 0 0
0.7349 3.1726 1.3383 -0.878 -0.299 0.373 38 38 40 0 0
0.7302 3.1904 1.3381 -0.945 -0.068 0.321 44 43 47 0 0
0.7233 3.6260 1.3319 -0.800 -0.592 0.101 47 47 49 0 0
0.6764 1.8808 1.3706 -0.017 -0.377 0.926 41 40 45 0 0
0.8536 3.2050 1.3512 -0.869 -0.415 0.268 33 32 37 0 0
0.7949 3.1782 1.3522 0.209 -0.960 0.185 36 35 39 0 0
0.7449 3.1618 1.3529 -0.846 -0.365 0.390 36 36 38 0 0
0.7300 3.1664 1.3530 -0.988 0.073 0.137 39 39 41 0 0
0.7334 3.2184 1.3523 -0.991 0.083 0.106 40 39 43 0 0
0.7698 3.6639 1.3460 -0.777 -0.628 0.047 41 40 45 0 0
0.7262 3.6300 1.3470 -0.675 -0.737 0.022 46 45 48 0 0
0.8554 3.1600 1.3664 -0.266 -0.959 -0.094 27 26 31 0 0
0.8483 3.1983 1.3661 -0.644 -0.742 -0.186 34 33 38 0 0
0.8082 3.1950 1.3665 0.474 -0.879 -0.061 36 36 40 0 0
0.7365 3.1747 1.3675 -0.998 -0.040 0.039 41 41 43 0 0
0.7352 3.2207 1.3669 -0.991 0.083 0.106 38 37 41 0 0
0.8100 3.6671 1.3608 0.106 -0.931 0.348 39 38 43 0 0
0.7708 3.6652 1.3613 -0.777 -0.629 0.028 41 40 45 0 0
0.7288 3.6335 1.3621 -0.578 -0.811 -0.093 44 44 46 0 0
0.7050 1.9299 1.3956 -0.069 -0.209 0.976 40 38 44 0 0
0.6851 1.9277 1.3959 -0.216 -0.078 0.973 33 31 36 0 0
0.6739 1.9727 1.3955 -0.184 -0.161 0.970 15 13 16 0 0
0.6693 1.9869 1.3954 -0.142 -0.290 0.947 13 13 15 0 0
0.6574 1.9931 1.3954 -0.275 -0.278 0.920 14 13 15 0 0
0.6534 2.0080 1.3953 -0.464 -0.152 0.873 22 22 24 0 0
0.8569 3.1619 1.3811 -0.670 -0.503 -0.546 27 27 31 0 0
0.8180 3.2075 1.3810 0.414 -0.909 0.048 36 35 40 0 0
0.7370 3.1754 1.3820 -0.998 -0.040 0.039 41 40 44 0 0
0.8060 3.6618 1.3762 -0.134 -0.973 0.188 40 40 42 0 0
0.6930 1.9741 1.4083 -0.017 -0.362 0.932 15 13 16 0 0
0.6769 1.9951 1.4082 -0.180 -0.342 0.922 20 20 22 0 0
0.6659 2.0023 1.4083 -0.497 -0.079 0.864 33 33 35 0 0
0.8753 2.6866 1.4002 0.349 -0.620 -0.703 8 8 10 0 0
0.7406 3.1800 1.3966 -0.963 -0.096 0.252 41 40 45 0 0
0.7646 3.6569 1.3919 0.075 -0.968 -0.239 40 40 42 0 0
0.7844 3.1885 1.4108 -0.075 -0.946 0.315 37 36 41 0 0
0.7441 3.1845 1.4111 -0.978 -0.066 0.196 43 42 47 0 0
0.7642 3.6562 1.4071 0.244 -0.947 -0.209 41 41 43 0 0
0.7659 2.0330 1.4336 -0.188 -0.076 0.979 41 39 42 0 0
0.7566 2.0423 1.4335 -0.293 -0.018 0.956 33 31 33 0 0
0.7335 3.1471 1.4261 -0.971 0.163 0.172 40 39 44 0 0
0.7984 2.0871 1.4463 -0.222 -0.070 0.973 17 15 19 0 0
0.9867 3.0649 1.4399 -0.867 0.489 0.094 14 14 16 0 0
0.8876 3.1296 1.4400 0.271 -0.773 -0.574 16 17 19 0 0
0.8185 3.2082 1.4399 0.404 -0.823 -0.400 36 35 40 0 0
0.7897 3.1953 1.4401 0.369 -0.781 -0.503 37 36 41 0 0
0.9327 2.1324 1.4589 -0.089 -0.148 0.985 79 77 80 0 0
0.8442 2.6937 1.4567 -0.729 0.189 -0.659 13 13 15 0 0
0.8092 3.1489 1.4549 0.350 -0.779 -0.520 32 31 36 0 0
0.8016 3.1867 1.4547 0.322 -0.699 -0.638 36 35 40 0 0
0.7776 3.1798 1.4549 0.371 -0.811 -0.453 38 37 42 0 0
0.7400 3.1555 1.4551 -0.971 0.163 0.172 41 40 45 0 0
0.9595 2.6113 1.4708 -0.297 -0.584 0.755 6 6 8 0 0
0.9228 2.5909 1.4710 0.047 -0.866 -0.498 6 6 8 0 0
0.7954 3.1316 1.4696 0.439 -0.844 -0.308 33 32 37 0 0
0.7731 3.6427 1.4681 -0.013 -0.992 0.128 39 39 41 0 0
1.0807 2.5559 1.4848 0.539 -0.831 -0.135 51 52 54 0 0
1.0319 2.5441 1.4849 -0.884 -0.460 -0.082 35 36 38 0 0
1.0342 2.5678 1.4849 -0.949 -0.316 0.021 26 27 29 0 0
0.9494 2.5786 1.4850 -0.722 0.267 0.638 6 6 9 0 0
0.9186 2.5862 1.4850 0.159 -0.963 -0.218 7 7 9 0 0
0.8777 2.6678 1.4849 -0.251 -0.968 0.025 15 15 17 0 0
0.8150 3.0627 1.4843 0.334 -0.834 -0.440 16 17 19 0 0
0.7843 3.1175 1.4843 0.382 -0.859 -0.340 33 32 37 0 0
1.0329 2.5242 1.4990 -0.057 -0.809 -0.585 48 48 50 0 0
0.9812 2.6359 1.4990 -0.237 -0.604 0.761 7 7 9 0 0
0.7938 3.6452 1.4985 -0.274 -0.779 0.565 39 38 43 0 0
0.8739 2.6633 1.5131 -0.385 -0.920 0.072 17 16 20 0 0
0.8656 2.6753 1.5132 -0.759 -0.643 -0.107 19 18 22 0 0
0.8518 2.6809 1.5131 -0.604 -0.794 0.074 21 21 24 0 0
0.7951 3.6469 1.5138 -0.378 -0.913 0.153 39 38 43 0 0
0.7741 3.6441 1.5138 0.188 -0.969 0.161 39 38 43 0 0
0.8412 3.9468 1.5140 -0.879 0.476 -0.037 150 150 150 0 0
0.8746 2.6641 1.5272 -0.302 -0.950 0.084 25 24 29 0 0
0.8653 2.6749 1.5273 -0.171 -0.985 -0.033 27 26 31 0 0
0.8392 2.6662 1.5272 -0.408 -0.819 0.403 27 26 31 0 0
0.8272 2.6738 1.5272 -0.408 -0.913 -0.007 22 22 24 0 0
0.7544 2.6529 1.5270 -0.646 -0.510 -0.568 22 21 23 0 0
0.7813 3.0671 1.5279 0.491 -0.747 0.448 23 22 27 0 0
0.7520 3.1002 1.5279 -0.347 -0.786 0.511 36 35 40 0 0
0.7853 3.6337 1.5290 -0.756 -0.506 -0.417 39 39 43 0 0
0.7746 3.6447 1.5290 0.119 -0.993 0.026 39 38 42 0 0
0.7829 2.6649 1.5411 -0.571 -0.760 0.312 25 23 26 0 0
0.7646 2.6650 1.5411 -0.958 -0.166 -0.235 29 27 30 0 0
0.7915 3.0565 1.5424 -0.038 -0.634 0.772 19 19 21 0 0
0.7819 3.6290 1.5442 -0.667 -0.389 -0.635 39 39 41 0 0
0.7700 3.6385 1.5442 -0.103 -0.970 -0.222 39 39 41 0 0
1.0154 2.5259 1.5553 -0.602 -0.795 0.075 39 40 44 0 0
1.0057 2.5361 1.5553 -0.833 -0.553 -0.000 25 26 30 0 0
0.8833 2.6527 1.5554 0.215 -0.909 -0.357 51 47 52 0 0
0.8071 2.6719 1.5552 -0.031 -0.916 -0.399 69 67 70 0 0
0.7450 3.0913 1.5569 -0.574 -0.810 0.119 35 36 41 0 0
0.7727 3.6166 1.5593 -0.726 -0.275 -0.631 39 39 41 0 0
0.7646 3.6311 1.5594 -0.169 -0.924 -0.342 39 39 41 0 0
0.7538 2.6738 1.5690 -0.872 -0.030 0.489 75 73 76 0 0
0.7660 3.6075 1.5744 -0.787 -0.314 -0.531 39 39 41 0 0
0.7618 3.6273 1.5745 -0.304 -0.904 -0.300 39 39 41 0 0
0.7535 3.6417 1.5746 -0.447 -0.888 -0.105 41 41 43 0 0
0.7472 3.6588 1.5746 -0.516 -0.842 -0.160 46 46 48 0 0
0.8761 4.0227 1.5773 -0.878 0.474 -0.067 158 159 158 0 0
0.8976 2.6692 1.5838 0.213 -0.964 -0.160 53 53 55 0 0
0.8611 2.6701 1.5836 0.345 -0.932 -0.110 78 78 81 0 0
0.7348 3.0784 1.5857 -0.351 -0.719 -0.600 38 38 42 0 0
0.7776 3.6232 1.5898 0.314 -0.920 -0.236 38 37 41 0 0
0.7591 3.6237 1.5897 -0.612 -0.770 -0.180 39 38 42 0 0
0.7472 3.6331 1.5897 -0.612 -0.770 -0.180 41 40 44 0 0
0.7457 3.6568 1.5898 -0.516 -0.842 -0.160 47 46 51 0 0
0.8725 4.0176 1.5931 -0.882 0.462 0.089 150 151 150 0 0
0.9115 2.6853 1.5982 0.132 -0.951 0.278 30 30 33 0 0
0.8147 2.6591 1.5973 0.227 -0.951 -0.210 60 59 64 0 0
0.7604 3.6254 1.6049 -0.883 -0.468 0.010 39 38 43 0 0
0.7456 3.6308 1.6048 -0.649 -0.737 -0.188 42 41 46 0 0
0.7479 3.6597 1.6051 -0.677 -0.735 -0.025 46 46 51 0 0
0.9103 2.6840 1.6123 -0.727 0.160 -0.668 16 16 19 0 0
0.7470 3.0240 1.6142 0.213 -0.465 -0.859 47 46 51 0 0
0.7605 3.6256 1.6201 -0.883 -0.468 0.010 38 37 42 0 0
0.7439 3.6286 1.6200 -0.658 -0.735 -0.163 42 41 46 0 0
0.7475 3.6591 1.6203 -0.720 -0.693 -0.040 46 46 49 0 0
0.8763 4.0231 1.6248 -0.886 0.461 0.039 160 160 160 0 0
1.0255 2.5580 1.6261 -0.570 -0.794 0.210 41 42 47 0 0
0.8455 3.6380 1.6362 -0.924 0.376 -0.065 44 43 47 0 0
0.7624 3.6281 1.6353 -0.733 -0.672 0.107 38 37 42 0 0
1.3738 2.6614 1.6450 0.127 -0.562 0.818 77 77 78 0 0
0.8864 2.5073 1.6382 0.063 -0.705 -0.707 35 36 40 0 0
0.8797 2.5208 1.6383 -0.733 -0.375 -0.567 30 31 35 0 0
0.8414 3.6325 1.6514 -0.916 0.365 -0.167 43 43 45 0 0
0.9028 4.0875 1.6575 -0.864 0.406 -0.298 173 173 173 0 0
1.3302 2.6361 1.6588 0.415 -0.902 -0.117 69 69 71 0 0
1.2846 2.6085 1.6579 0.428 -0.898 0.106 60 60 62 0 0
1.0394 2.4896 1.6536 -0.930 -0.263 0.258 49 49 49 0 0
0.8971 2.6471 1.6541 -0.137 -0.367 -0.920 23 23 25 0 0
1.3251 2.6307 1.6732 0.358 -0.933 0.042 65 67 69 0 0
0.8868 2.6138 1.6676 -0.504 -0.777 0.377 38 38 40 0 0
0.8712 2.6172 1.6675 -0.065 -0.837 -0.543 37 37 39 0 0
0.8644 2.6308 1.6676 0.052 -0.725 -0.687 33 33 35 0 0
0.8292 2.7415 1.6688 -0.512 0.128 -0.849 11 11 13 0 0
0.8483 2.6122 1.6811 -0.066 -0.584 -0.809 41 41 43 0 0
0.8407 2.6248 1.6812 0.028 -0.569 -0.822 39 39 41 0 0
0.8184 2.6418 1.6812 -0.041 -0.537 -0.843 30 30 32 0 0
0.8129 2.6570 1.6814 -0.328 -0.167 -0.930 25 25 27 0 0
0.7148 3.5634 1.6945 -0.516 -0.837 0.182 41 40 45 0 0
1.3653 2.6310 1.7028 0.479 -0.802 -0.357 70 70 72 0 0
1.2911 2.5943 1.7011 0.278 -0.853 -0.441 55 54 59 0 0
1.0287 2.5405 1.6965 -0.965 -0.152 0.213 32 30 33 0 0
0.7152 3.5639 1.7095 -0.736 -0.611 0.292 40 39 44 0 0
1.3173 2.6011 1.7161 0.407 -0.750 -0.521 64 63 67 0 0
1.2461 2.5672 1.7144 -0.923 -0.281 -0.264 48 47 52 0 0
0.9134 2.5590 1.7092 -0.966 0.101 0.239 22 22 24 0 0
0.8136 2.5933 1.7083 -0.162 -0.514 -0.843 21 21 23 0 0
0.8068 2.6068 1.7084 -0.031 -0.651 -0.758 20 20 22 0 0
0.7946 2.6141 1.7084 -0.060 -0.744 -0.665 24 24 26 0 0
0.6504 3.4757 1.7220 -0.283 -0.903 -0.323 41 40 45 0 0
0.9252 4.1466 1.7385 -0.874 0.448 0.190 174 174 174 0 0
0.9374 2.6289 1.7249 -0.216 -0.925 0.312 27 27 29 0 0
0.8841 4.0612 1.7522 -0.875 0.480 0.059 164 164 164 0 0
0.9481 2.5559 1.7377 -0.811 -0.584 -0.029 16 16 18 0 0
0.9702 2.6448 1.7400 -0.857 0.501 0.121 25 26 28 0 0
1.2995 2.5822 1.7588 -0.558 -0.792 0.246 48 49 53 0 0
0.6867 3.1580 1.7603 -0.586 0.347 -0.732 54 53 58 0 0
1.3276 2.5910 1.7740 0.218 -0.964 -0.154 56 57 61 0 0
1.2964 2.5788 1.7731 -0.381 -0.884 0.270 44 45 49 0 0
0.6704 3.1606 1.7745 -0.656 0.401 -0.640 40 39 44 0 0
1.3277 2.5911 1.7885 -0.439 -0.682 -0.585 51 51 56 0 0
0.7823 2.7296 1.7807 -0.929 -0.075 0.362 26 27 29 0 0
0.5353 3.2459 1.7884 -0.580 -0.732 -0.357 55 55 58 0 0
0.8914 4.1264 1.8174 -0.898 0.379 -0.222 175 175 175 0 0
0.9624 2.6575 1.7968 0.464 -0.681 -0.567 25 26 27 0 0
0.7726 2.5884 1.7909 -0.846 -0.114 -0.521 17 18 20 0 0
0.7878 2.6708 1.7934 -0.850 0.474 0.230 17 18 20 0 0
0.7629 2.7504 1.7949 -0.240 -0.462 0.854 30 30 30 0 0
1.0009 2.6797 1.8125 0.592 -0.755 -0.282 25 26 28 0 0
0.7737 2.5259 1.8031 -0.778 -0.521 -0.351 24 25 27 0 0
0.7657 2.5378 1.8033 -0.778 -0.521 -0.351 19 20 22 0 0
0.7676 2.5612 1.8040 -0.763 -0.345 -0.547 19 20 22 0 0
0.7634 2.5776 1.8043 -0.879 -0.158 -0.449 17 18 20 0 0
1.5006 2.6460 1.8376 0.585 -0.759 -0.287 93 91 92 0 0
1.3042 2.5662 1.8307 -0.364 -0.389 -0.846 42 43 48 0 0
0.7688 2.5201 1.8167 -0.791 -0.588 -0.171 36 37 41 0 0
1.4815 2.6261 1.8513 0.585 -0.759 -0.287 88 87 91 0 0
1.3564 2.5583 1.8462 0.470 -0.759 -0.451 68 68 69 0 0
1.3016 2.5425 1.8443 -0.817 0.074 -0.572 50 50 54 0 0
1.2912 2.5523 1.8444 -0.318 -0.439 -0.841 41 42 47 0 0
1.0742 2.6122 1.8408 -0.911 0.315 0.268 32 31 37 0 0
0.7651 2.5159 1.8303 -0.750 -0.595 -0.291 37 38 40 0 0
0.5280 3.1164 1.8422 -0.266 -0.793 0.548 39 40 44 0 0
1.5126 2.6373 1.8671 0.603 -0.742 -0.292 99 97 100 0 0
1.4622 2.6060 1.8648 0.583 -0.765 -0.274 87 86 91 0 0
1.3807 2.5420 1.8752 0.583 -0.775 -0.243 80 80 82 0 0
1.3888 2.5714 1.8764 0.362 -0.628 -0.689 73 73 73 0 0
0.7583 2.5291 1.8581 -0.796 -0.604 0.044 31 31 35 0 0
0.7596 2.5518 1.8589 -0.908 -0.354 0.224 25 24 29 0 0
1.3970 2.5590 1.8907 0.525 -0.824 -0.212 80 80 81 0 0
1.3650 2.5465 1.8894 0.455 -0.854 -0.252 72 72 72 0 0
1.1414 2.6654 1.8872 0.001 -0.851 -0.525 32 32 37 0 0
1.1123 2.6546 1.8860 -0.304 -0.628 -0.717 31 31 36 0 0
0.7527 2.5016 1.8708 -0.591 -0.627 -0.507 28 29 30 0 0
1.3915 2.5532 1.9049 0.536 -0.840 -0.087 81 81 81 0 0
1.3608 2.5421 1.9036 0.482 -0.854 -0.197 72 72 72 0 0
1.1672 2.6512 1.9018 -0.015 -0.500 -0.866 39 37 42 0 0
1.1557 2.6598 1.9018 0.072 -0.525 -0.848 34 35 39 0 0
1.4045 2.5669 1.9203 0.504 -0.863 0.037 94 94 94 0 0
1.3586 2.5398 1.9179 0.508 -0.861 -0.025 78 78 78 0 0
1.1766 2.6400 1.9161 -0.560 -0.040 -0.828 41 39 44 0 0
1.1467 2.6285 1.9147 -0.029 -0.512 -0.858 35 33 38 0 0
1.1275 2.6287 1.9142 0.224 -0.553 -0.802 34 35 39 0 0
0.9008 2.5448 1.9043 0.381 -0.477 -0.792 23 24 26 0 0
1.0358 3.1476 1.9301 -0.623 -0.289 -0.727 31 33 38 0 0
1.0243 3.1570 1.9301 -0.899 0.240 -0.368 31 32 37 0 0
1.3563 2.5374 1.9322 0.534 -0.839 0.108 89 89 89 0 0
1.1599 2.6005 1.9285 -0.524 -0.077 -0.848 41 42 46 0 0
1.1518 2.6129 1.9287 -0.330 -0.202 -0.922 30 29 34 0 0
1.0961 2.6152 1.9270 -0.758 0.454 -0.468 34 35 39 0 0
0.7779 2.4677 1.9116 -0.878 -0.132 0.461 17 18 20 0 0
1.1059 2.6049 1.9412 -0.046 -0.141 -0.989 40 39 44 0 0
1.0730 2.5897 1.9396 -0.758 0.454 -0.468 37 36 41 0 0
0.6130 3.3752 1.9698 -0.186 -0.194 0.963 51 50 55 0 0
1.0986 2.5125 1.9657 -0.430 -0.172 -0.886 35 33 39 0 0
1.5650 2.6703 2.0030 0.512 -0.842 0.169 77 76 79 0 0
1.0546 2.4027 1.9876 -0.766 -0.253 -0.590 26 23 30 0 0
1.0377 2.4050 1.9871 -0.512 -0.461 -0.725 31 29 35 0 0
0.9175 3.1667 2.0159 -0.923 0.102 -0.371 24 23 29 0 0
1.2013 2.4569 2.0095 0.487 -0.854 0.185 92 92 92 0 0
1.1577 2.4311 2.0067 0.497 -0.856 0.143 85 84 85 0 0
1.4251 2.5884 2.0383 0.343 -0.829 -0.441 71 71 73 0 0
1.3853 2.5677 2.0358 0.441 -0.841 -0.313 67 67 69 0 0
1.6244 2.6890 2.0655 -0.174 -0.952 -0.252 106 106 104 0 0
1.6129 2.6984 2.0655 0.122 -0.976 -0.181 91 90 89 0 0
1.4380 2.5598 2.0520 0.567 -0.821 -0.059 82 81 84 0 0
1.4496 2.5929 2.0541 0.313 -0.903 -0.294 76 75 78 0 0
1.4084 2.5709 2.0514 0.317 -0.879 -0.356 71 71 73 0 0
1.3794 2.5616 2.0498 0.397 -0.872 -0.287 66 66 68 0 0
0.8827 2.5032 2.0274 -0.488 -0.871 -0.051 46 45 50 0 0
0.8823 2.5237 2.0284 -0.483 -0.818 0.311 44 43 47 0 0
0.8709 2.5318 2.0283 -0.627 -0.760 0.171 42 42 45 0 0
1.6218 2.6863 2.0802 -0.276 -0.943 -0.186 127 127 126 0 0
1.6139 2.6995 2.0806 0.051 -0.983 -0.179 101 99 100 0 0
1.4426 2.5856 2.0681 0.246 -0.919 -0.309 74 73 76 0 0
1.4121 2.5748 2.0663 0.297 -0.926 -0.233 68 68 70 0 0
1.6117 2.6759 2.0942 0.007 -0.970 0.241 153 153 152 0 0
1.0020 2.3868 2.0544 0.166 -0.948 -0.273 40 41 45 0 0
1.0000 2.4050 2.0552 -0.512 -0.821 -0.251 41 41 46 0 0
0.7979 2.5327 2.0532 0.056 -0.891 0.450 35 35 37 0 0
0.6767 2.6037 2.0517 -0.593 -0.793 -0.138 36 37 41 0 0
0.6843 2.6559 2.0546 -0.635 0.405 -0.659 12 11 17 0 0
0.7308 3.8187 2.1146 -0.666 -0.705 0.242 77 78 82 0 0
0.7195 3.8294 2.1147 -0.666 -0.705 0.242 84 85 88 0 0
0.6948 3.8476 2.1146 0.209 -0.877 0.434 135 137 136 0 0
0.9775 2.4837 2.0722 0.081 -0.599 0.796 35 34 39 0 0
0.8779 2.5188 2.0697 -0.041 -0.966 0.255 26 25 29 0 0
0.8672 2.5276 2.0697 -0.475 -0.808 0.349 24 24 26 0 0
0.8609 2.5416 2.0702 -0.693 -0.715 -0.086 24 24 26 0 0
0.8514 2.5519 2.0703 -0.775 -0.626 0.089 24 24 26 0 0
0.7887 2.5432 2.0672 -0.170 -0.907 0.385 29 28 32 0 0
0.7717 2.5447 2.0665 -0.332 -0.769 0.546 30 30 34 0 0
0.6754 2.6021 2.0653 -0.669 -0.730 -0.137 41 42 46 0 0
0.7249 3.8370 2.1307 -0.568 -0.663 0.488 81 82 86 0 0
0.7132 3.8470 2.1307 -0.568 -0.663 0.488 88 89 92 0 0
0.7015 3.8571 2.1307 -0.568 -0.663 0.488 109 110 112 0 0
0.8627 2.5436 2.0843 -0.582 -0.813 -0.001 24 24 26 0 0
0.8565 2.5576 2.0847 -0.648 -0.761 -0.007 23 23 25 0 0
0.6740 2.5363 2.0756 -0.705 -0.687 -0.176 43 44 49 0 0
0.6612 2.6066 2.0788 -0.678 -0.706 -0.206 43 44 48 0 0
0.6766 2.9130 2.0955 0.568 -0.704 -0.427 19 20 22 0 0
0.7281 3.8414 2.1465 -0.608 -0.628 0.487 79 78 84 0 0
0.7188 3.8549 2.1468 -0.715 -0.568 0.407 86 85 88 0 0
0.7088 3.8675 2.1470 -0.715 -0.568 0.407 96 98 99 0 0
0.9816 2.4884 2.1006 -0.265 -0.580 0.770 36 35 40 0 0
0.8440 2.5646 2.0985 -0.823 -0.253 0.509 20 20 22 0 0
0.8363 2.5769 2.0988 -0.996 0.069 -0.061 23 23 25 0 0
0.6495 2.6142 2.0924 -0.509 -0.852 -0.122 42 43 48 0 0
0.7148 3.8759 2.1632 -0.681 -0.565 0.466 91 92 92 0 0
1.0582 2.4685 2.1170 0.159 -0.507 0.847 42 41 46 0 0
1.0548 2.4856 2.1178 -0.446 -0.126 0.886 42 41 46 0 0
1.0228 2.5130 2.1178 -0.999 -0.032 -0.026 40 39 44 0 0
1.0896 2.5446 2.1368 -0.094 -0.429 0.899 39 38 43 0 0
0.5230 2.7654 2.1226 -0.847 0.236 0.477 38 38 40 0 0
0.5259 3.3063 2.1532 -0.762 0.142 0.631 41 40 46 0 0
0.5810 2.6612 2.1333 -0.519 -0.752 0.407 16 17 19 0 0
0.5520 2.7351 2.1361 -0.160 -0.981 0.112 13 14 16 0 0
0.5416 2.7443 2.1361 -0.868 -0.494 -0.062 13 14 16 0 0
0.4857 3.1792 2.1585 -0.298 -0.479 0.826 50 51 54 0 0
0.6774 3.9031 2.2093 -0.940 -0.304 0.157 193 193 193 0 0
0.6044 2.6463 2.1473 -0.519 -0.849 0.099 46 43 49 0 0
0.5923 2.6532 2.1471 -0.516 -0.856 0.037 36 35 40 0 0
0.5896 2.6717 2.1481 -0.814 -0.581 -0.005 25 26 28 0 0
0.5871 2.6905 2.1491 -0.681 -0.654 -0.330 19 20 22 0 0
0.4913 3.1627 2.1721 -0.403 -0.844 0.354 45 46 50 0 0
0.4833 3.1759 2.1725 -0.317 -0.830 0.460 41 42 46 0 0
0.6635 3.7243 2.2136 -0.816 0.161 -0.555 51 54 59 0 0
0.6811 3.9084 2.2253 -0.976 0.018 0.219 186 186 185 0 0
0.6028 2.6660 2.1622 -0.780 -0.620 -0.080 39 39 43 0 0
0.5910 2.6735 2.1621 -0.564 -0.825 -0.016 36 37 39 0 0
0.5806 2.6825 2.1621 -0.532 -0.847 0.005 27 28 30 0 0
0.5774 2.7004 2.1630 -0.735 -0.648 -0.200 24 25 27 0 0
0.5544 2.9409 2.1763 -0.503 0.008 -0.864 31 32 34 0 0
0.4922 3.1639 2.1866 -0.559 -0.777 -0.289 36 37 42 0 0
0.4806 3.1723 2.1865 -0.559 -0.777 -0.289 37 38 43 0 0
0.4812 3.1970 2.1880 -0.901 -0.370 -0.228 39 40 45 0 0
0.4927 3.2368 2.1910 -0.992 -0.004 -0.125 41 40 46 0 0
0.6508 3.7065 2.2271 -0.816 0.161 -0.555 52 56 61 0 0
0.5926 2.6754 2.1761 -0.726 -0.687 -0.007 44 43 48 0 0
0.5833 2.6858 2.1762 -0.655 -0.753 0.064 42 41 46 0 0
0.5781 2.7013 2.1769 -0.734 -0.679 0.020 38 37 42 0 0
0.5727 2.8054 2.1830 -0.907 -0.002 0.422 21 22 26 0 0
0.5622 2.8597 2.1858 -0.944 -0.041 0.326 30 31 35 0 0
0.5543 2.9178 2.1890 -0.939 0.167 0.302 42 44 48 0 0
0.4781 3.1689 2.2005 -0.604 -0.706 -0.369 35 36 41 0 0
0.5655 2.7298 2.1919 -0.819 -0.574 -0.013 38 38 42 0 0
0.4978 2.9138 2.1999 -0.280 -0.599 -0.750 54 55 59 0 0
0.4384 3.0681 2.2064 -0.492 -0.566 0.662 51 51 56 0 0
0.4850 3.1542 2.2142 -0.541 -0.410 0.735 46 46 51 0 0
0.4931 3.2617 2.2214 -0.939 0.201 -0.280 37 38 43 0 0
0.5129 3.3131 2.2256 -0.942 0.314 -0.113 38 39 44 0 0
0.5646 2.7507 2.2070 -0.944 -0.141 0.299 44 45 49 0 0
0.5491 2.7536 2.2064 -0.820 -0.337 0.462 43 44 48 0 0
0.5666 2.8427 2.2130 -0.675 -0.641 -0.366 48 49 53 0 0
0.4767 3.2152 2.2320 -0.844 -0.160 0.512 36 37 42 0 0
0.5553 3.4458 2.2509 -0.957 0.269 0.111 39 40 45 0 0
0.5851 3.5121 2.2567 -0.950 0.078 -0.301 40 41 46 0 0
1.6442 2.6454 2.2726 0.549 -0.747 -0.375 90 88 88 0 0
0.5661 2.7306 2.2197 -0.829 -0.269 -0.491 46 46 51 0 0
0.5693 2.8460 2.2274 -0.822 -0.515 0.244 52 52 56 0 0
0.5596 2.8564 2.2275 -0.943 -0.263 0.204 56 57 60 0 0
0.5472 2.8859 2.2288 -0.992 0.120 0.044 55 57 61 0 0
0.5409 2.9006 2.2294 -0.986 -0.019 -0.164 54 57 60 0 0
0.5117 2.9317 2.2298 -0.064 -0.997 -0.032 55 55 58 0 0
0.4770 3.0254 2.2340 -0.728 -0.199 0.655 54 54 59 0 0
0.4770 3.0488 2.2355 -0.637 -0.203 0.744 55 55 59 0 0
0.4949 3.1915 2.2458 -0.795 -0.282 0.537 51 51 56 0 0
0.4870 3.2290 2.2478 -0.746 -0.205 0.634 46 47 52 0 0
0.4954 3.2648 2.2506 -0.877 0.106 0.468 40 41 46 0 0
0.5046 3.3017 2.2535 -0.960 0.276 -0.041 37 38 43 0 0
0.5537 3.4436 2.2654 -0.909 0.338 -0.243 39 40 45 0 0
1.6332 2.6343 2.2862 0.539 -0.748 -0.386 87 84 87 0 0
0.5700 2.7353 2.2341 -0.681 -0.053 -0.730 44 44 48 0 0
0.5829 2.8633 2.2433 -0.655 -0.386 0.650 52 51 56 0 0
0.5685 2.8677 2.2428 -0.584 -0.452 0.674 54 54 57 0 0
0.5566 2.8752 2.2426 -0.387 -0.576 0.720 54 54 57 0 0
0.5400 2.8768 2.2418 -0.083 -0.654 0.752 53 53 57 0 0
0.5017 3.2978 2.2676 -0.969 0.247 -0.031 48 49 54 0 0
0.7216 3.9664 2.3242 -0.834 0.419 -0.360 203 203 203 0 0
1.6696 2.6500 2.3042 0.547 -0.748 -0.376 91 89 92 0 0
0.5206 2.8975 2.2561 0.237 -0.723 0.650 39 38 40 0 0
0.4649 3.0563 2.2637 -0.986 0.041 0.162 42 43 47 0 0
0.4477 3.1518 2.2692 -0.897 -0.439 0.058 51 52 57 0 0
0.4406 3.2144 2.2730 -0.940 -0.015 -0.341 51 52 57 0 0
0.4445 3.2440 2.2752 -0.609 -0.500 0.616 53 52 58 0 0
0.5246 3.4034 2.2905 -0.507 -0.310 -0.804 51 50 56 0 0
0.5153 3.4155 2.2908 -0.496 -0.411 -0.765 47 45 52 0 0
0.7467 4.0024 2.3436 -0.780 0.478 -0.404 199 199 199 0 0
1.6533 2.6335 2.3170 0.549 -0.767 -0.331 87 85 88 0 0
0.5994 2.9068 2.2753 0.001 -0.367 0.930 36 35 38 0 0
0.6617 2.9857 2.2986 -0.138 -0.154 0.978 46 45 48 0 0
0.5311 3.4373 2.3226 0.073 -0.888 -0.455 61 62 67 0 0
1.6786 2.6380 2.3486 0.549 -0.767 -0.331 87 87 88 0 0
0.5265 3.4310 2.3366 0.157 -0.925 -0.347 58 59 64 0 0
0.7302 4.0061 2.3898 -0.812 0.493 -0.314 198 199 199 0 0
0.5848 3.4864 2.3589 -0.930 0.158 0.330 45 46 51 0 0
0.5507 3.5660 2.3626 -0.885 0.325 0.335 60 59 64 0 0
0.6040 3.7189 2.4072 -0.904 0.334 -0.267 69 70 69 0 0
1.6786 2.6592 2.4099 0.198 -0.885 -0.422 71 72 74 0 0
1.6720 2.6525 2.4238 0.142 -0.907 -0.397 68 69 71 0 0
1.6944 2.6752 2.4570 -0.194 -0.815 -0.546 66 66 68 0 0
1.6233 2.6878 2.4682 -0.431 -0.283 -0.857 44 43 48 0 0
1.6821 2.5994 2.4798 -0.769 0.340 -0.541 101 102 104 0 0
1.5655 2.5862 2.4707 -0.144 -0.812 -0.566 47 47 50 0 0
1.5681 2.6311 2.4746 -0.598 -0.295 -0.746 42 42 47 0 0
0.6267 3.6209 2.4915 -0.191 -0.555 -0.810 46 47 53 0 0
0.5602 3.5538 2.4814 0.184 -0.746 -0.640 47 47 54 0 0
1.6597 2.5560 2.4895 -0.931 0.347 -0.117 144 144 144 0 0
1.5531 2.5736 2.4835 0.031 -0.958 -0.284 49 48 54 0 0
1.5478 2.5891 2.4844 0.115 -0.992 0.043 44 45 51 0 0
0.6768 3.6390 2.5116 0.170 -0.335 -0.927 42 43 49 0 0
0.6294 3.5990 2.5049 -0.254 -0.327 -0.910 45 45 52 0 0
0.6063 3.5925 2.5028 -0.542 -0.373 -0.753 48 48 55 0 0
1.5752 2.5543 2.4981 0.385 -0.915 0.118 78 78 80 0 0
1.5679 2.5678 2.4987 0.049 -0.998 0.038 69 68 72 0 0
1.5438 2.5641 2.4967 0.237 -0.966 -0.104 58 57 62 0 0
1.2384 2.4138 2.4763 0.507 -0.730 -0.459 38 38 40 0 0
0.6296 3.0373 2.5293 -0.741 0.018 -0.671 20 20 23 0 0
0.6369 3.0701 2.5328 -0.740 0.142 -0.657 22 22 26 0 0
1.2273 2.3817 2.5292 0.569 -0.812 -0.126 58 58 63 0 0
1.1250 2.3150 2.5153 0.217 -0.973 -0.077 45 45 47 0 0
1.1609 2.3124 2.5317 -0.018 -0.964 0.266 62 63 68 0 0
1.1472 2.3182 2.5312 0.115 -0.993 0.022 60 59 63 0 0
1.1256 2.3157 2.5293 0.125 -0.992 0.025 53 53 55 0 0
1.0219 2.4083 2.5299 0.564 -0.789 -0.243 32 32 34 0 0
0.9746 2.3774 2.5233 0.560 -0.799 -0.218 30 30 32 0 0
0.5764 3.1091 2.5605 -0.904 0.154 -0.400 39 37 42 0 0
1.2763 2.3920 2.5622 0.243 -0.824 0.512 75 76 78 0 0
1.0869 2.3353 2.5420 -0.322 -0.726 0.608 55 54 59 0 0
1.0713 2.3391 2.5412 -0.250 -0.700 0.669 53 52 58 0 0
1.0554 2.3423 2.5402 -0.113 -0.733 0.671 52 51 56 0 0
1.1918 2.3649 2.5671 0.289 -0.875 0.387 67 67 71 0 0
1.1590 2.3508 2.5631 0.262 -0.903 0.341 63 63 65 0 0
0.6467 3.8859 2.6689 -0.941 0.227 -0.251 207 206 206 0 0
1.5707 2.5706 2.6316 0.472 -0.822 0.319 54 54 56 0 0
1.2991 2.4156 2.5947 0.141 -0.563 0.814 81 81 84 0 0
1.2542 2.3894 2.5885 0.368 -0.794 0.483 76 76 81 0 0
1.2212 2.3753 2.5845 0.272 -0.772 0.575 73 73 78 0 0
0.9341 2.3535 2.5593 -0.025 -0.789 0.614 49 50 54 0 0
0.8955 2.3929 2.5600 -0.899 -0.286 0.330 46 47 48 0 0
0.5555 3.0817 2.5992 -0.990 0.101 0.102 55 56 60 0 0
1.5411 2.5614 2.6430 0.462 -0.863 0.206 51 51 53 0 0
1.1799 2.3727 2.5950 0.328 -0.929 0.171 44 43 49 0 0
1.1482 2.3597 2.5911 0.241 -0.926 0.292 42 41 47 0 0
1.1226 2.3530 2.5884 -0.349 -0.501 0.792 38 37 42 0 0
0.9258 2.3648 2.5735 -0.269 -0.642 0.718 45 46 50 0 0
0.9062 2.3842 2.5738 -0.507 -0.531 0.679 45 45 49 0 0
0.6381 2.6005 2.5731 -0.032 -0.291 -0.956 43 44 48 0 0
0.6200 2.6002 2.5715 -0.003 -0.313 -0.950 43 44 48 0 0
0.5509 2.9593 2.6011 -0.938 0.038 -0.345 53 52 57 0 0
0.5582 3.0618 2.6117 -0.960 0.107 0.258 41 42 47 0 0
1.6019 2.6023 2.6667 0.462 -0.846 0.266 57 57 59 0 0
1.4976 2.5377 2.6517 0.488 -0.870 -0.068 50 49 53 0 0
1.2264 2.4012 2.6157 0.424 -0.904 -0.052 35 34 40 0 0
1.1909 2.3843 2.6111 0.418 -0.904 -0.085 39 38 45 0 0
1.1537 2.3655 2.6062 0.328 -0.945 0.003 40 39 46 0 0
0.9350 2.3749 2.5890 -0.425 -0.519 0.742 29 29 33 0 0
0.9263 2.3859 2.5894 -0.326 -0.580 0.746 33 33 37 0 0
1.1277 2.3787 2.6193 -0.448 -0.800 0.399 21 21 22 0 0
0.9149 2.3938 2.6030 -0.796 -0.328 0.508 32 30 35 0 0
0.8120 2.4857 2.6036 0.175 -0.905 0.389 35 34 39 0 0
0.7984 2.4911 2.6030 -0.295 -0.662 0.689 42 41 47 0 0
0.6399 2.5597 2.5966 -0.087 -0.448 0.890 49 49 53 0 0
0.5555 3.0115 2.6350 -0.954 -0.023 0.300 35 36 40 0 0
1.1669 2.4615 2.6451 -0.701 -0.676 -0.227 20 19 22 0 0
1.1428 2.4771 2.6446 -0.216 -0.458 0.862 12 11 15 0 0
0.9111 2.4102 2.6181 -0.977 -0.143 0.158 9 9 11 0 0
0.9125 2.4324 2.6205 -0.917 0.311 -0.250 10 10 12 0 0
0.7090 2.5351 2.6137 0.142 -0.555 -0.820 31 31 33 0 0
0.5574 3.0140 2.6496 -0.913 0.013 0.408 35 36 40 0 0
0.5643 3.0931 2.6582 -0.921 -0.028 0.390 19 20 23 0 0
0.5594 3.0633 2.6690 -0.949 0.181 -0.257 15 16 18 0 0
0.5616 3.0897 2.6719 -0.958 0.056 -0.281 20 22 23 0 0
1.5842 2.6054 2.7247 0.458 -0.820 0.343 76 76 78 0 0
1.2665 2.4227 2.6780 0.523 -0.846 0.099 45 44 49 0 0
1.1759 2.4093 2.6687 -0.863 -0.332 0.381 41 40 45 0 0
0.7234 2.5946 2.6487 -0.745 0.124 -0.656 10 10 12 0 0
0.7064 2.5960 2.6474 -0.919 0.359 -0.162 9 9 11 0 0
1.1646 2.3769 2.6784 0.224 -0.650 0.726 40 39 45 0 0
1.1610 2.3936 2.6798 -0.407 -0.453 0.793 39 38 43 0 0
1.1889 2.4643 2.7181 -0.461 -0.161 -0.872 42 41 46 0 0
1.1984 2.5579 2.7291 -0.389 0.130 -0.912 35 34 39 0 0
0.8813 2.6935 2.7293 -0.132 -0.491 0.861 20 20 22 0 0
1.0933 2.5067 2.7423 0.067 -0.340 -0.938 35 34 39 0 0
0.9305 2.7072 2.7495 -0.787 0.302 -0.539 23 23 25 0 0
1.1364 2.4702 2.7564 -0.315 -0.949 0.019 41 41 45 0 0
0.5640 2.6621 2.7245 -0.438 -0.667 -0.602 14 12 16 0 0
0.5601 2.6792 2.7260 -0.657 -0.437 -0.614 16 14 18 0 0
0.4841 3.0347 2.7587 -0.891 0.378 -0.253 18 17 20 0 0
0.5000 3.0792 2.7651 -0.909 0.375 -0.182 21 19 23 0 0
1.1363 2.4701 2.7705 -0.526 -0.850 0.010 45 45 47 0 0
1.1283 2.4822 2.7711 -0.170 -0.985 -0.036 42 41 46 0 0
1.4886 2.5702 2.8297 -0.216 -0.903 -0.372 55 55 59 0 0
0.7397 4.1022 2.9335 -0.720 0.415 -0.556 189 189 189 0 0
1.3737 2.5555 2.8315 -0.368 -0.746 -0.554 38 37 42 0 0
1.0976 2.4285 2.7902 0.304 -0.908 0.290 50 49 54 0 0
1.0857 2.5194 2.7996 -0.482 -0.734 0.478 49 48 53 0 0
0.8465 2.5040 2.7747 -0.624 -0.085 0.777 38 37 42 0 0
0.4919 3.3830 2.8422 -0.490 -0.313 -0.814 53 52 56 0 0
1.6026 2.5612 2.8690 0.408 -0.747 -0.525 64 64 66 0 0
1.3760 2.5579 2.8465 -0.724 -0.685 0.080 45 44 49 0 0
1.3727 2.5754 2.8482 -0.969 -0.208 -0.135 45 44 49 0 0
0.8425 2.6699 2.8076 -0.902 0.279 0.328 41 41 43 0 0
0.6580 2.6243 2.7843 -0.095 -0.141 -0.985 40 40 41 0 0
0.7144 4.0930 2.9615 -0.746 0.446 -0.494 183 183 183 0 0
1.3846 2.5669 2.8629 -0.409 -0.775 0.482 48 47 52 0 0
1.1596 2.4537 2.8556 -0.349 -0.818 -0.457 50 49 54 0 0
0.8718 2.5539 2.8388 0.131 -0.767 0.628 43 40 47 0 0
0.8381 2.5790 2.8384 -0.528 -0.798 0.290 43 42 47 0 0
0.4719 3.3061 2.8893 -0.722 -0.690 0.044 48 47 53 0 0
0.5313 3.2405 2.9018 -0.671 0.153 0.726 49 48 55 0 0
0.5002 3.2957 2.9054 -0.710 -0.158 -0.686 48 47 52 0 0
0.6435 3.9897 3.0046 -0.122 -0.826 -0.550 98 98 98 0 0
1.1652 2.4390 2.8827 -0.472 -0.249 -0.846 46 45 50 0 0
1.1536 2.4472 2.8825 -0.484 -0.393 -0.782 55 54 59 0 0
0.4958 3.2168 2.9097 -0.972 0.009 0.233 48 48 52 0 0
0.6507 3.9728 3.0188 -0.205 -0.766 -0.610 82 82 84 0 0
0.6234 3.9876 3.0178 0.155 -0.888 -0.432 122 122 122 0 0
1.2540 2.4919 2.9126 0.527 -0.754 -0.391 49 48 53 0 0
1.1477 2.4204 2.8927 -0.964 0.188 -0.186 48 47 52 0 0
0.4949 3.3130 2.9360 -0.908 -0.061 0.415 48 45 52 0 0
0.6405 3.9852 3.0348 0.232 -0.870 -0.435 86 87 89 0 0
0.6187 3.9808 3.0320 0.232 -0.870 -0.435 109 110 110 0 0
1.2696 2.4877 2.9280 0.514 -0.740 -0.434 50 49 54 0 0
1.0994 2.4303 2.9029 0.088 -0.960 -0.266 55 55 57 0 0
1.0802 2.4302 2.9009 0.112 -0.903 -0.414 53 52 57 0 0
0.6219 3.9310 3.0415 -0.674 -0.285 -0.681 76 76 81 0 0
0.6318 3.9726 3.0478 0.133 -0.857 -0.498 83 84 87 0 0
0.6119 3.9708 3.0455 0.133 -0.857 -0.498 100 101 103 0 0
1.0691 2.4183 2.9122 0.264 -0.964 -0.007 54 53 58 0 0
0.7990 2.5976 2.9064 -0.725 -0.664 -0.185 58 58 60 0 0
0.7888 2.6071 2.9065 -0.680 -0.643 -0.352 57 57 59 0 0
0.6147 3.9205 3.0549 -0.713 -0.220 -0.666 74 74 79 0 0
0.6130 3.9452 3.0578 -0.507 -0.442 -0.740 80 81 86 0 0
0.6049 3.9605 3.0589 -0.012 -0.819 -0.573 96 96 100 0 0
0.7973 2.5957 2.9199 -0.725 -0.664 -0.185 63 62 66 0 0
0.6144 2.6801 2.9111 -0.286 -0.501 0.817 60 60 61 0 0
0.5934 3.9437 3.0710 -0.476 -0.465 -0.747 92 92 95 0 0
0.8223 2.6034 2.9375 -0.427 -0.872 0.239 65 63 67 0 0
0.7903 2.5876 2.9320 -0.537 -0.746 -0.393 65 63 67 0 0
0.6202 2.6005 2.9153 0.270 -0.933 -0.240 72 70 73 0 0
0.6503 2.6584 2.9260 0.262 -0.867 0.425 72 70 73 0 0
0.6261 2.6508 2.9225 0.201 -0.870 0.451 73 71 73 0 0
0.6456 2.6962 2.9304 0.025 -0.697 0.717 74 72 74 0 0
0.6348 2.7712 2.9390 -0.036 -0.477 0.878 79 77 78 0 0
0.5725 3.9132 3.0802 -0.836 0.095 -0.540 90 91 92 0 0
0.8674 2.5913 2.9548 0.438 -0.766 -0.470 65 63 66 0 0
0.7862 2.5402 2.9393 0.183 -0.983 0.006 70 68 71 0 0
0.7611 2.5962 2.9439 -0.491 -0.817 -0.302 71 69 72 0 0
0.7590 2.6151 2.9461 -0.124 -0.973 0.195 72 70 73 0 0
0.7414 2.6159 2.9443 -0.021 -0.976 0.218 74 72 75 0 0
0.7306 2.6246 2.9442 0.208 -0.907 0.366 75 73 76 0 0
0.7204 2.6341 2.9444 0.265 -0.847 0.460 76 74 77 0 0
0.5858 2.6670 2.9340 0.356 -0.686 -0.634 80 77 78 0 0
0.6228 2.7785 2.9526 -0.221 -0.643 0.733 83 81 82 0 0
0.5985 2.7708 2.9489 -0.232 -0.634 0.738 81 79 80 0 0
0.8090 2.5454 2.9563 0.181 -0.982 0.047 74 72 75 0 0
0.7863 2.5403 2.9531 0.183 -0.983 0.006 77 75 78 0 0
0.8019 2.6225 2.9657 -0.803 -0.067 -0.592 78 76 78 0 0
0.7788 2.6169 2.9624 -0.974 -0.218 0.069 77 75 78 0 0
0.7559 2.6330 2.9620 -0.546 -0.753 0.366 80 78 81 0 0
0.7098 2.6215 2.9554 0.445 -0.895 0.036 78 76 79 0 0
0.6732 2.6210 2.9513 0.231 -0.921 0.314 84 82 85 0 0
0.6604 2.6273 2.9508 0.048 -0.933 0.358 86 84 86 0 0
0.7569 3.8554 3.1236 0.648 -0.733 0.207 42 41 46 0 0
0.7940 2.6133 2.9776 -0.832 -0.055 -0.552 81 79 82 0 0
0.6723 2.6415 2.9678 -0.199 -0.390 0.899 88 86 89 0 0
0.8186 2.5777 2.9895 0.421 -0.771 -0.477 79 77 80 0 0
0.7870 2.5837 2.9868 -0.620 0.125 -0.774 86 84 87 0 0
0.7028 3.8589 3.1489 0.601 -0.799 0.009 45 44 49 0 0
1.2286 2.4035 3.0262 0.629 -0.747 -0.217 61 61 63 0 0
0.5181 2.7148 3.0018 -0.460 0.025 -0.887 71 69 74 0 0
0.7395 2.5709 3.0212 -0.064 -0.279 -0.958 67 66 71 0 0
0.7098 2.5148 3.0237 0.040 -0.652 -0.757 55 55 57 0 0
0.4664 3.6007 3.1619 -0.995 -0.011 -0.101 66 64 69 0 0
1.7311 2.5646 3.1794 0.421 -0.902 0.092 77 77 77 0 0
1.6805 2.5351 3.1692 0.461 -0.866 0.195 74 73 71 0 0
0.6668 2.6348 3.0632 -0.690 -0.693 0.206 26 27 29 0 0
1.6887 2.5433 3.1862 0.461 -0.866 0.195 75 74 73 0 0
0.7508 2.5415 3.0737 0.368 -0.707 0.604 35 36 40 0 0
0.6873 2.4885 3.0585 -0.039 -0.400 -0.916 34 35 38 0 0
1.5571 2.4533 3.1866 0.182 -0.940 0.290 69 68 72 0 0
1.5685 2.4647 3.2042 0.161 -0.896 0.413 72 72 74 0 0
1.4327 2.4097 3.1795 0.433 -0.820 0.375 64 64 66 0 0
1.1480 2.3190 3.1312 -0.034 -0.978 -0.204 30 31 35 0 0
1.5795 2.4552 3.2188 0.407 -0.876 0.260 79 78 77 0 0
1.1281 2.3182 3.1425 -0.026 -0.997 -0.072 28 29 33 0 0
1.5719 2.4681 3.2343 0.262 -0.954 0.146 77 77 77 0 0
1.3973 2.3738 3.1984 0.204 -0.729 0.653 66 66 68 0 0
1.1659 2.3378 3.1641 -0.716 -0.613 0.334 36 37 41 0 0
1.1567 2.3483 3.1645 -0.750 -0.582 0.314 34 35 39 0 0
1.5763 2.4725 3.2501 0.208 -0.965 0.163 79 79 78 0 0
1.5496 2.4663 3.2458 0.216 -0.959 0.182 75 75 75 0 0
1.3454 2.3615 3.2043 -0.046 -0.611 0.791 62 61 66 0 0
1.2987 2.3340 3.1942 -0.910 -0.407 0.074 60 59 64 0 0
1.3070 2.3627 3.1996 -0.764 -0.548 -0.339 59 58 63 0 0
0.5841 3.9574 3.3494 -0.834 0.498 -0.237 107 109 105 0 0
1.3504 2.3666 3.2199 0.022 -0.731 0.682 64 63 67 0 0
1.2955 2.3307 3.2075 -0.769 -0.434 -0.470 64 64 67 0 0
1.3037 2.3594 3.2129 -0.386 -0.535 -0.752 64 63 67 0 0
0.4130 2.8493 3.1743 -0.591 0.285 -0.755 27 26 32 0 0
1.4478 2.4455 3.2587 0.135 -0.852 0.505 67 67 69 0 0
1.3139 2.3495 3.2268 0.027 -0.956 0.292 65 65 67 0 0
1.2710 2.3661 3.2239 0.520 -0.853 0.052 57 56 61 0 0
0.6458 2.6313 3.1845 -0.164 -0.033 -0.986 18 18 20 0 0
0.6413 2.6475 3.1864 -0.140 -0.037 -0.989 17 17 19 0 0
0.3996 2.7421 3.1700 -0.682 -0.037 -0.731 24 22 27 0 0
0.3916 2.8441 3.1846 -0.399 0.095 -0.912 32 31 37 0 0
1.5139 2.4715 3.2857 0.285 -0.958 0.015 72 72 72 0 0
1.4343 2.4523 3.2725 -0.410 -0.897 0.168 67 67 68 0 0
1.3625 2.3993 3.2550 0.059 -0.946 -0.319 66 66 67 0 0
1.2727 2.3679 3.2385 0.507 -0.861 0.042 61 60 64 0 0
0.5830 2.5343 3.1752 -0.318 -0.439 0.840 22 23 26 0 0
0.4369 2.7231 3.1856 -0.806 -0.434 0.402 30 32 36 0 0
0.3771 2.8026 3.1902 -0.593 0.279 -0.755 35 34 40 0 0
1.5168 2.4743 3.3010 0.168 -0.965 0.202 72 72 74 0 0
1.4946 2.4725 3.2979 0.127 -0.896 0.425 71 71 73 0 0
0.9803 2.4040 3.2202 -0.229 -0.161 0.960 44 45 49 0 0
0.7283 2.5154 3.2048 0.143 -0.759 0.635 36 35 40 0 0
0.4816 3.6746 3.3536 -0.987 0.119 0.112 69 69 71 0 0
1.4547 2.4731 3.3072 0.139 -0.978 0.156 67 67 68 0 0
1.4256 2.4639 3.3020 0.225 -0.953 0.203 66 66 68 0 0
0.6090 2.5655 3.2108 -0.670 -0.583 -0.460 39 40 44 0 0
1.4636 2.4822 3.3243 0.190 -0.942 -0.277 66 66 68 0 0
1.2502 2.4056 3.2839 -0.361 -0.425 0.830 59 61 65 0 0
0.6230 2.5823 3.2290 -0.592 -0.642 0.487 41 40 45 0 0
1.4589 2.4774 3.3374 0.190 -0.942 -0.277 55 55 57 0 0
0.6993 2.4189 3.2268 0.475 -0.856 0.207 46 45 50 0 0
0.7173 2.4605 3.2358 0.082 -0.956 0.281 46 45 50 0 0
0.6837 2.4424 3.2284 0.077 -0.992 -0.103 45 44 49 0 0
0.6505 2.5510 3.2414 -0.796 -0.265 0.544 43 44 48 0 0
0.6424 2.5841 3.2456 -0.796 -0.265 0.544 42 43 47 0 0
0.5695 2.5394 3.2287 -0.116 -0.612 -0.783 42 43 47 0 0
1.4637 2.4822 3.3533 0.252 -0.968 0.010 51 51 53 0 0
1.4337 2.4722 3.3477 0.237 -0.940 -0.245 50 50 52 0 0
0.7157 2.4587 3.2490 0.200 -0.961 -0.191 47 46 51 0 0
0.6938 2.4542 3.2453 0.267 -0.959 -0.093 47 46 51 0 0
1.4085 2.4669 3.3578 -0.676 0.065 0.734 45 45 48 0 0
1.3207 2.4381 3.3413 0.276 -0.788 -0.551 41 39 44 0 0
1.2954 2.4322 3.3369 0.276 -0.788 -0.551 40 38 44 0 0
0.4534 2.8337 3.3019 0.449 -0.835 0.319 48 47 52 0 0
1.7900 2.5810 3.4580 0.591 -0.807 0.020 78 76 77 0 0
1.2665 2.4021 3.3564 -0.287 -0.860 -0.422 38 37 41 0 0
1.2430 2.4186 3.3559 -0.693 -0.488 -0.530 42 41 46 0 0
1.8218 2.5914 3.4791 0.497 -0.868 0.007 81 80 82 0 0
