ply
format ascii 1.0
element vertex 884
property float x
property float y
property float z
property float nx
property float ny
property float nz
property uchar diffuse_red
property uchar diffuse_green
property uchar diffuse_blue
property uchar class
property uchar detection
end_header
1.3035 2.3260 0.6351 0.242 -0.495 -0.834 40 40 42 0 0
1.2944 2.2922 0.6389 0.895 0.018 -0.446 39 39 41 0 0
1.2950 2.2679 0.6399 0.967 -0.022 -0.252 39 39 41 0 0
1.2768 2.2475 0.6453 0.994 -0.090 -0.063 38 38 40 0 0
1.2620 2.1992 0.6511 -0.222 -0.898 0.381 37 37 39 0 0
0.8076 1.9441 0.7755 0.407 -0.493 -0.769 59 60 63 0 0
0.8084 1.9219 0.7763 0.484 -0.089 -0.871 58 59 63 0 0
1.4155 2.8613 0.5983 0.965 0.153 -0.213 22 22 24 0 0
1.4233 2.8223 0.5980 0.972 0.228 -0.051 23 23 25 0 0
1.4130 2.8126 0.6010 0.847 -0.158 -0.507 26 26 28 0 0
1.4117 2.7884 0.6024 0.795 -0.156 -0.586 27 27 29 0 0
1.3648 2.6561 0.6198 0.807 -0.589 -0.045 27 27 29 0 0
1.3496 2.6544 0.6237 0.189 -0.946 -0.263 26 26 28 0 0
1.3506 2.6276 0.6246 0.671 -0.725 0.154 26 26 28 0 0
1.2678 2.1961 0.6637 -0.519 -0.844 0.133 37 37 39 0 0
1.5110 3.0628 0.5808 0.460 -0.449 0.766 35 35 37 0 0
1.4172 2.8648 0.6125 0.824 -0.008 -0.566 21 21 23 0 0
1.4160 2.8404 0.6138 0.809 -0.058 -0.585 22 22 24 0 0
1.4164 2.8132 0.6148 0.776 -0.103 -0.622 25 25 27 0 0
1.4174 2.7854 0.6157 0.830 -0.040 -0.556 26 26 28 0 0
1.4193 2.7044 0.6186 0.889 -0.353 0.290 28 28 30 0 0
1.4262 2.8037 0.6274 0.830 -0.040 -0.556 24 24 26 0 0
1.3674 2.6638 0.6478 0.749 0.075 -0.658 23 23 25 0 0
1.5242 3.2810 0.5989 -0.641 -0.742 0.195 20 20 22 0 0
1.4367 3.0074 0.6316 -0.633 -0.723 -0.276 25 25 27 0 0
1.4327 2.7995 0.6406 0.794 -0.015 -0.607 22 22 24 0 0
1.4326 2.7733 0.6417 0.852 -0.052 -0.521 26 26 28 0 0
1.3797 2.6506 0.6598 0.723 0.084 -0.686 21 21 23 0 0
1.3158 2.5233 0.6808 0.752 -0.634 -0.179 27 27 29 0 0
1.6087 3.5242 0.5837 0.973 -0.189 -0.131 31 32 37 0 0
1.5381 3.2637 0.6113 -0.710 -0.703 -0.036 20 20 22 0 0
1.4895 3.1194 0.6290 0.459 -0.632 0.625 29 29 31 0 0
1.4742 2.9790 0.6381 -0.376 -0.835 -0.403 29 29 31 0 0
1.3146 2.4572 0.6980 0.457 -0.125 -0.880 23 23 25 0 0
1.3139 2.4339 0.6990 -0.205 -0.401 -0.893 23 23 25 0 0
1.2396 2.4470 0.7174 0.953 -0.294 -0.073 30 30 32 0 0
1.2392 2.4235 0.7184 0.975 -0.223 0.002 30 30 32 0 0
1.6104 3.5285 0.5986 0.983 -0.179 0.045 33 34 38 0 0
1.5475 3.2543 0.6244 -0.715 -0.699 -0.010 20 20 22 0 0
1.4425 3.0107 0.6599 -0.508 -0.694 -0.510 28 28 30 0 0
1.4147 3.0294 0.6663 -0.540 -0.685 -0.489 25 25 27 0 0
1.4304 2.7630 0.6719 0.988 0.058 0.140 19 19 21 0 0
1.1960 2.2547 0.7498 0.904 -0.301 -0.304 31 31 33 0 0
1.1535 2.1537 0.7642 0.230 -0.972 -0.054 27 27 29 0 0
1.6254 3.5084 0.6110 0.986 0.020 -0.166 33 35 39 0 0
1.3344 2.3902 0.7239 -0.315 -0.600 -0.735 23 23 25 0 0
1.2445 2.4266 0.7456 0.898 -0.164 -0.408 25 25 27 0 0
1.2226 2.3867 0.7526 0.122 -0.720 0.683 30 30 32 0 0
1.6267 3.5136 0.6260 0.992 0.114 -0.059 32 36 38 0 0
1.4776 2.9655 0.6823 0.197 -0.618 -0.761 31 31 33 0 0
1.6396 3.5589 0.6367 0.878 0.031 -0.478 45 43 50 0 0
1.5025 3.5948 0.6709 -0.333 -0.869 0.366 22 22 24 0 0
1.4792 3.0797 0.6932 0.962 0.086 0.260 36 36 38 0 0
1.2696 2.3528 0.7702 0.604 0.002 -0.797 25 25 27 0 0
1.2543 2.2571 0.7771 0.272 -0.865 0.422 24 24 26 0 0
1.4778 3.0887 0.7084 0.992 0.051 -0.112 34 34 36 0 0
0.9697 1.9118 0.8752 -0.290 -0.935 -0.203 70 70 69 0 0
0.9493 1.9167 0.8804 -0.102 -0.968 -0.231 77 77 75 0 0
1.6180 3.5833 0.6728 0.564 -0.574 -0.594 43 42 46 0 0
1.4820 3.0883 0.7224 0.851 0.067 -0.521 31 31 33 0 0
1.4927 2.9324 0.7241 0.397 -0.902 -0.170 35 35 37 0 0
1.4361 2.8373 0.7415 0.504 -0.156 -0.849 23 23 25 0 0
1.4321 2.8174 0.7431 0.503 -0.117 -0.856 23 23 25 0 0
0.9714 1.8716 0.8899 0.152 -0.784 -0.601 76 75 76 0 0
1.4775 2.8561 0.7450 0.949 -0.077 -0.305 27 27 29 0 0
1.4746 2.8342 0.7463 0.997 0.007 -0.075 25 25 27 0 0
1.4530 2.8428 0.7517 0.750 -0.245 -0.615 24 24 26 0 0
1.4483 2.8239 0.7535 0.658 -0.193 -0.728 25 25 27 0 0
0.9913 1.8508 0.8991 0.947 -0.283 -0.150 72 70 71 0 0
0.9747 1.8507 0.9034 0.330 -0.608 -0.722 77 75 77 0 0
1.4793 2.8328 0.7599 0.985 -0.020 -0.172 29 29 31 0 0
1.4591 2.8391 0.7650 0.750 -0.364 -0.552 27 27 29 0 0
1.4595 2.8119 0.7656 0.552 -0.287 -0.783 26 26 28 0 0
1.4230 2.7393 0.7770 -0.187 -0.462 -0.867 18 18 20 0 0
0.9505 1.8439 0.9238 0.071 -0.326 -0.943 76 74 78 0 0
1.4629 2.8392 0.7788 0.888 -0.345 -0.304 31 31 33 0 0
1.4680 2.8043 0.7783 0.574 -0.373 -0.729 29 29 31 0 0
1.4369 2.7492 0.7878 0.717 -0.376 -0.587 21 21 23 0 0
1.4297 2.7347 0.7901 0.670 -0.498 -0.551 19 19 21 0 0
1.4187 2.7262 0.7931 0.679 -0.674 -0.291 17 17 19 0 0
1.4799 2.7912 0.7902 0.791 -0.211 -0.574 32 32 34 0 0
1.4326 2.7362 0.8039 0.833 -0.502 -0.234 23 23 25 0 0
1.4235 2.7246 0.8066 0.705 -0.670 -0.231 20 20 22 0 0
1.4229 2.6997 0.8073 0.749 -0.598 0.285 19 19 21 0 0
1.4077 2.6209 0.8131 0.536 -0.180 -0.825 18 18 20 0 0
1.4592 2.8047 0.8101 0.309 -0.344 -0.887 34 34 36 0 0
1.4276 2.7503 0.8196 0.805 -0.394 -0.443 29 29 31 0 0
1.4194 2.7373 0.8221 0.470 -0.780 -0.414 24 24 26 0 0
1.4099 2.7263 0.8248 0.580 -0.815 -0.018 22 22 24 0 0
0.9206 1.9596 0.9708 -0.025 0.116 -0.993 31 31 33 0 0
1.4401 2.7626 0.8308 0.396 -0.531 -0.749 32 32 34 0 0
1.4308 2.7512 0.8334 0.753 -0.540 -0.376 31 31 33 0 0
1.4245 2.7353 0.8355 0.777 -0.625 0.076 30 30 32 0 0
1.4116 2.7296 0.8390 0.656 -0.723 0.217 27 27 29 0 0
1.4859 2.9893 0.8290 0.779 -0.066 0.623 33 32 37 0 0
1.4328 2.7280 0.8481 0.375 -0.923 -0.089 33 33 35 0 0
1.4428 2.6603 0.8467 -0.287 -0.855 -0.431 30 30 32 0 0
1.0901 1.9212 0.9546 -0.201 -0.669 0.716 22 23 27 0 0
1.4812 3.0314 0.8445 0.657 -0.140 0.741 33 32 37 0 0
1.4831 2.8915 0.8465 0.691 -0.710 -0.135 43 42 47 0 0
1.4665 2.7586 0.8532 0.865 -0.012 0.501 45 44 49 0 0
1.4447 2.7151 0.8598 0.978 -0.159 0.134 37 37 39 0 0
1.4518 2.6780 0.8586 0.565 -0.329 -0.757 38 38 40 0 0
1.4554 2.6464 0.8581 -0.224 -0.868 -0.444 35 35 38 0 0
1.2829 2.3158 0.9100 0.966 0.243 0.082 22 22 24 0 0
1.2794 2.2972 0.9113 0.324 -0.246 0.914 22 22 24 0 0
1.0787 1.9409 0.9711 -0.285 -0.724 0.628 21 22 26 0 0
1.4467 2.7969 0.8726 0.823 -0.514 0.239 47 46 51 0 0
1.4550 2.7570 0.8710 0.752 -0.194 0.630 46 45 50 0 0
1.4483 2.7417 0.8731 0.784 -0.155 0.601 43 43 45 0 0
1.4312 2.6649 0.8789 0.211 -0.961 0.180 36 35 41 0 0
1.4181 2.6599 0.8825 0.329 -0.245 -0.912 35 34 40 0 0
1.4789 2.8572 0.8779 0.909 -0.417 0.026 40 39 44 0 0
1.4615 2.8321 0.8829 0.735 -0.676 -0.045 47 46 51 0 0
1.4514 2.8219 0.8858 0.673 -0.736 0.075 47 46 51 0 0
1.4262 2.7570 0.8935 0.284 -0.614 0.736 44 44 46 0 0
1.3670 2.3945 0.9148 -0.288 -0.872 0.396 29 30 32 0 0
1.3799 2.3270 0.9123 0.940 -0.243 -0.238 27 27 30 0 0
1.3682 2.3204 0.9155 0.892 -0.387 0.232 26 27 30 0 0
0.9615 1.6991 1.0341 0.733 -0.455 0.505 38 38 42 0 0
1.4782 3.1406 0.8892 -0.232 -0.731 0.641 22 22 24 0 0
1.4732 2.8998 0.8937 -0.015 -0.973 -0.231 36 35 40 0 0
1.4152 2.7545 0.9113 0.637 -0.660 0.398 48 47 52 0 0
1.4311 2.7031 0.9077 0.788 -0.522 -0.327 48 47 52 0 0
1.3833 2.3274 0.9256 0.750 -0.373 -0.546 34 33 38 0 0
1.3693 2.3243 0.9294 0.453 -0.662 -0.597 34 33 38 0 0
1.3264 2.3398 0.9408 -0.072 -0.994 -0.085 32 32 36 0 0
1.3006 2.3539 0.9475 0.129 -0.758 0.640 31 32 34 0 0
1.0772 1.9354 1.0134 0.084 -0.409 0.909 18 19 23 0 0
1.6593 3.9548 0.8457 0.892 0.192 -0.410 170 169 167 0 0
1.6782 3.8516 0.8418 0.883 0.170 -0.437 147 146 144 0 0
1.4748 2.8498 0.9088 0.667 -0.682 -0.300 33 32 37 0 0
1.4256 2.7702 0.9231 0.841 -0.407 0.356 49 48 53 0 0
1.4104 2.7420 0.9275 0.848 -0.366 0.383 49 48 53 0 0
1.4165 2.7063 0.9263 0.310 -0.558 -0.770 49 48 53 0 0
1.3978 2.7100 0.9313 0.986 -0.166 0.027 49 48 53 0 0
1.3682 2.6534 0.9400 0.991 -0.074 -0.114 48 47 53 0 0
1.3905 2.5680 0.9350 0.998 0.068 -0.002 47 47 51 0 0
1.3611 2.3419 0.9456 0.045 -0.266 -0.963 40 39 44 0 0
1.2972 2.3644 0.9627 0.058 -0.878 0.476 39 39 41 0 0
1.4274 2.8530 0.9365 0.859 -0.484 -0.168 39 38 43 0 0
1.3926 2.6983 0.9476 0.386 -0.906 0.173 49 48 53 0 0
1.3494 2.6374 0.9600 0.915 -0.196 0.353 49 48 53 0 0
1.3170 2.3646 0.9716 -0.227 -0.582 -0.780 44 43 47 0 0
1.2850 2.3878 0.9801 0.996 0.069 0.048 44 42 45 0 0
1.2536 2.1050 0.9916 0.900 -0.203 -0.386 24 25 27 0 0
1.2671 2.0409 0.9886 0.695 -0.696 0.181 22 23 28 0 0
0.9721 1.7195 1.0722 0.733 -0.632 -0.250 27 27 29 0 0
1.6895 3.5886 0.8733 0.592 -0.442 -0.674 45 43 47 0 0
1.3900 2.6568 0.9634 0.849 0.113 0.517 50 49 55 0 0
1.2609 2.3804 1.0011 0.884 -0.114 0.453 44 42 47 0 0
1.2562 2.3633 1.0026 0.880 -0.287 0.378 43 42 46 0 0
1.2458 2.3307 1.0057 0.948 -0.202 0.248 44 43 47 0 0
1.2530 2.2260 1.0047 0.945 0.036 -0.326 41 40 45 0 0
1.2540 2.2014 1.0046 0.945 0.036 -0.326 40 39 43 0 0
1.2560 2.1755 1.0043 0.926 0.081 -0.369 37 37 41 0 0
1.2568 2.1512 1.0043 0.989 0.117 -0.087 35 35 39 0 0
1.2599 2.1240 1.0037 0.976 -0.045 -0.213 31 31 35 0 0
1.2840 2.0673 0.9976 0.948 -0.279 0.152 28 28 30 0 0
1.2770 2.0545 0.9997 0.708 -0.569 0.419 26 26 28 0 0
1.1526 2.0916 1.0333 0.710 -0.119 -0.694 16 17 21 0 0
0.9976 1.7333 1.0788 0.457 -0.887 0.068 15 16 18 0 0
1.6962 3.5838 0.8872 0.828 -0.561 0.018 46 45 49 0 0
1.2764 2.5093 1.0103 0.819 -0.531 -0.217 48 47 51 0 0
1.2416 2.2711 1.0217 0.806 0.064 0.589 45 44 49 0 0
1.2457 2.1952 1.0211 0.941 0.198 0.276 42 41 46 0 0
1.2529 2.1389 1.0196 0.967 0.080 0.241 38 37 42 0 0
1.2177 2.0971 1.0295 0.236 -0.931 -0.280 28 28 32 0 0
1.0512 1.7531 1.0777 0.342 -0.931 0.130 16 15 20 0 0
1.0243 1.7456 1.0852 0.366 -0.927 0.085 35 35 37 0 0
0.9998 1.7350 1.0920 0.450 -0.889 -0.085 21 21 23 0 0
0.9886 1.7283 1.0951 0.576 -0.809 -0.116 24 24 26 0 0
0.9659 1.7154 1.1014 0.551 -0.835 0.011 22 20 24 0 0
1.6730 3.9613 0.9070 0.986 0.100 0.135 169 168 166 0 0
1.3567 2.6439 1.0020 0.790 -0.480 0.382 46 46 48 0 0
1.2994 2.5300 1.0185 0.964 -0.082 0.251 42 42 43 0 0
1.2856 2.5011 1.0225 0.728 -0.249 0.638 44 43 47 0 0
1.2730 2.4953 1.0260 0.954 0.151 0.258 45 44 49 0 0
1.2777 2.4638 1.0249 0.963 0.106 0.249 45 44 49 0 0
1.2840 2.4300 1.0233 0.933 -0.081 0.352 44 43 48 0 0
1.2541 2.4499 1.0315 0.824 -0.123 0.553 46 45 50 0 0
1.2445 2.3912 1.0344 0.943 -0.314 -0.112 46 45 50 0 0
1.2460 2.3650 1.0342 0.874 -0.456 -0.167 46 45 50 0 0
1.2390 2.3512 1.0362 0.852 -0.502 -0.145 47 46 51 0 0
1.2375 2.3296 1.0368 0.701 -0.613 0.364 47 46 51 0 0
1.2295 2.3174 1.0390 0.685 -0.472 0.555 45 44 49 0 0
1.2225 2.2801 1.0412 0.725 -0.334 0.602 46 45 50 0 0
1.0153 1.7407 1.1015 0.528 -0.833 -0.166 32 31 33 0 0
0.9424 1.7077 1.1217 0.184 -0.975 -0.128 28 26 32 0 0
0.9377 1.6930 1.1231 0.672 -0.734 0.093 15 13 17 0 0
1.6948 3.8605 0.9178 0.966 0.242 -0.096 161 160 158 0 0
1.6945 3.6026 0.9190 0.906 -0.423 0.024 40 39 43 0 0
1.5755 3.1281 0.9541 0.011 -0.155 -0.988 24 24 26 0 0
1.3161 2.6360 1.0280 0.628 -0.549 -0.552 31 30 35 0 0
1.2905 2.4994 1.0357 0.252 -0.859 0.446 27 26 30 0 0
1.2755 2.4725 1.0400 0.952 -0.265 -0.153 29 28 33 0 0
1.2655 2.4629 1.0428 0.692 -0.665 0.280 31 30 34 0 0
1.2491 2.3659 1.0478 0.895 -0.446 0.012 38 37 42 0 0
1.2415 2.3530 1.0499 0.867 -0.474 0.155 42 42 46 0 0
1.2362 2.3369 1.0515 0.701 -0.613 0.364 45 45 49 0 0
1.2144 2.0666 1.0588 0.901 -0.082 0.425 31 32 34 0 0
1.0166 1.7435 1.1149 0.456 -0.832 -0.315 61 59 62 0 0
1.6983 3.6033 0.9338 0.870 -0.347 -0.350 38 38 40 0 0
1.2921 2.5774 1.0496 0.984 -0.112 -0.139 16 16 18 0 0
1.2209 2.2931 1.0702 0.867 -0.200 -0.457 38 39 41 0 0
1.2256 2.2629 1.0691 0.894 -0.331 -0.301 44 44 46 0 0
1.2196 2.2480 1.0708 0.942 -0.216 -0.257 46 46 48 0 0
1.0396 1.7604 1.1222 0.557 -0.826 -0.092 14 12 15 0 0
1.0208 1.7426 1.1275 0.485 -0.807 -0.337 52 50 53 0 0
0.9313 1.7096 1.1524 0.059 -0.995 -0.075 27 27 28 0 0
0.8736 1.7394 1.1682 -0.108 -0.739 -0.665 21 21 23 0 0
1.6769 3.9454 0.9548 0.904 0.203 -0.377 168 167 165 0 0
1.5577 3.0309 0.9897 -0.560 -0.723 -0.404 28 28 30 0 0
1.4970 3.1063 1.0064 -0.556 -0.791 -0.257 26 26 28 0 0
1.3483 2.7005 1.0485 0.629 -0.550 0.550 25 25 27 0 0
1.0260 1.7405 1.1398 0.485 -0.807 -0.337 23 21 24 0 0
0.9354 1.7089 1.1651 0.059 -0.995 -0.075 35 35 37 0 0
1.7032 3.6097 0.9640 0.926 -0.373 -0.058 40 40 42 0 0
1.3458 2.6846 1.0640 0.200 -0.969 0.147 29 28 33 0 0
1.2946 2.6356 1.0783 0.930 -0.122 -0.348 21 19 24 0 0
1.1870 2.2813 1.1085 0.732 -0.316 0.604 21 21 23 0 0
1.1833 2.2632 1.1095 0.672 -0.235 0.703 26 26 28 0 0
0.9089 1.7253 1.1863 0.388 -0.876 -0.285 17 17 19 0 0
0.8928 1.7245 1.1907 0.028 -0.702 -0.711 19 19 21 0 0
1.3470 2.6887 1.0785 -0.115 -0.870 -0.479 20 20 23 0 0
1.2927 2.6699 1.0937 0.437 -0.899 0.007 34 33 36 0 0
1.2187 2.5549 1.1143 0.391 -0.130 0.911 16 15 18 0 0
1.1238 1.8775 1.1401 -0.259 -0.867 -0.427 22 22 24 0 0
1.3257 2.7799 1.0995 0.711 0.085 -0.698 18 18 20 0 0
1.3569 2.6792 1.0905 -0.192 -0.938 -0.289 17 17 19 0 0
1.0437 2.7188 1.1786 0.505 -0.844 0.177 20 18 21 0 0
1.0070 2.7219 1.1889 0.211 -0.349 0.913 24 22 25 0 0
1.1317 1.8718 1.1518 -0.350 -0.935 -0.064 23 23 25 0 0
1.5122 3.0792 1.0632 -0.666 -0.744 -0.053 26 26 28 0 0
1.3058 2.7129 1.1199 0.019 -0.637 0.771 17 17 19 0 0
1.1551 2.7118 1.1624 0.499 -0.037 0.866 27 25 28 0 0
1.0532 2.7360 1.1912 0.884 -0.395 -0.251 23 23 25 0 0
1.0459 2.7213 1.1932 0.561 -0.813 -0.159 21 19 22 0 0
1.1389 1.8671 1.1637 -0.240 -0.879 -0.412 26 26 28 0 0
1.1076 1.8868 1.1726 0.766 -0.466 -0.442 25 26 28 0 0
0.9108 1.7568 1.2275 -0.216 -0.944 0.248 26 26 32 0 0
1.3153 2.7043 1.1321 0.367 -0.930 -0.001 20 20 22 0 0
1.2964 2.6820 1.1373 0.324 -0.881 -0.344 13 13 15 0 0
1.2798 2.6563 1.1419 0.933 0.310 -0.184 11 10 12 0 0
1.1927 2.7121 1.1668 0.677 -0.383 -0.628 12 10 13 0 0
1.0470 2.7255 1.2081 0.762 -0.631 0.145 21 20 23 0 0
1.1477 1.8817 1.1752 0.645 -0.740 0.192 30 29 34 0 0
1.1390 1.8715 1.1776 0.159 -0.976 0.148 29 29 31 0 0
0.9720 1.8102 1.2245 0.268 -0.954 0.133 42 40 45 0 0
1.3216 3.1584 1.1483 -0.249 -0.953 -0.174 37 36 41 0 0
1.3034 3.1603 1.1535 -0.194 -0.980 -0.033 34 33 38 0 0
1.2832 3.1653 1.1592 -0.168 -0.958 -0.231 41 40 45 0 0
1.2587 3.1774 1.1663 0.119 -0.872 -0.474 41 40 44 0 0
1.2389 3.1814 1.1719 0.530 -0.795 -0.293 31 31 33 0 0
1.3001 2.6823 1.1512 0.412 -0.881 0.233 13 13 15 0 0
1.2844 2.6807 1.1556 0.979 0.200 0.022 11 11 13 0 0
1.1783 2.7141 1.1860 0.969 -0.171 -0.181 9 9 11 0 0
1.0478 2.7300 1.2231 0.762 -0.631 0.145 22 21 25 0 0
1.1033 2.3317 1.2047 0.838 0.101 0.536 94 94 93 0 0
1.1153 2.2913 1.2010 0.834 0.129 0.536 29 28 28 0 0
1.1532 1.8575 1.1873 0.633 -0.762 -0.132 35 34 39 0 0
0.9738 1.8125 1.2380 0.558 -0.810 0.179 45 44 49 0 0
0.9574 1.8120 1.2426 0.942 -0.210 -0.263 44 44 47 0 0
0.9507 1.7995 1.2444 0.892 -0.005 -0.453 43 45 47 0 0
1.6767 3.8052 1.0681 0.891 0.353 -0.285 56 56 58 0 0
1.2439 3.1800 1.1862 0.704 -0.632 -0.324 34 34 36 0 0
1.2700 3.0820 1.1779 0.945 0.304 -0.120 11 11 13 0 0
1.2619 3.0400 1.1799 0.919 0.020 -0.395 12 12 14 0 0
1.2781 2.6452 1.1721 0.906 0.002 0.423 9 9 11 0 0
1.2091 2.6735 1.1920 0.780 0.184 -0.599 9 9 11 0 0
1.0564 2.7741 1.2362 0.959 -0.044 -0.279 9 9 11 0 0
0.9770 1.8129 1.2510 0.581 -0.773 0.255 50 49 54 0 0
0.9672 1.8042 1.2537 0.949 -0.228 0.217 49 49 51 0 0
0.9485 1.8067 1.2591 0.973 0.041 -0.226 48 49 51 0 0
0.5916 1.9496 1.3619 -0.245 -0.517 0.820 169 169 167 0 0
1.7276 3.5866 1.0676 0.331 -0.879 -0.344 54 54 57 0 0
1.6315 2.9859 1.0893 0.079 -0.993 0.089 32 31 36 0 0
1.2781 3.1589 1.1919 -0.331 -0.833 -0.443 37 36 41 0 0
1.0823 2.7416 1.2438 0.739 -0.670 0.074 9 9 11 0 0
1.0737 2.7287 1.2461 0.821 -0.556 -0.127 11 11 13 0 0
1.0594 2.6992 1.2500 0.183 -0.935 -0.304 23 23 24 0 0
0.9982 2.7128 1.2676 -0.299 -0.738 -0.605 43 43 44 0 0
1.1350 2.0229 1.2219 0.091 -0.564 -0.821 46 45 50 0 0
1.6353 2.9862 1.1033 0.129 -0.992 0.009 32 31 36 0 0
1.2731 3.0350 1.2076 0.927 0.124 -0.354 12 12 14 0 0
1.2047 2.6409 1.2229 0.073 -0.988 -0.133 8 8 10 0 0
1.0768 2.7300 1.2605 0.821 -0.556 -0.127 10 10 12 0 0
1.0654 2.6960 1.2634 0.183 -0.935 -0.304 22 23 24 0 0
1.0546 2.6866 1.2664 0.071 -0.893 -0.445 25 26 26 0 0
0.9804 2.7190 1.2880 -0.432 -0.807 -0.403 50 49 50 0 0
1.1247 2.0194 1.2390 0.912 -0.109 -0.396 46 45 50 0 0
1.5592 2.9834 1.1401 0.682 -0.075 -0.727 27 28 30 0 0
1.0777 2.7344 1.2755 0.856 -0.483 -0.184 9 9 11 0 0
1.0604 2.6838 1.2799 0.160 -0.892 -0.423 29 30 32 0 0
0.9733 2.7098 1.3053 -0.502 -0.774 -0.387 51 52 54 0 0
1.0078 2.4634 1.2923 0.851 0.268 0.451 169 169 167 0 0
1.0769 2.2955 1.2703 0.864 0.298 0.406 107 107 105 0 0
1.1299 2.0172 1.2516 0.888 -0.105 -0.447 46 45 50 0 0
1.7402 3.6180 1.1118 0.950 -0.224 -0.217 44 42 46 0 0
1.7348 3.5649 1.1127 0.134 -0.986 0.101 61 59 62 0 0
1.5815 3.5075 1.1561 0.864 -0.369 -0.343 19 19 21 0 0
1.5806 3.4785 1.1560 0.828 -0.413 -0.379 18 18 20 0 0
1.5727 3.4623 1.1580 0.460 -0.618 -0.637 19 19 21 0 0
1.5620 3.4513 1.1610 0.234 -0.539 -0.809 20 20 22 0 0
1.0558 2.6711 1.2962 -0.114 -0.905 -0.409 33 33 35 0 0
0.9949 2.6842 1.3140 -0.270 -0.793 -0.546 49 50 52 0 0
0.9519 2.7211 1.3269 -0.577 -0.740 -0.346 62 62 64 0 0
1.1145 1.9984 1.2700 0.975 -0.028 -0.221 43 42 46 0 0
1.1193 1.9699 1.2682 0.291 -0.865 -0.409 31 31 33 0 0
0.8529 1.9025 1.3441 0.148 -0.313 0.938 76 74 77 0 0
1.7455 3.6158 1.1262 0.896 -0.110 -0.430 40 38 41 0 0
1.5868 3.4748 1.1700 0.668 -0.637 -0.385 18 18 20 0 0
1.5759 3.4640 1.1729 0.473 -0.779 -0.412 17 17 19 0 0
1.0857 2.6834 1.3029 0.233 -0.830 -0.507 14 15 17 0 0
1.0066 2.6730 1.3257 0.024 -0.741 -0.672 43 44 46 0 0
1.1240 1.9684 1.2809 0.791 -0.467 -0.394 37 37 39 0 0
1.0693 1.9313 1.2962 0.417 -0.905 0.079 44 43 48 0 0
1.5915 3.4737 1.1844 0.660 -0.733 -0.164 18 18 20 0 0
1.5691 3.4533 1.1906 0.507 -0.862 0.031 18 18 20 0 0
1.1304 1.9646 1.2931 0.762 -0.421 -0.492 47 47 49 0 0
1.0635 1.9219 1.3118 -0.053 -0.961 0.272 45 43 48 0 0
0.9713 2.6850 1.3667 -0.540 -0.666 -0.515 56 56 56 0 0
1.0891 2.1831 1.3232 0.894 0.216 0.394 21 19 22 0 0
0.9368 1.9174 1.3628 0.704 0.056 -0.708 57 57 59 0 0
1.7678 3.9941 1.1747 -0.004 -0.681 0.732 172 171 169 0 0
1.7572 3.6171 1.1704 0.964 0.256 -0.075 40 40 42 0 0
1.2130 2.6127 1.3099 0.839 -0.426 -0.337 10 10 12 0 0
1.0018 2.6468 1.3724 -0.444 -0.691 -0.570 51 51 52 0 0
1.7604 3.6191 1.1854 0.902 0.309 -0.300 44 43 46 0 0
1.1532 2.6319 1.3428 0.072 -0.642 -0.763 10 10 12 0 0
0.9453 1.9809 1.3901 0.767 -0.049 0.639 61 61 62 0 0
0.8928 2.0268 1.4065 0.989 -0.012 0.149 64 64 65 0 0
1.6230 2.8937 1.2255 0.180 -0.849 -0.497 29 30 32 0 0
1.0328 2.6132 1.3929 -0.194 -0.942 -0.275 36 35 36 0 0
0.9179 2.0431 1.4139 0.972 0.180 0.151 74 74 74 0 0
1.7886 3.9439 1.2167 -0.705 -0.688 0.172 172 171 169 0 0
1.6048 2.8760 1.2454 0.979 0.091 -0.180 26 27 29 0 0
1.1975 2.6278 1.3598 0.432 -0.784 -0.446 14 14 16 0 0
1.0153 2.6192 1.4134 -0.162 -0.962 -0.221 45 44 48 0 0
0.8564 2.6959 1.4622 0.934 0.303 0.191 172 172 170 0 0
1.0398 2.0432 1.3924 0.041 -0.781 0.623 55 55 57 0 0
0.8908 2.0831 1.4374 0.684 -0.729 0.002 106 106 103 0 0
1.0555 2.1170 1.4040 0.805 -0.080 0.587 19 19 20 0 0
0.9980 2.1037 1.4207 -0.091 -0.739 -0.668 48 49 51 0 0
0.9122 2.1048 1.4462 0.664 -0.210 -0.718 71 70 72 0 0
1.1935 2.6202 1.3909 0.811 -0.408 -0.419 13 13 15 0 0
1.0058 2.6192 1.4467 -0.202 -0.811 -0.550 49 49 53 0 0
0.9268 2.1129 1.4566 0.402 -0.684 -0.609 74 74 73 0 0
0.9122 2.1096 1.4609 0.627 -0.645 -0.436 81 81 80 0 0
0.8690 2.0987 1.4734 0.209 -0.535 0.818 138 138 137 0 0
1.2219 2.6087 1.3972 0.843 -0.028 -0.537 12 12 14 0 0
1.1991 2.6176 1.4042 0.811 -0.408 -0.419 12 12 14 0 0
0.8985 2.1549 1.4808 0.512 -0.632 0.582 95 95 93 0 0
0.8864 2.1482 1.4843 0.512 -0.632 0.582 115 115 113 0 0
0.8752 2.1403 1.4874 0.325 -0.566 0.757 139 139 137 0 0
0.8635 2.1331 1.4907 0.192 -0.675 0.712 164 164 162 0 0
1.7687 4.0189 1.2904 -0.208 -0.932 0.297 173 172 170 0 0
1.7901 3.6098 1.2718 0.985 0.166 -0.054 34 34 36 0 0
1.2268 2.5819 1.4099 0.860 -0.221 -0.460 13 13 15 0 0
1.0507 2.6406 1.4644 0.560 -0.775 0.292 43 43 46 0 0
0.8899 2.1712 1.4986 0.857 -0.515 -0.011 165 165 163 0 0
1.1228 2.9801 1.4686 -0.196 -0.727 -0.658 27 27 29 0 0
1.2328 2.5787 1.4230 0.744 -0.278 -0.608 20 20 22 0 0
1.0833 2.6490 1.4701 0.623 -0.782 -0.009 16 16 18 0 0
1.0708 2.6421 1.4737 0.501 -0.865 -0.002 24 23 27 0 0
1.8130 3.9808 1.3089 -0.545 -0.713 0.441 172 172 170 0 0
1.7849 3.6359 1.3061 0.858 0.265 -0.440 41 40 46 0 0
1.1130 3.0014 1.4879 -0.222 -0.949 -0.221 24 24 26 0 0
1.0789 2.6358 1.4862 0.290 -0.910 -0.296 19 19 21 0 0
1.0655 2.6303 1.4901 0.290 -0.910 -0.296 20 20 22 0 0
1.0439 2.6366 1.4968 0.588 -0.801 -0.114 26 26 28 0 0
0.7843 2.7807 1.5797 -0.733 -0.525 -0.432 141 142 139 0 0
1.8024 3.9767 1.3284 -0.638 -0.759 0.128 173 172 171 0 0
1.6004 2.8471 1.3510 0.703 -0.581 -0.410 28 29 31 0 0
1.2598 2.5497 1.4439 0.612 -0.766 -0.197 15 15 17 0 0
1.2479 2.5425 1.4472 0.197 -0.979 -0.051 14 14 16 0 0
1.0722 2.6262 1.5032 0.649 -0.701 -0.295 27 27 29 0 0
1.8056 3.9787 1.3440 -0.672 -0.741 0.019 173 172 171 0 0
1.5891 2.8452 1.3694 0.180 -0.806 -0.564 25 26 28 0 0
0.9990 2.5631 1.5384 -0.130 -0.956 0.264 38 37 42 0 0
1.6250 2.8736 1.3746 0.861 -0.316 -0.400 30 31 33 0 0
1.5967 2.8390 1.3819 0.299 -0.751 -0.589 30 31 33 0 0
1.8298 3.9470 1.3683 -0.727 -0.686 0.030 173 172 170 0 0
1.7229 3.8894 1.3987 0.793 0.253 -0.555 39 39 41 0 0
1.6303 2.8712 1.3880 0.861 -0.316 -0.400 25 26 28 0 0
1.5762 2.8524 1.4037 -0.470 -0.756 -0.456 26 27 29 0 0
1.5211 2.9172 1.4231 -0.220 -0.523 -0.824 20 21 23 0 0
1.2521 2.9987 1.5083 0.845 0.150 -0.514 11 12 14 0 0
1.2896 2.5472 1.4795 0.590 -0.800 0.111 17 17 19 0 0
1.8154 3.9851 1.3907 0.992 0.115 -0.053 173 173 171 0 0
1.8151 3.8491 1.3854 0.942 -0.330 0.053 69 70 75 0 0
1.8175 3.6129 1.3752 0.995 0.001 0.097 33 33 37 0 0
1.8214 3.5411 1.3712 0.928 -0.105 0.357 33 32 37 0 0
1.5799 3.5232 1.4444 -0.327 -0.760 -0.562 17 18 20 0 0
1.3562 3.0024 1.4922 0.017 -0.088 -0.996 21 22 24 0 0
1.2579 2.9959 1.5220 0.741 0.157 -0.653 12 13 15 0 0
1.8184 3.9877 1.4064 0.996 0.089 -0.024 174 173 171 0 0
1.7945 3.8315 1.4073 0.024 -0.992 0.127 52 50 56 0 0
1.8094 3.6045 1.3933 0.991 0.137 -0.007 35 34 39 0 0
1.8053 3.5803 1.3936 0.986 0.169 -0.004 35 34 39 0 0
1.8038 3.5510 1.3928 0.423 -0.826 0.373 41 40 45 0 0
1.6336 3.5568 1.4454 -0.545 -0.816 -0.194 29 30 32 0 0
1.6491 2.8523 1.4115 0.441 -0.897 0.039 30 31 33 0 0
1.6374 2.8446 1.4148 0.384 -0.923 0.008 28 29 31 0 0
1.6259 2.8367 1.4180 0.438 -0.891 -0.120 36 37 39 0 0
1.1379 2.5836 1.5575 0.842 -0.370 -0.393 11 11 14 0 0
1.1258 2.5764 1.5609 0.560 -0.701 -0.441 13 13 15 0 0
1.1086 2.5765 1.5662 0.583 -0.589 -0.560 20 20 22 0 0
1.0992 2.5652 1.5686 0.401 -0.802 -0.444 32 32 34 0 0
1.0341 2.5598 1.5884 0.282 -0.833 0.476 41 40 45 0 0
1.6429 3.5472 1.4582 -0.508 -0.782 -0.361 29 30 32 0 0
1.6641 2.8887 1.4235 0.832 -0.256 -0.493 32 32 34 0 0
1.6420 2.8435 1.4284 0.709 -0.587 -0.391 31 31 33 0 0
1.6352 2.8275 1.4298 0.736 -0.656 -0.167 30 30 32 0 0
1.6231 2.8206 1.4332 0.600 -0.790 -0.129 31 32 34 0 0
1.3160 2.5499 1.5163 0.121 -0.983 0.141 67 66 65 0 0
1.3027 2.5448 1.5202 -0.072 -0.914 0.398 71 70 70 0 0
1.1444 2.6048 1.5716 0.705 0.054 -0.707 14 14 16 0 0
1.1284 2.5782 1.5754 0.468 -0.203 -0.860 33 33 36 0 0
1.1196 2.5660 1.5776 0.396 -0.378 -0.837 39 39 41 0 0
1.0429 2.5776 1.6017 0.190 -0.774 -0.604 41 40 46 0 0
1.0185 2.5629 1.6086 0.174 -0.985 -0.010 36 35 41 0 0
0.9820 2.5655 1.6199 -0.242 -0.942 0.233 46 46 48 0 0
0.8226 2.7157 1.6755 -0.640 -0.740 0.208 102 102 102 0 0
0.7571 2.7824 1.6986 -0.702 -0.700 0.130 155 155 155 0 0
1.7993 3.8388 1.4388 0.090 -0.974 0.207 65 62 68 0 0
1.8193 3.6012 1.4221 0.930 0.148 -0.337 41 42 45 0 0
1.7076 3.4968 1.4520 -0.524 -0.835 -0.169 29 30 32 0 0
1.6476 3.5463 1.4728 -0.632 -0.773 -0.061 27 28 30 0 0
1.6612 2.8725 1.4388 0.340 -0.731 -0.592 32 32 34 0 0
1.6655 2.8376 1.4359 0.350 -0.936 -0.039 33 33 35 0 0
1.6516 2.8338 1.4400 0.481 -0.874 -0.066 32 32 34 0 0
1.3431 2.9332 1.5398 -0.395 -0.330 -0.857 15 19 20 0 0
1.0372 2.5665 1.6182 -0.063 -0.872 -0.485 41 40 45 0 0
0.9859 2.5655 1.6340 -0.218 -0.961 -0.171 55 55 57 0 0
0.7612 2.7823 1.7131 -0.733 -0.680 -0.005 161 161 161 0 0
1.8367 3.9422 1.4482 0.909 0.052 -0.413 171 170 168 0 0
1.8018 3.8424 1.4545 0.090 -0.974 0.207 62 60 64 0 0
1.8225 3.6033 1.4372 0.891 0.167 -0.423 55 56 59 0 0
1.7176 3.4858 1.4643 -0.581 -0.779 -0.236 29 30 32 0 0
1.5455 3.4312 1.5152 -0.244 -0.913 -0.327 36 36 40 0 0
1.6720 2.9445 1.4538 0.867 0.213 -0.451 23 23 25 0 0
1.6790 2.8487 1.4472 0.418 -0.782 -0.463 27 27 29 0 0
0.9942 2.5592 1.6465 -0.150 -0.802 -0.578 59 59 61 0 0
1.8479 3.9281 1.4606 0.812 -0.112 -0.573 170 169 167 0 0
1.8192 3.6177 1.4549 0.927 0.210 -0.310 54 54 58 0 0
1.6926 2.9437 1.4625 0.389 -0.005 -0.921 24 24 26 0 0
1.0444 2.5426 1.6454 -0.326 -0.894 -0.308 59 57 62 0 0
1.8271 3.8423 1.4793 0.618 -0.673 -0.406 62 63 67 0 0
1.8402 3.5204 1.4596 0.981 0.131 -0.141 38 39 43 0 0
1.5637 3.4133 1.5407 0.617 -0.318 -0.720 30 31 33 0 0
1.4285 2.5784 1.5424 -0.080 -0.935 0.344 93 90 94 0 0
1.8621 3.9858 1.4919 -0.358 -0.870 -0.339 174 174 174 0 0
1.8314 3.8762 1.4960 0.409 -0.900 -0.152 69 70 74 0 0
1.8187 3.8340 1.4979 -0.003 -0.955 0.297 49 48 55 0 0
1.8377 3.5334 1.4769 0.961 0.196 -0.198 36 36 40 0 0
1.7268 2.8697 1.4784 0.432 -0.483 -0.762 25 25 27 0 0
1.4606 2.5855 1.5476 0.112 -0.825 0.554 55 54 57 0 0
1.4434 2.5869 1.5531 0.112 -0.825 0.554 38 37 41 0 0
1.4334 2.5768 1.5557 -0.012 -0.975 -0.222 30 29 34 0 0
1.4210 2.5705 1.5593 -0.021 -0.727 -0.686 20 19 24 0 0
1.3863 2.5476 1.5690 0.006 -0.380 -0.925 16 16 18 0 0
1.3692 2.5485 1.5744 -0.071 -0.314 -0.947 15 15 17 0 0
1.2485 2.5543 1.6125 -0.352 -0.740 -0.573 36 36 39 0 0
1.0181 2.5666 1.6853 -0.019 -0.966 0.258 40 39 44 0 0
1.8401 3.8332 1.5075 0.722 -0.685 0.095 57 59 60 0 0
1.8222 3.6364 1.5030 0.965 0.258 -0.038 37 36 41 0 0
1.8402 3.5365 1.4922 0.961 0.196 -0.198 37 38 42 0 0
1.7394 2.8546 1.4888 0.234 -0.589 -0.774 29 29 31 0 0
1.3997 2.5329 1.5789 0.093 -0.308 -0.947 13 13 15 0 0
1.3895 2.5232 1.5816 -0.024 -0.280 -0.960 14 14 16 0 0
1.3013 2.5312 1.6098 -0.216 -0.940 -0.266 41 39 44 0 0
1.2558 2.5493 1.6250 -0.350 -0.934 0.074 51 50 55 0 0
1.0769 2.5621 1.6818 0.042 -0.884 0.465 34 35 39 0 0
1.0553 2.5684 1.6890 0.013 -0.841 0.541 36 37 42 0 0
1.0350 2.5728 1.6956 0.058 -0.842 0.536 39 39 44 0 0
1.7426 2.9118 1.5058 0.417 0.098 -0.904 35 34 39 0 0
1.7576 2.8575 1.4982 0.288 -0.270 -0.919 36 35 40 0 0
1.7517 2.8398 1.4991 0.124 -0.475 -0.871 43 43 45 0 0
1.4848 2.6112 1.5711 0.551 -0.722 -0.419 16 15 20 0 0
1.8468 3.8369 1.5383 0.709 -0.693 0.125 75 76 78 0 0
1.7569 2.9219 1.5169 0.463 0.223 -0.858 37 36 39 0 0
1.7656 2.8783 1.5118 0.404 0.117 -0.907 39 38 41 0 0
1.4914 2.6067 1.5837 0.619 -0.422 -0.663 14 13 19 0 0
0.9328 2.6051 1.7603 -0.463 -0.816 -0.346 61 61 63 0 0
1.8652 3.9453 1.5549 0.979 0.114 -0.168 172 170 171 0 0
1.8696 3.9017 1.5510 0.979 0.114 -0.168 156 156 156 0 0
1.4523 2.4946 1.6048 0.775 -0.629 -0.061 46 45 50 0 0
0.8060 2.7140 1.8220 0.260 -0.937 -0.233 91 91 93 0 0
1.8513 3.8450 1.5700 0.811 -0.518 -0.270 74 74 76 0 0
1.5854 2.5463 1.5802 0.435 -0.556 -0.709 16 16 19 0 0
1.5364 2.4960 1.5929 -0.081 -0.997 0.017 37 36 40 0 0
1.4936 2.5378 1.6089 0.556 -0.498 -0.665 44 43 46 0 0
1.4869 2.5227 1.6102 0.845 -0.466 -0.262 46 46 46 0 0
1.4701 2.5235 1.6156 0.747 -0.531 -0.399 48 47 52 0 0
1.4620 2.5107 1.6174 0.747 -0.531 -0.399 47 46 53 0 0
1.4369 2.4988 1.6247 0.539 -0.674 -0.504 46 45 49 0 0
1.4282 2.4869 1.6268 0.160 -0.962 -0.219 45 44 48 0 0
0.7967 2.7075 1.8404 0.680 -0.717 -0.154 102 103 102 0 0
1.8690 3.9900 1.5893 0.865 -0.013 -0.501 175 174 174 0 0
1.8767 3.9392 1.5839 0.893 -0.018 -0.451 170 169 168 0 0
1.8750 3.9081 1.5826 0.911 -0.038 -0.411 135 136 134 0 0
1.8559 3.8443 1.5849 0.811 -0.518 -0.270 71 71 73 0 0
1.4996 2.5344 1.6217 0.579 -0.717 -0.388 48 48 51 0 0
1.4419 2.4969 1.6379 0.435 -0.886 0.160 41 41 43 0 0
1.4316 2.4877 1.6406 0.350 -0.881 0.318 39 39 41 0 0
1.0270 2.7393 1.7846 0.372 -0.443 0.816 44 44 47 0 0
0.8168 2.7101 1.8499 0.260 -0.937 -0.233 71 72 74 0 0
0.8002 2.7081 1.8551 0.720 -0.682 -0.132 91 93 92 0 0
1.8893 3.9568 1.5974 0.550 -0.790 -0.272 175 174 175 0 0
1.7844 2.7886 1.5606 0.703 -0.041 0.710 48 47 52 0 0
1.6532 2.6583 1.5948 0.286 -0.817 0.501 31 30 34 0 0
1.6321 2.6666 1.6020 0.154 -0.972 0.179 25 24 29 0 0
1.4542 2.5092 1.6495 0.350 -0.937 -0.002 33 33 36 0 0
0.9858 2.7796 1.8158 0.369 -0.481 0.795 51 51 51 0 0
0.8195 2.7119 1.8649 0.359 -0.877 -0.320 63 64 66 0 0
0.8037 2.7088 1.8698 0.647 -0.732 -0.215 82 84 83 0 0
1.8052 3.8619 1.6351 0.841 0.291 -0.456 46 46 48 0 0
1.6512 2.6679 1.6109 0.452 -0.778 0.436 23 23 26 0 0
1.5281 2.5270 1.6417 -0.066 -0.897 -0.436 35 34 40 0 0
1.4721 2.5126 1.6588 0.437 -0.889 0.136 29 29 30 0 0
1.4594 2.5070 1.6626 0.437 -0.889 0.136 38 38 40 0 0
0.9321 2.6091 1.8382 0.990 0.133 0.052 50 51 55 0 0
0.8261 2.7083 1.8784 0.336 -0.876 -0.345 60 61 63 0 0
0.8080 2.7084 1.8842 0.647 -0.732 -0.215 70 72 71 0 0
0.7921 2.7055 1.8891 0.969 -0.224 -0.101 90 92 89 0 0
1.8932 3.8626 1.6233 0.989 0.092 -0.119 83 84 84 0 0
1.8771 3.8270 1.6262 0.937 -0.334 -0.103 62 63 65 0 0
1.6330 2.5720 1.6256 0.309 -0.901 -0.305 48 47 52 0 0
1.4597 2.5124 1.6777 0.435 -0.876 -0.208 72 70 73 0 0
1.4477 2.5057 1.6811 0.435 -0.876 -0.208 75 73 76 0 0
0.9935 2.7801 1.8448 0.787 0.319 -0.528 52 52 51 0 0
0.8085 2.7133 1.9001 0.748 -0.611 -0.259 63 65 64 0 0
0.7948 2.7074 1.9042 0.989 -0.080 -0.127 79 81 78 0 0
1.8874 3.9178 1.6452 0.965 0.252 -0.075 135 136 135 0 0
1.6412 2.5648 1.6373 0.220 -0.967 -0.131 47 46 51 0 0
1.5068 2.5212 1.6779 0.265 -0.886 0.380 66 66 67 0 0
1.4896 2.5226 1.6835 0.267 -0.947 0.177 68 68 69 0 0
1.4774 2.5163 1.6871 0.438 -0.894 -0.095 68 68 69 0 0
1.4639 2.5118 1.6911 0.497 -0.830 -0.254 70 68 71 0 0
1.4510 2.5063 1.6949 0.347 -0.936 -0.059 62 60 63 0 0
0.8130 2.7127 1.9145 0.748 -0.611 -0.259 60 62 62 0 0
0.7957 2.7117 1.9200 0.968 -0.065 -0.243 70 72 70 0 0
0.7939 2.6890 1.9191 0.968 -0.065 -0.243 92 94 92 0 0
1.6953 2.5871 1.6360 0.224 -0.877 -0.425 49 48 53 0 0
1.6825 2.5819 1.6398 0.224 -0.877 -0.425 46 45 50 0 0
1.6700 2.5762 1.6435 0.332 -0.913 -0.238 44 43 48 0 0
1.6450 2.5646 1.6508 -0.066 -0.992 -0.111 40 39 44 0 0
1.6027 2.5552 1.6639 -0.075 -0.965 0.251 33 32 38 0 0
1.5830 2.5608 1.6706 -0.196 -0.980 0.040 33 32 38 0 0
1.5634 2.5664 1.6774 0.127 -0.986 -0.105 45 44 49 0 0
1.5152 2.5397 1.6912 0.355 -0.814 0.459 66 66 68 0 0
1.5047 2.5306 1.6940 0.457 -0.860 0.228 62 61 63 0 0
1.4925 2.5241 1.6975 0.537 -0.842 -0.043 60 60 62 0 0
1.4805 2.5173 1.7010 0.484 -0.874 -0.048 55 55 57 0 0
1.4685 2.5105 1.7044 0.484 -0.874 -0.048 44 42 45 0 0
0.8036 2.7062 1.9329 0.940 -0.181 -0.291 62 64 64 0 0
1.9005 3.6377 1.6550 0.982 0.086 -0.168 52 51 56 0 0
1.7556 2.7613 1.6429 0.462 -0.098 -0.881 30 30 34 0 0
1.7220 2.6019 1.6431 0.453 -0.829 -0.327 47 46 51 0 0
1.7141 2.5885 1.6447 0.435 -0.862 -0.262 45 44 49 0 0
1.7018 2.5825 1.6483 0.403 -0.909 -0.107 40 39 44 0 0
1.6744 2.5751 1.6567 0.402 -0.906 -0.132 39 38 43 0 0
1.6365 2.5585 1.6679 0.115 -0.987 0.110 43 42 46 0 0
1.6216 2.5567 1.6726 0.129 -0.934 0.332 52 51 56 0 0
1.6041 2.5590 1.6785 0.028 -0.970 0.240 59 58 63 0 0
1.5020 2.5408 1.7105 0.658 -0.732 0.177 48 47 52 0 0
1.4947 2.5266 1.7119 0.642 -0.764 -0.057 47 46 51 0 0
1.4872 2.5127 1.7134 0.613 -0.710 -0.347 37 37 42 0 0
0.8673 2.6980 1.9275 -0.228 -0.848 -0.478 53 54 59 0 0
0.8022 2.6886 1.9480 0.943 0.061 -0.327 72 74 73 0 0
1.8982 3.7508 1.6797 0.977 0.125 -0.173 65 65 69 0 0
1.9015 3.6439 1.6712 0.999 0.033 -0.027 49 48 53 0 0
1.7835 2.8305 1.6535 0.489 0.028 -0.872 29 29 31 0 0
1.7840 2.8019 1.6514 0.514 0.059 -0.856 31 30 33 0 0
1.7200 2.5850 1.6573 0.395 -0.908 0.140 37 36 40 0 0
1.6501 2.5686 1.6790 0.181 -0.889 0.420 66 66 68 0 0
1.6033 2.5664 1.6941 0.091 -0.942 0.323 63 63 65 0 0
0.8072 2.6872 1.9621 0.943 0.061 -0.327 63 65 64 0 0
0.8093 2.6593 1.9595 0.933 0.113 -0.341 82 84 83 0 0
1.8946 4.0439 1.7178 -0.350 -0.931 0.100 177 176 174 0 0
1.8059 2.8261 1.6610 0.690 0.123 -0.714 35 34 38 0 0
1.7987 2.8107 1.6622 0.704 0.127 -0.699 39 39 42 0 0
1.7347 2.5933 1.6678 0.396 -0.810 0.432 46 45 50 0 0
1.6589 2.5867 1.6922 -0.011 -0.791 0.611 61 61 63 0 0
0.9987 2.7760 1.9215 0.803 0.493 -0.334 42 40 43 0 0
0.8145 2.6576 1.9735 0.940 0.108 -0.323 71 73 72 0 0
1.8832 3.9710 1.7330 0.881 0.359 -0.308 159 159 157 0 0
0.8951 2.5811 1.9729 -0.399 -0.709 -0.581 56 56 58 0 0
1.8981 3.9579 1.7604 0.888 0.365 -0.281 153 153 153 0 0
0.9017 2.5774 1.9860 -0.472 -0.715 -0.516 50 50 55 0 0
0.9773 2.6511 1.9822 -0.748 -0.643 -0.168 37 35 41 0 0
1.9163 3.7656 1.7727 0.911 0.211 -0.354 74 73 74 0 0
1.9253 3.6798 1.7630 0.358 -0.164 -0.919 68 68 70 0 0
1.9241 3.2638 1.7310 0.532 0.280 -0.799 37 36 41 0 0
1.9448 3.1934 1.7187 0.538 0.262 -0.801 35 34 39 0 0
1.9338 3.7047 1.7784 0.664 -0.381 -0.643 70 70 70 0 0
1.0346 2.4564 1.9790 0.661 -0.749 -0.041 41 40 47 0 0
0.9612 2.5352 2.0096 0.217 -0.859 -0.464 42 41 47 0 0
1.0425 2.4506 1.9912 0.576 -0.816 0.044 40 39 47 0 0
1.0158 2.4638 2.0012 0.508 -0.861 -0.026 39 38 46 0 0
1.0000 2.4616 2.0063 -0.135 -0.988 -0.072 36 34 41 0 0
1.0447 2.4530 2.0059 0.576 -0.816 0.044 48 47 53 0 0
1.0344 2.4431 2.0086 -0.050 -0.992 0.114 50 49 54 0 0
1.9437 3.9870 1.8475 -0.160 -0.987 -0.003 179 179 179 0 0
1.4579 2.5077 1.9169 0.721 -0.510 0.469 16 14 17 0 0
1.3856 2.4666 1.9378 0.272 -0.952 0.137 53 52 57 0 0
1.1252 2.4283 2.0226 -0.238 -0.812 0.533 63 63 65 0 0
1.4352 2.4978 1.9387 0.771 -0.637 0.012 48 44 48 0 0
1.4329 2.4255 1.9332 0.370 -0.784 -0.499 55 53 58 0 0
1.0576 2.4566 2.0632 0.394 -0.889 -0.233 59 59 62 0 0
1.9630 4.0185 1.9106 0.708 -0.646 -0.285 182 182 182 0 0
1.4409 3.5659 2.0477 0.241 -0.965 0.106 29 29 33 0 0
1.4155 3.5799 2.0576 -0.156 -0.937 0.311 35 34 39 0 0
1.5151 2.4560 1.9229 0.184 -0.926 0.331 17 15 20 0 0
1.2226 2.4713 2.0238 0.822 0.271 0.501 54 53 58 0 0
1.9695 3.3402 1.8633 0.983 0.057 0.172 48 47 52 0 0
1.4472 3.5936 2.0647 0.287 -0.953 -0.097 24 25 27 0 0
1.4401 3.5749 2.0654 0.210 -0.919 0.333 31 30 35 0 0
1.4167 3.5854 2.0743 -0.097 -0.893 0.439 37 36 41 0 0
1.5006 2.4591 1.9430 0.358 -0.900 0.248 30 26 32 0 0
1.9853 3.6766 1.9048 0.487 0.146 -0.861 75 75 75 0 0
1.5188 2.4876 1.9543 -0.430 -0.871 -0.238 15 14 19 0 0
1.4509 2.4153 1.9709 0.432 -0.868 -0.246 43 42 47 0 0
1.9861 3.7176 1.9247 0.729 0.236 -0.643 80 81 80 0 0
1.4531 3.5670 2.0935 0.516 -0.635 0.575 33 33 37 0 0
1.4742 2.4610 1.9821 0.117 -0.982 0.147 51 51 55 0 0
1.4506 2.4216 1.9865 0.301 -0.953 -0.036 43 42 47 0 0
1.0644 2.5186 2.1282 -0.137 -0.845 -0.517 55 54 58 0 0
1.5081 2.4651 1.9858 0.299 -0.861 -0.411 54 53 58 0 0
1.4927 2.4637 1.9910 0.172 -0.983 -0.062 52 51 56 0 0
1.4473 2.4324 2.0036 0.225 -0.848 -0.480 48 47 52 0 0
1.3315 2.4573 2.0459 0.345 -0.393 -0.853 43 42 47 0 0
1.5703 3.5903 2.0886 0.109 -0.496 0.861 30 29 32 0 0
1.5658 3.5669 2.0878 -0.727 -0.683 0.072 24 24 26 0 0
1.5825 2.4305 1.9717 -0.221 -0.955 0.196 26 26 29 0 0
1.5110 2.4665 1.9999 0.201 -0.979 -0.032 52 51 56 0 0
1.4966 2.4634 2.0045 0.201 -0.979 -0.032 48 47 52 0 0
1.5604 2.4716 1.9982 -0.085 -0.983 -0.163 43 42 47 0 0
1.5448 2.4706 2.0036 -0.105 -0.993 -0.058 54 53 58 0 0
1.5005 2.4633 2.0182 0.172 -0.983 -0.062 41 40 45 0 0
1.4865 2.4597 2.0227 0.142 -0.984 -0.110 41 40 45 0 0
0.9264 2.5567 2.2262 -0.619 -0.731 -0.289 58 60 62 0 0
1.9845 3.7214 1.9910 0.964 0.051 -0.261 68 68 67 0 0
1.6283 2.4724 1.9897 0.013 -0.965 0.261 17 18 22 0 0
1.5426 2.4544 2.0177 0.064 -0.998 0.001 48 47 53 0 0
1.5082 2.4572 2.0299 0.280 -0.938 -0.204 46 45 50 0 0
0.9302 2.5570 2.2406 -0.631 -0.698 -0.338 54 54 58 0 0
1.5800 2.4524 2.0193 0.292 -0.930 -0.221 53 53 55 0 0
1.5625 2.4545 2.0257 0.336 -0.940 -0.063 48 47 52 0 0
1.5495 2.4494 2.0296 0.189 -0.962 -0.196 41 40 45 0 0
1.5231 2.4398 2.0379 0.376 -0.913 -0.157 41 40 45 0 0
0.9758 2.5232 2.2370 -0.299 -0.712 -0.635 46 45 50 0 0
1.6509 2.5261 2.0171 0.595 -0.796 0.107 17 17 19 0 0
1.5368 2.4499 2.0491 0.711 -0.697 0.090 34 35 39 0 0
1.5271 2.4396 2.0514 0.422 -0.895 -0.145 34 35 39 0 0
0.9819 2.5201 2.2502 -0.405 -0.814 -0.416 41 40 45 0 0
1.6626 2.5396 2.0293 0.685 -0.506 -0.524 21 21 24 0 0
1.5587 2.4469 2.0560 0.560 -0.758 -0.335 32 33 35 0 0
1.6627 2.5455 2.0449 0.555 -0.312 -0.771 38 37 42 0 0
2.0708 3.8983 2.0615 -0.385 -0.898 -0.212 204 204 202 0 0
1.7932 2.6280 2.0228 0.458 -0.609 -0.648 32 28 34 0 0
1.8141 2.6258 2.0301 0.972 -0.138 -0.190 42 39 46 0 0
1.8008 2.6215 2.0343 0.458 -0.609 -0.648 41 39 46 0 0
1.6382 2.4670 2.0750 0.460 -0.640 -0.616 31 34 35 0 0
1.6242 2.4636 2.0796 0.348 -0.812 -0.468 23 25 27 0 0
1.6164 2.4503 2.0809 0.441 -0.676 -0.591 27 27 30 0 0
2.0705 3.9174 2.0970 0.190 -0.694 -0.694 204 204 202 0 0
1.8326 2.6006 2.0357 0.624 -0.174 -0.762 47 46 51 0 0
1.8293 2.5792 2.0346 0.161 -0.353 -0.921 49 48 53 0 0
1.6585 2.4662 2.0826 0.523 -0.763 -0.380 25 27 29 0 0
1.6421 2.4668 2.0885 0.056 -0.996 0.074 20 21 23 0 0
1.6254 2.4420 2.0917 0.542 -0.822 -0.178 28 29 30 0 0
1.5867 2.4264 2.1036 0.329 -0.842 0.428 24 25 26 0 0
1.0069 2.4631 2.3132 0.235 -0.972 0.020 41 43 47 0 0
2.0771 3.9122 2.1107 0.149 -0.748 -0.647 205 205 203 0 0
1.8908 2.6983 2.0409 0.976 0.037 -0.217 47 48 52 0 0
1.8860 2.5964 2.0312 -0.223 -0.831 0.509 48 49 53 0 0
1.7061 2.4731 2.0814 0.636 -0.747 0.191 41 42 46 0 0
1.6931 2.4682 2.0854 0.427 -0.819 -0.384 33 34 38 0 0
1.6817 2.4608 2.0886 0.427 -0.819 -0.384 26 27 31 0 0
1.6640 2.4635 2.0952 0.247 -0.925 -0.288 22 22 29 0 0
2.0614 3.9556 2.1379 0.624 -0.473 -0.622 205 205 203 0 0
1.9070 2.7322 2.0540 0.952 -0.286 0.110 48 49 53 0 0
1.6693 2.4609 2.1079 0.247 -0.925 -0.288 36 36 42 0 0
1.6424 2.4525 2.1166 -0.074 -0.941 -0.329 28 29 33 0 0
1.9769 2.8990 2.0633 0.382 0.197 -0.903 38 38 41 0 0
1.9820 2.8604 2.0570 0.382 0.197 -0.903 42 42 45 0 0
1.9835 2.8287 2.0528 0.495 0.119 -0.861 45 45 48 0 0
1.9825 2.8017 2.0501 0.567 0.058 -0.821 46 46 49 0 0
1.9939 2.7522 2.0403 0.845 -0.401 -0.354 47 47 50 0 0
1.9905 2.7300 2.0390 0.851 -0.525 0.000 49 48 51 0 0
1.9400 2.7931 2.0643 0.752 -0.632 0.190 49 48 52 0 0
1.6939 2.4792 2.1162 0.651 -0.627 0.427 26 27 30 0 0
1.6772 2.4543 2.1193 0.218 -0.976 0.020 41 42 43 0 0
1.6647 2.4486 2.1231 0.162 -0.986 0.050 32 33 33 0 0
1.6513 2.4444 2.1274 0.244 -0.969 -0.041 30 32 31 0 0
2.0896 3.9131 2.1563 0.966 -0.233 -0.112 205 205 203 0 0
2.0788 3.7243 2.1381 0.896 -0.039 -0.443 81 81 85 0 0
1.9935 2.7886 2.0597 0.650 -0.433 -0.624 48 47 52 0 0
1.9888 2.7686 2.0591 0.772 -0.593 -0.230 48 47 52 0 0
1.9871 2.7431 2.0567 0.871 -0.489 -0.052 49 48 53 0 0
1.7120 2.4558 2.1219 0.710 -0.482 -0.514 27 28 30 0 0
1.7020 2.4460 2.1243 0.440 -0.888 -0.134 26 27 29 0 0
1.6853 2.4472 2.1304 0.227 -0.973 -0.044 41 43 43 0 0
1.6558 2.4431 2.1405 0.482 -0.792 0.375 30 32 32 0 0
2.0874 3.7500 2.1545 0.961 0.060 -0.272 102 102 101 0 0
2.0851 3.7200 2.1518 0.925 -0.052 -0.376 88 88 88 0 0
2.0852 3.6852 2.1476 0.954 0.003 -0.301 80 78 81 0 0
2.0108 2.8504 2.0758 0.092 -0.273 -0.958 46 45 50 0 0
2.0090 2.8248 2.0735 0.214 -0.412 -0.886 47 46 51 0 0
2.0031 2.8068 2.0735 0.565 -0.269 -0.780 48 47 52 0 0
1.6868 2.4509 2.1452 0.356 -0.871 -0.338 23 23 28 0 0
2.0782 3.9204 2.1946 0.823 -0.295 -0.486 205 205 203 0 0
2.0927 3.7129 2.1646 0.965 0.039 -0.258 92 92 90 0 0
2.0929 3.6777 2.1603 0.965 0.039 -0.258 86 84 84 0 0
2.0163 2.8184 2.0852 0.448 0.128 -0.885 49 48 53 0 0
2.0899 3.9044 2.2052 0.850 -0.424 -0.313 205 205 204 0 0
2.0966 3.7134 2.1796 0.965 0.039 -0.258 97 96 96 0 0
2.0969 3.6782 2.1752 0.965 0.039 -0.258 88 87 87 0 0
2.0947 3.9032 2.2199 0.850 -0.424 -0.313 205 205 204 0 0
2.0969 3.7566 2.2012 0.922 -0.075 -0.380 128 130 129 0 0
2.0931 3.7299 2.1993 0.892 -0.092 -0.443 98 99 98 0 0
2.0893 3.7031 2.1974 0.892 -0.092 -0.443 88 87 88 0 0
2.0789 2.7165 2.0803 0.221 -0.786 -0.577 48 47 52 0 0
1.0023 2.4396 2.4368 0.390 -0.902 0.187 49 50 55 0 0
2.1017 3.8973 2.2334 0.738 -0.488 -0.467 205 205 204 0 0
2.1031 3.7525 2.2149 0.904 0.007 -0.427 128 131 130 0 0
2.1017 3.7205 2.2114 0.904 0.007 -0.427 90 92 91 0 0
2.1003 3.6887 2.2080 0.904 0.007 -0.427 80 81 81 0 0
1.7238 2.4674 2.1934 0.125 -0.924 0.361 19 19 21 0 0
1.0040 2.4427 2.4521 0.707 -0.705 0.055 44 45 51 0 0
2.1044 3.7237 2.2273 0.847 -0.140 -0.513 86 89 88 0 0
2.0997 3.6990 2.2259 0.854 -0.102 -0.510 77 78 78 0 0
2.1182 3.7383 2.2405 0.825 0.061 -0.561 125 125 127 0 0
2.1169 3.7060 2.2369 0.822 0.046 -0.568 87 88 90 0 0
2.1160 3.6733 2.2330 0.847 0.083 -0.525 76 77 79 0 0
2.1245 3.7689 2.2586 0.821 0.207 -0.532 193 192 192 0 0
2.1248 3.6981 2.2493 0.707 -0.036 -0.707 87 88 90 0 0
1.0234 2.4074 2.4874 0.722 -0.661 -0.205 46 46 51 0 0
1.0442 2.4136 2.5117 0.426 -0.819 -0.384 44 44 51 0 0
2.1677 3.7212 2.3186 0.936 0.218 -0.277 203 201 202 0 0
1.7706 2.4724 2.3113 0.883 0.058 0.467 13 13 15 0 0
1.7814 2.4019 2.2975 0.593 -0.788 0.168 46 46 48 0 0
1.1190 2.4283 2.5482 -0.167 -0.608 -0.776 53 54 59 0 0
1.9625 3.7193 2.4280 -0.490 -0.218 -0.844 37 38 42 0 0
1.7659 2.4600 2.3263 0.865 -0.023 0.502 14 14 16 0 0
1.2643 2.3587 2.5304 -0.317 -0.691 -0.650 59 58 63 0 0
1.1150 2.4012 2.5926 -0.358 -0.639 0.681 74 76 79 0 0
1.2106 2.3930 2.5709 -0.340 -0.752 -0.565 66 66 70 0 0
1.1299 2.4101 2.6038 -0.207 -0.630 0.748 75 79 83 0 0
1.3014 2.3403 2.5444 -0.312 -0.865 -0.393 64 65 70 0 0
1.9800 3.2018 2.4288 0.225 0.215 -0.950 24 24 28 0 0
1.3295 2.3543 2.5511 0.489 -0.745 -0.454 62 63 68 0 0
1.3182 2.3461 2.5542 0.710 -0.634 -0.307 65 66 71 0 0
1.3091 2.3346 2.5559 0.465 -0.885 -0.017 67 68 72 0 0
1.2710 2.3411 2.5714 -0.206 -0.932 0.297 72 73 77 0 0
2.0491 3.2008 2.4183 -0.326 -0.458 -0.827 42 45 50 0 0
2.0450 3.1461 2.4118 -0.224 -0.154 -0.962 40 43 48 0 0
2.0256 3.0907 2.4109 -0.114 -0.005 -0.994 35 37 38 0 0
1.3858 2.3508 2.5445 -0.198 -0.919 0.341 62 61 66 0 0
1.3543 2.3480 2.5560 0.727 -0.631 0.271 64 65 70 0 0
1.3446 2.3375 2.5582 0.715 -0.492 0.496 66 67 74 0 0
1.3342 2.3281 2.5608 0.722 -0.478 0.500 70 70 76 0 0
1.6551 2.5010 2.4796 0.711 -0.248 -0.658 30 34 37 0 0
1.3906 2.3493 2.5577 0.394 -0.628 0.671 65 64 69 0 0
1.3758 2.3465 2.5629 0.457 -0.605 0.652 65 66 70 0 0
1.3454 2.3420 2.5738 0.613 -0.519 0.596 67 68 73 0 0
1.6712 2.4811 2.4856 0.727 -0.141 -0.672 41 42 46 0 0
1.6363 2.4329 2.4917 0.765 -0.424 -0.485 46 46 48 0 0
1.8369 2.4777 2.4368 -0.283 -0.958 0.048 43 43 48 0 0
1.6929 2.5311 2.5001 -0.253 -0.719 -0.647 44 44 47 0 0
0.8645 2.7524 2.8678 -0.601 -0.742 0.296 136 137 135 0 0
1.7158 2.4794 2.5137 0.401 0.059 -0.914 51 50 55 0 0
0.9298 2.6911 2.8496 -0.620 -0.755 0.213 107 109 108 0 0
0.8467 2.7836 2.8960 -0.577 -0.765 0.287 145 145 144 0 0
2.0691 2.7832 2.4401 0.434 -0.350 -0.830 44 43 48 0 0
2.0467 2.7666 2.4461 0.390 -0.219 -0.894 44 43 48 0 0
1.8966 2.5298 2.4669 0.139 -0.336 -0.931 49 50 52 0 0
1.7192 2.5067 2.5318 0.586 -0.294 -0.755 42 41 46 0 0
1.6584 2.3959 2.5379 0.070 -0.798 0.598 34 33 38 0 0
1.4658 2.4412 2.6194 -0.098 -0.781 0.617 48 48 50 0 0
1.3985 2.4421 2.6455 0.070 -0.797 0.600 45 44 49 0 0
1.2161 2.5115 2.7269 -0.145 -0.713 0.686 52 53 57 0 0
0.9331 2.6921 2.8647 -0.630 -0.765 0.134 115 117 116 0 0
2.0740 2.8106 2.4578 0.945 -0.303 0.125 46 44 49 0 0
2.0781 2.7735 2.4503 0.971 -0.218 0.097 45 43 47 0 0
2.0824 2.7364 2.4428 0.998 -0.059 -0.011 39 39 44 0 0
2.0607 2.7478 2.4530 0.699 -0.340 -0.629 39 40 44 0 0
2.0549 2.7297 2.4524 0.642 -0.469 -0.606 39 40 44 0 0
1.5631 2.4499 2.5984 0.650 -0.746 0.144 38 37 42 0 0
1.5032 2.4664 2.6243 0.752 -0.510 0.418 43 42 47 0 0
1.4913 2.4591 2.6277 0.521 -0.639 0.566 43 42 47 0 0
1.4399 2.4614 2.6480 0.059 -0.767 0.639 43 43 45 0 0
1.3712 2.4638 2.6750 0.307 -0.635 0.709 39 38 43 0 0
0.9328 2.6984 2.8821 -0.649 -0.757 0.080 108 108 108 0 0
0.8890 2.7351 2.9049 -0.630 -0.775 0.047 99 99 99 0 0
2.0882 2.8797 2.4787 0.843 -0.018 0.537 61 61 62 0 0
2.0594 2.7575 2.4703 0.453 -0.111 -0.885 60 60 61 0 0
2.0535 2.7394 2.4697 0.448 -0.379 -0.810 60 60 61 0 0
2.0464 2.7236 2.4699 0.138 -0.849 -0.509 59 59 60 0 0
2.0381 2.7101 2.4709 0.066 -0.845 -0.530 60 60 59 0 0
2.0291 2.6981 2.4725 0.198 -0.619 -0.760 55 55 54 0 0
2.0194 2.6872 2.4745 0.713 -0.532 -0.456 53 53 52 0 0
1.8094 2.4757 2.5222 0.104 -0.931 0.351 54 55 55 0 0
1.7163 2.4185 2.5492 0.858 -0.510 0.058 38 36 42 0 0
1.6702 2.4150 2.5665 0.225 -0.930 0.292 43 38 45 0 0
1.5610 2.4593 2.6160 -0.238 -0.948 -0.213 38 38 41 0 0
1.5354 2.4737 2.6283 0.138 -0.985 -0.100 37 37 40 0 0
1.4002 2.4768 2.6813 0.113 -0.907 0.406 33 33 35 0 0
1.1979 2.5245 2.7676 -0.419 -0.838 -0.349 64 64 67 0 0
0.8948 2.7326 2.9187 -0.678 -0.723 -0.132 89 89 90 0 0
2.0480 2.7568 2.4899 0.494 -0.735 0.465 66 64 67 0 0
2.0267 2.6810 2.4859 0.508 -0.540 -0.671 71 68 68 0 0
2.0131 2.6773 2.4906 0.965 -0.260 -0.015 71 69 69 0 0
1.8769 2.4749 2.5108 -0.355 -0.932 -0.071 76 76 78 0 0
1.8168 2.4965 2.5378 0.625 -0.504 0.596 68 69 69 0 0
1.6928 2.4366 2.5763 0.689 -0.572 0.445 37 34 38 0 0
1.6830 2.4265 2.5785 0.321 -0.831 0.454 36 34 37 0 0
1.2884 2.4726 2.7397 0.172 -0.978 0.115 59 60 64 0 0
0.9845 2.6616 2.8887 -0.549 -0.775 0.314 88 88 88 0 0
2.0498 2.8188 2.5145 0.956 0.050 0.290 43 40 44 0 0
2.0287 2.7705 2.5149 0.435 -0.637 0.637 47 44 49 0 0
1.6853 2.4289 2.5932 -0.024 -0.934 0.357 23 23 25 0 0
1.5564 2.4528 2.6474 0.158 -0.710 -0.687 22 22 24 0 0
1.3985 2.4656 2.7112 -0.279 -0.931 -0.236 40 39 42 0 0
1.3101 2.4715 2.7467 -0.087 -0.938 0.336 58 59 63 0 0
2.0474 2.7722 2.5232 0.998 -0.036 -0.057 41 39 42 0 0
1.9807 2.7215 2.5409 0.747 -0.213 0.629 38 39 41 0 0
1.8414 2.5486 2.5669 0.901 -0.317 0.297 28 26 30 0 0
1.8353 2.5319 2.5666 0.710 -0.704 0.020 25 23 27 0 0
1.8234 2.5250 2.5701 0.733 -0.680 0.004 20 19 25 0 0
1.8164 2.5099 2.5703 0.540 -0.824 -0.172 18 17 22 0 0
1.8025 2.5065 2.5752 0.219 -0.961 -0.169 17 16 20 0 0
1.7579 2.5008 2.5917 0.375 -0.860 -0.346 20 19 25 0 0
1.6801 2.4434 2.6127 0.046 -0.986 0.162 21 21 23 0 0
1.4550 2.4618 2.7039 -0.600 -0.757 -0.259 41 42 47 0 0
1.4359 2.4657 2.7120 -0.600 -0.749 -0.282 44 44 49 0 0
1.3767 2.4791 2.7374 0.336 -0.930 -0.148 52 52 54 0 0
1.3539 2.4880 2.7478 0.143 -0.920 -0.365 54 54 56 0 0
1.3227 2.4838 2.7593 -0.239 -0.965 0.110 59 60 64 0 0
1.2839 2.4909 2.7757 -0.145 -0.969 -0.200 66 65 70 0 0
1.0612 2.6138 2.8832 -0.373 -0.750 0.546 67 66 70 0 0
1.8074 2.5316 2.5926 0.706 -0.649 -0.282 15 14 19 0 0
1.7994 2.5181 2.5935 0.423 -0.903 0.082 15 14 19 0 0
1.7735 2.5078 2.6019 0.484 -0.832 0.270 16 15 21 0 0
1.7611 2.5018 2.6058 0.484 -0.832 0.270 16 15 21 0 0
1.6830 2.4449 2.6270 -0.042 -0.974 -0.222 21 21 23 0 0
1.5997 2.4743 2.6646 -0.402 -0.911 -0.093 30 30 32 0 0
1.5148 2.4784 2.6987 -0.152 -0.320 -0.935 40 40 44 0 0
1.3072 2.4874 2.7816 -0.228 -0.877 -0.422 64 64 69 0 0
1.2902 2.4874 2.7883 -0.145 -0.969 -0.200 68 67 72 0 0
1.2726 2.4881 2.7954 -0.074 -0.978 0.194 69 68 73 0 0
1.6310 2.4564 2.6646 -0.397 -0.847 -0.355 33 33 35 0 0
1.8041 2.6045 2.6367 0.785 -0.206 0.585 19 18 23 0 0
1.7301 2.4069 2.6324 -0.202 -0.978 0.055 38 37 41 0 0
1.6121 2.4406 2.6847 -0.246 -0.616 -0.748 46 47 49 0 0
1.7584 2.4720 2.6474 0.165 -0.922 0.350 40 39 43 0 0
1.3687 2.4634 2.8002 0.049 -0.973 0.225 43 44 49 0 0
2.1811 4.0273 2.7634 -0.387 -0.885 -0.258 208 208 208 0 0
2.1835 3.6939 2.7049 0.727 0.292 -0.621 70 69 72 0 0
2.1599 3.1082 2.6131 0.820 0.136 0.556 60 60 62 0 0
1.9275 2.6812 2.6317 0.769 -0.107 -0.630 40 39 43 0 0
1.9058 2.6633 2.6372 -0.602 -0.757 -0.254 39 38 43 0 0
1.8961 2.5968 2.6295 -0.123 -0.603 0.788 40 39 44 0 0
1.7747 2.4779 2.6572 0.146 -0.986 -0.077 45 45 48 0 0
1.7600 2.4755 2.6626 0.276 -0.961 0.005 45 44 49 0 0
1.3775 2.4559 2.8110 0.123 -0.957 0.261 38 39 44 0 0
1.9216 2.6702 2.6474 -0.544 -0.672 -0.502 44 43 48 0 0
1.8551 2.5643 2.6554 0.224 -0.296 -0.928 45 44 49 0 0
1.7767 2.4808 2.6721 0.262 -0.903 0.340 48 48 51 0 0
1.7633 2.4765 2.6767 0.276 -0.961 0.005 47 47 52 0 0
1.4592 2.4396 2.7912 0.638 -0.594 0.489 37 37 40 0 0
1.1612 2.6317 2.9432 0.057 -0.828 0.558 49 48 53 0 0
2.2114 3.9787 2.7771 -0.626 -0.779 0.030 207 206 208 0 0
1.7708 2.4971 2.6925 0.608 -0.477 0.635 49 48 54 0 0
1.7696 2.4723 2.6886 0.685 -0.433 0.586 48 48 53 0 0
2.2509 3.9367 2.7709 -0.696 -0.717 0.044 207 207 207 0 0
2.1246 3.0764 2.6689 0.174 0.166 -0.971 38 36 43 0 0
1.9975 2.6048 2.6361 0.855 -0.350 -0.382 47 46 51 0 0
1.9873 2.5951 2.6385 0.664 -0.705 0.252 46 45 50 0 0
1.9795 2.5811 2.6391 0.503 -0.779 0.375 46 45 50 0 0
1.9657 2.5778 2.6441 0.653 -0.753 0.080 47 46 51 0 0
1.9360 2.5471 2.6505 0.935 -0.051 -0.351 48 47 52 0 0
