ply
format ascii 1.0
element vertex 884
property float x
property float y
property float z
property float nx
property float ny
property float nz
property uchar diffuse_red
property uchar diffuse_green
property uchar diffuse_blue
property uchar class
property uchar detection
end_header
1.0676 2.6543 -0.0182 0.772 -0.627 -0.108 39 38 42 0 0
1.0581 2.6428 -0.0148 0.863 -0.504 -0.045 36 35 40 0 0
0.8459 2.5085 0.0428 0.273 -0.839 -0.471 32 33 35 0 0
0.8335 2.4977 0.0466 0.398 -0.502 -0.768 31 32 34 0 0
0.7825 2.4545 0.0620 0.581 -0.637 -0.506 30 31 36 0 0
0.7567 2.4483 0.0676 0.333 -0.913 -0.236 33 33 38 0 0
0.6958 2.4080 0.0843 0.924 0.383 0.001 145 144 143 0 0
1.4329 2.8699 -0.1009 0.618 -0.342 -0.708 40 40 44 0 0
1.2758 2.7248 -0.0518 0.341 -0.479 -0.809 56 56 57 0 0
1.2412 2.7088 -0.0431 0.253 -0.755 -0.605 52 52 54 0 0
0.9768 2.5389 0.0293 0.924 -0.266 -0.275 24 25 27 0 0
1.3118 3.3046 -0.1238 0.747 -0.527 -0.405 72 71 71 0 0
1.4321 2.9497 -0.0974 0.760 -0.007 -0.650 40 40 41 0 0
0.8084 2.4504 0.0877 0.500 -0.834 -0.234 21 22 25 0 0
0.6941 2.4140 0.1141 0.981 -0.044 0.190 119 118 116 0 0
1.3062 3.3107 -0.1088 0.600 -0.723 0.343 53 54 53 0 0
1.4397 2.9646 -0.0865 0.660 -0.133 -0.740 37 37 39 0 0
1.4403 2.9490 -0.0845 0.682 -0.715 -0.153 36 36 38 0 0
1.4410 2.8267 -0.0678 0.777 -0.484 -0.403 25 23 28 0 0
1.3005 2.7050 -0.0247 0.386 -0.222 -0.895 58 57 62 0 0
1.2766 2.6998 -0.0195 0.119 -0.500 -0.858 66 65 70 0 0
0.9638 2.5186 0.0642 0.387 -0.749 -0.537 33 34 36 0 0
0.6939 2.3857 0.1332 0.968 -0.232 0.095 171 170 168 0 0
0.6902 2.3714 0.1358 0.968 -0.232 0.095 173 172 170 0 0
1.3384 3.3621 -0.1070 0.945 -0.327 -0.018 170 169 167 0 0
1.4602 2.8514 -0.0605 0.777 -0.484 -0.403 69 67 68 0 0
1.4465 2.8120 -0.0526 0.756 -0.553 -0.350 22 20 24 0 0
1.4433 2.7983 -0.0501 0.946 -0.263 -0.191 24 22 25 0 0
1.3233 2.6983 -0.0137 0.395 -0.196 -0.898 48 47 52 0 0
1.3072 2.6899 -0.0095 0.119 -0.500 -0.858 63 62 67 0 0
0.6895 2.3744 0.1507 0.968 -0.232 0.095 170 169 168 0 0
1.3761 3.3946 -0.1038 0.793 -0.381 -0.476 172 172 170 0 0
1.2831 3.3127 -0.0749 0.640 -0.571 0.515 39 42 46 0 0
1.3422 3.2676 -0.0801 0.787 0.030 -0.616 51 52 54 0 0
1.4585 2.8097 -0.0402 0.806 -0.475 -0.355 23 21 25 0 0
1.4539 2.7965 -0.0376 0.907 -0.384 -0.172 24 22 25 0 0
1.3387 2.6796 0.0003 0.312 -0.379 -0.871 55 54 59 0 0
1.3200 2.6723 0.0049 0.130 -0.587 -0.799 69 67 69 0 0
1.3486 3.3316 -0.0752 0.756 -0.278 -0.592 49 49 51 0 0
1.3453 3.3172 -0.0726 0.756 -0.278 -0.592 43 43 45 0 0
1.3350 3.3064 -0.0692 0.953 0.068 -0.294 41 42 44 0 0
1.4480 2.7567 -0.0168 0.900 -0.037 -0.435 24 24 26 0 0
1.3427 2.6657 0.0158 0.132 -0.710 -0.692 61 62 65 0 0
1.3682 3.3092 -0.0612 0.546 -0.272 -0.792 41 42 44 0 0
1.4716 3.0857 -0.0512 0.537 -0.127 -0.834 46 46 48 0 0
1.4732 2.9461 -0.0328 0.695 -0.466 -0.547 26 25 30 0 0
1.4192 2.7117 0.0092 0.655 -0.745 -0.125 47 47 49 0 0
1.3814 2.6674 0.0225 0.601 -0.665 -0.445 44 43 47 0 0
1.3738 2.6556 0.0256 0.872 -0.130 -0.472 54 55 57 0 0
1.3519 2.6496 0.0306 0.642 -0.299 -0.706 68 68 70 0 0
1.3895 3.3979 -0.0624 0.892 -0.399 -0.215 165 164 162 0 0
1.3787 3.3233 -0.0503 0.400 -0.219 -0.890 53 53 58 0 0
1.4896 2.9416 -0.0210 0.864 -0.035 -0.503 26 25 30 0 0
1.4591 2.7276 0.0136 0.801 -0.367 -0.473 22 22 24 0 0
1.3795 2.6711 0.0367 0.770 -0.475 -0.426 43 43 45 0 0
1.3808 2.6555 0.0385 0.872 -0.130 -0.472 49 49 51 0 0
1.3704 2.6447 0.0420 0.863 -0.278 -0.422 69 68 71 0 0
1.3935 3.3993 -0.0486 0.892 -0.399 -0.215 130 129 128 0 0
1.3891 3.3854 -0.0459 0.826 -0.137 -0.547 63 61 61 0 0
1.4877 3.0533 -0.0211 0.385 -0.468 -0.795 37 37 39 0 0
1.4805 2.9796 -0.0099 0.872 -0.314 -0.376 57 57 59 0 0
1.4767 2.9659 -0.0073 0.920 -0.314 -0.235 28 28 31 0 0
1.4731 2.9369 -0.0028 0.508 -0.547 -0.665 26 26 28 0 0
1.4882 2.9147 -0.0028 0.517 -0.651 -0.556 25 25 27 0 0
1.4662 2.7275 0.0265 0.764 -0.421 -0.489 21 20 23 0 0
1.4115 2.6906 0.0422 0.720 -0.691 -0.058 59 59 61 0 0
1.3827 2.6575 0.0523 0.896 -0.360 -0.259 47 46 48 0 0
1.3842 2.6419 0.0541 0.954 0.055 -0.295 68 65 68 0 0
0.7649 2.3611 0.2136 -0.000 -0.798 -0.603 69 69 71 0 0
1.3974 3.4007 -0.0347 0.892 -0.399 -0.215 65 64 66 0 0
1.3973 3.3847 -0.0325 0.820 -0.118 -0.560 53 50 53 0 0
1.3843 3.3431 -0.0245 0.722 -0.444 0.530 53 50 55 0 0
1.4814 2.9669 0.0061 0.892 -0.340 -0.298 31 31 33 0 0
1.4779 2.9531 0.0086 0.783 -0.500 -0.370 26 26 28 0 0
1.4794 2.9371 0.0104 0.498 -0.808 -0.314 27 27 29 0 0
1.3870 2.6586 0.0656 0.896 -0.360 -0.259 43 41 42 0 0
1.3882 2.6430 0.0675 0.954 0.055 -0.295 62 60 61 0 0
0.7725 2.3457 0.2293 -0.023 -0.865 -0.502 69 69 71 0 0
0.6827 2.3150 0.2512 0.890 0.229 0.394 155 155 153 0 0
1.4059 3.3997 -0.0214 0.898 -0.049 -0.438 51 51 52 0 0
1.4061 3.3835 -0.0193 0.820 -0.118 -0.560 44 43 46 0 0
1.4809 2.9548 0.0222 0.898 -0.413 -0.150 23 23 25 0 0
1.4906 2.8284 0.0369 0.837 -0.051 -0.545 24 24 26 0 0
1.5112 2.7739 0.0399 0.924 -0.328 -0.196 59 59 61 0 0
1.5070 2.7607 0.0425 0.924 -0.328 -0.196 51 51 53 0 0
1.5034 2.7472 0.0450 0.867 -0.063 -0.495 65 65 67 0 0
1.4279 2.6894 0.0678 0.289 -0.796 -0.532 29 29 31 0 0
1.4082 2.6525 0.0766 0.854 0.008 -0.520 40 40 41 0 0
0.9052 2.4240 0.2075 0.752 0.333 -0.568 47 47 49 0 0
0.8972 2.3349 0.2208 0.164 -0.759 -0.630 59 59 61 0 0
0.6776 2.3039 0.2689 0.905 0.144 0.400 160 160 158 0 0
1.4126 3.4158 -0.0100 0.841 -0.413 -0.350 58 61 60 0 0
1.4130 3.3995 -0.0080 0.877 0.076 -0.474 49 50 51 0 0
1.4157 3.3820 -0.0062 0.794 -0.100 -0.600 42 42 44 0 0
1.4832 2.9568 0.0359 0.938 -0.346 -0.004 18 18 20 0 0
1.4735 2.9152 0.0433 0.355 -0.077 -0.932 26 26 28 0 0
1.4959 2.8138 0.0521 0.862 -0.169 -0.477 18 18 20 0 0
1.5023 2.7355 0.0610 0.799 -0.505 -0.326 64 64 66 0 0
0.9326 2.4166 0.2179 0.903 0.421 0.080 45 45 47 0 0
0.8149 2.2900 0.2583 -0.224 -0.868 -0.443 76 76 75 0 0
0.6730 2.3081 0.2845 0.545 -0.807 -0.228 128 128 126 0 0
0.6604 2.2968 0.2886 0.573 -0.808 -0.134 164 164 162 0 0
1.4946 2.9393 0.0503 0.277 -0.932 -0.232 20 20 22 0 0
1.5290 2.8172 0.0592 0.885 -0.370 -0.282 18 18 20 0 0
1.2171 2.4192 0.1746 0.472 -0.415 0.778 75 74 77 0 0
0.6928 2.3039 0.2963 -0.220 -0.893 -0.393 94 94 93 0 0
0.6654 2.2978 0.3027 0.545 -0.807 -0.228 142 142 140 0 0
0.6513 2.2870 0.3070 0.545 -0.807 -0.228 168 167 165 0 0
1.4601 3.3982 0.0123 0.495 -0.865 -0.087 52 53 55 0 0
1.5305 2.8953 0.0631 0.596 -0.798 0.084 26 26 28 0 0
1.1982 2.4291 0.1917 0.441 -0.454 0.774 77 75 79 0 0
1.0188 2.4208 0.2296 -0.134 -0.819 -0.557 73 70 76 0 0
0.9644 2.3037 0.2559 0.285 -0.339 -0.897 57 57 59 0 0
0.9576 2.2910 0.2590 0.158 -0.652 -0.742 61 61 63 0 0
0.6577 2.2875 0.3209 0.545 -0.807 -0.228 158 157 155 0 0
1.5544 3.1022 0.0458 0.618 -0.406 -0.673 37 37 39 0 0
1.5443 2.9225 0.0711 0.526 -0.691 -0.496 17 17 19 0 0
1.4750 2.6958 0.1147 0.687 -0.623 -0.374 19 18 21 0 0
0.9802 2.3159 0.2659 0.199 -0.267 -0.943 43 43 45 0 0
0.9899 2.2973 0.2663 0.296 -0.454 -0.840 50 50 52 0 0
0.9643 2.2912 0.2724 0.168 -0.626 -0.762 59 59 61 0 0
0.9514 2.2806 0.2764 0.116 -0.709 -0.695 63 63 65 0 0
0.6674 2.2868 0.3343 0.240 -0.926 -0.291 126 125 123 0 0
1.5655 3.0846 0.0603 0.750 -0.318 -0.580 35 33 36 0 0
1.5043 2.8371 0.1048 0.893 -0.378 -0.245 30 29 32 0 0
1.5495 2.7116 0.1115 0.899 -0.399 -0.178 13 12 13 0 0
1.4774 2.6977 0.1283 0.641 -0.757 0.129 13 11 14 0 0
1.0246 2.2876 0.2752 0.111 -0.712 -0.693 51 51 53 0 0
1.0038 2.2799 0.2805 0.087 -0.802 -0.591 52 52 54 0 0
0.6522 2.2790 0.3538 0.983 -0.077 0.168 147 147 145 0 0
1.5793 3.1741 0.0604 0.942 -0.078 -0.326 64 64 69 0 0
1.5866 3.0930 0.0692 0.480 -0.533 -0.697 32 31 36 0 0
1.5702 3.0700 0.0756 0.827 -0.556 0.077 31 31 33 0 0
1.5404 2.7035 0.1287 0.873 -0.487 0.036 13 11 14 0 0
1.5142 2.6998 0.1346 0.908 -0.252 0.334 12 10 13 0 0
1.4865 2.6967 0.1409 0.691 -0.663 0.288 12 10 13 0 0
1.4744 2.6868 0.1446 0.618 -0.772 0.152 12 12 14 0 0
1.4545 2.6652 0.1516 0.678 -0.734 0.037 14 14 16 0 0
0.6482 2.2675 0.3714 0.987 -0.072 0.141 160 160 160 0 0
1.5847 3.1747 0.0737 0.871 -0.266 -0.413 58 58 61 0 0
1.5838 3.0820 0.0857 0.664 -0.665 -0.342 33 33 35 0 0
1.4499 2.6700 0.1663 0.675 -0.652 -0.345 15 15 17 0 0
1.2870 2.4508 0.2286 0.736 -0.050 -0.675 54 54 54 0 0
1.2777 2.4395 0.2320 0.808 -0.508 -0.299 65 64 65 0 0
0.6485 2.2700 0.3864 0.973 0.065 0.220 140 140 140 0 0
0.6470 2.2549 0.3886 0.948 0.218 0.231 167 166 166 0 0
1.5132 2.7965 0.1513 0.949 -0.101 -0.300 38 38 40 0 0
1.2950 2.4355 0.2433 0.792 -0.018 -0.610 54 53 53 0 0
1.2253 2.4023 0.2624 0.410 -0.740 -0.533 37 35 38 0 0
1.1700 2.2733 0.2904 0.885 -0.231 -0.403 26 26 28 0 0
1.0803 2.2456 0.3130 0.295 -0.955 -0.017 43 43 45 0 0
0.6453 2.2581 0.4039 0.973 0.065 0.220 158 158 158 0 0
1.4923 2.6728 0.1857 0.736 -0.234 -0.635 32 32 34 0 0
1.3212 2.4281 0.2531 0.484 -0.567 -0.666 44 45 45 0 0
1.2330 2.4020 0.2753 0.716 -0.695 0.069 20 20 23 0 0
1.1915 2.2979 0.2973 0.667 -0.293 -0.686 35 31 36 0 0
1.0003 2.2311 0.3467 -0.146 -0.970 -0.195 64 64 66 0 0
0.8777 2.2432 0.3714 -0.127 -0.962 -0.240 59 59 59 0 0
1.5101 2.7131 0.1912 0.692 -0.288 -0.661 36 36 38 0 0
1.5067 2.6995 0.1936 0.692 -0.288 -0.661 36 36 38 0 0
1.5028 2.6712 0.1980 0.880 -0.297 -0.370 25 25 27 0 0
1.0854 2.2489 0.3409 0.638 -0.649 0.414 27 27 29 0 0
1.0656 2.2409 0.3462 0.386 -0.877 0.286 39 37 42 0 0
1.5573 2.9839 0.1616 0.661 0.144 -0.737 14 14 16 0 0
1.5811 2.9421 0.1616 0.813 -0.576 0.089 14 14 16 0 0
1.5168 2.7131 0.2041 0.862 -0.332 -0.384 31 31 33 0 0
1.5053 2.7030 0.2079 0.990 0.104 0.092 31 31 33 0 0
1.3148 2.4210 0.2844 0.798 -0.591 0.115 35 34 35 0 0
1.0674 2.2429 0.3603 0.650 -0.665 0.367 33 31 36 0 0
0.9124 2.2365 0.3948 -0.107 -0.977 -0.184 57 57 57 0 0
0.8560 2.2406 0.4065 -0.114 -0.965 -0.235 53 55 55 0 0
1.5820 2.9448 0.1755 0.770 -0.631 0.098 15 15 17 0 0
1.5229 2.7134 0.2171 0.899 -0.252 -0.357 17 17 19 0 0
1.0734 2.2734 0.3700 0.551 -0.835 -0.011 22 22 24 0 0
1.0739 2.2582 0.3717 0.653 -0.582 0.484 20 19 21 0 0
0.9323 2.2322 0.4060 -0.107 -0.977 -0.184 54 54 54 0 0
1.4893 2.8372 0.2236 0.789 0.081 0.608 20 20 22 0 0
1.4654 2.6355 0.2538 0.330 -0.896 -0.298 11 11 13 0 0
1.0418 2.2571 0.3937 0.359 -0.898 0.255 24 24 26 0 0
0.8968 2.2318 0.4288 -0.107 -0.977 -0.184 52 50 53 0 0
1.4264 2.5794 0.2837 0.178 -0.742 -0.646 10 10 12 0 0
1.4083 2.5718 0.2887 0.174 -0.835 -0.522 10 10 12 0 0
1.3935 2.5628 0.2931 0.305 -0.833 -0.461 10 10 12 0 0
1.3747 2.5554 0.2981 0.303 -0.640 -0.706 11 11 13 0 0
1.2318 2.4009 0.3488 0.755 -0.387 -0.529 23 23 25 0 0
1.2283 2.3872 0.3512 0.637 -0.365 -0.679 17 17 19 0 0
1.5738 2.9578 0.2192 0.741 0.202 -0.641 17 17 19 0 0
1.4863 2.6474 0.2765 0.801 -0.282 0.528 24 24 26 0 0
1.4204 2.5997 0.2971 0.516 -0.848 -0.117 13 13 15 0 0
1.3801 2.5560 0.3114 0.726 -0.321 -0.608 12 12 14 0 0
1.3888 2.5225 0.3135 0.778 0.468 -0.420 10 10 12 0 0
1.3922 2.5061 0.3148 0.919 0.313 -0.238 10 9 14 0 0
1.2396 2.3856 0.3636 0.821 -0.140 -0.553 16 16 18 0 0
1.2385 2.3711 0.3656 0.821 -0.140 -0.553 14 14 16 0 0
0.9044 2.2343 0.4569 0.020 -0.998 0.053 46 44 47 0 0
1.4367 2.6259 0.3047 0.625 -0.591 0.510 20 20 22 0 0
1.3972 2.5669 0.3208 0.636 -0.677 -0.371 14 14 16 0 0
1.3861 2.5564 0.3245 0.759 -0.197 -0.621 16 16 18 0 0
1.3875 2.5407 0.3261 0.897 0.285 -0.337 13 13 15 0 0
1.3966 2.5221 0.3263 0.914 0.314 -0.258 11 11 13 0 0
0.5298 2.2392 0.5557 0.265 -0.962 -0.063 170 169 169 0 0
0.5104 2.2299 0.5612 0.330 -0.937 -0.119 172 171 170 0 0
1.4270 2.5876 0.3261 0.707 -0.666 0.237 20 20 22 0 0
1.4175 2.5764 0.3296 0.640 -0.750 0.170 18 18 20 0 0
1.2961 2.4595 0.3712 0.966 -0.199 -0.165 21 21 23 0 0
0.7716 2.2389 0.5166 -0.049 -0.974 -0.220 47 48 51 0 0
0.5861 2.2390 0.5586 0.766 -0.642 -0.006 149 147 148 0 0
0.5758 2.2267 0.5624 0.766 -0.642 -0.006 169 167 168 0 0
1.5224 2.7613 0.2980 0.701 -0.017 -0.713 16 16 17 0 0
1.4326 2.6182 0.3356 0.611 -0.791 0.030 31 31 33 0 0
1.2963 2.4622 0.3854 0.921 -0.285 -0.268 28 28 30 0 0
1.3152 2.4398 0.3838 0.513 0.020 -0.858 23 23 25 0 0
1.3047 2.3990 0.3911 0.703 -0.399 -0.589 15 15 17 0 0
0.8871 2.2328 0.5063 0.040 -0.983 0.182 38 38 40 0 0
0.7894 2.2355 0.5282 -0.056 -0.972 -0.229 44 45 48 0 0
0.5930 2.2393 0.5726 0.968 -0.169 0.184 121 119 120 0 0
0.5776 2.2287 0.5774 0.766 -0.642 -0.006 162 160 161 0 0
0.5699 2.2155 0.5807 0.800 -0.599 -0.047 171 169 170 0 0
1.6386 3.0164 0.2554 0.092 -0.994 0.057 34 34 36 0 0
1.4834 2.6450 0.3353 0.175 -0.655 -0.735 35 35 37 0 0
1.4739 2.6340 0.3388 0.342 -0.570 -0.747 34 34 36 0 0
1.4661 2.6222 0.3420 0.350 -0.676 -0.649 34 34 36 0 0
1.4273 2.5931 0.3544 0.827 -0.539 -0.160 32 32 34 0 0
1.4042 2.5574 0.3639 0.945 -0.278 -0.171 24 24 26 0 0
1.3288 2.4372 0.3956 0.619 0.162 -0.768 30 30 32 0 0
0.8826 2.2369 0.5219 0.102 -0.991 0.081 36 36 38 0 0
0.8076 2.2319 0.5398 -0.049 -0.974 -0.220 40 41 44 0 0
0.5806 2.2303 0.5921 0.914 -0.396 0.088 150 148 149 0 0
0.5737 2.2169 0.5953 0.931 -0.354 0.083 168 166 167 0 0
1.6189 3.0599 0.2693 0.448 -0.216 0.867 10 10 12 0 0
1.4302 2.6855 0.3573 0.999 0.033 -0.037 36 36 38 0 0
1.4531 2.6304 0.3585 0.957 0.118 -0.265 35 35 37 0 0
1.4675 2.6094 0.3577 0.512 -0.809 -0.290 34 34 36 0 0
1.4372 2.5918 0.3668 0.750 -0.661 -0.000 32 32 34 0 0
1.4126 2.5718 0.3749 0.802 -0.587 -0.109 28 28 30 0 0
1.4041 2.5602 0.3782 0.892 -0.415 -0.179 29 29 31 0 0
1.3925 2.5198 0.3857 0.993 0.110 -0.039 30 30 32 0 0
1.3569 2.4590 0.4011 0.863 -0.412 -0.291 37 37 39 0 0
0.5768 2.2342 0.6081 0.919 0.238 0.315 118 118 118 0 0
0.5793 2.2176 0.6095 0.937 0.225 0.269 161 160 161 0 0
1.4607 2.6301 0.3713 0.986 0.137 0.097 35 35 37 0 0
1.3967 2.5209 0.3991 0.940 -0.054 -0.336 31 31 33 0 0
1.3929 2.5074 0.4016 0.986 -0.097 -0.134 32 32 34 0 0
1.3604 2.4603 0.4147 0.761 -0.642 -0.090 39 39 41 0 0
1.3589 2.4459 0.4168 0.757 -0.307 -0.577 39 39 41 0 0
1.3321 2.3965 0.4288 0.722 -0.552 -0.417 33 31 34 0 0
0.9274 2.2420 0.5412 0.132 -0.971 0.202 33 32 37 0 0
0.9180 2.2300 0.5448 0.416 -0.826 -0.380 36 35 40 0 0
0.5738 2.2221 0.6259 0.919 0.238 0.315 146 146 146 0 0
0.5777 2.2051 0.6270 0.948 0.181 0.261 167 165 166 0 0
1.5629 3.5877 0.2497 0.666 -0.730 0.153 42 42 44 0 0
1.5049 2.7352 0.3632 0.949 -0.310 -0.062 33 33 35 0 0
1.4015 2.5218 0.4125 0.968 0.141 -0.208 32 32 34 0 0
1.3337 2.4285 0.4393 0.985 -0.162 0.059 38 37 40 0 0
1.3296 2.3852 0.4453 0.780 -0.592 -0.203 36 34 37 0 0
0.9430 2.2545 0.5513 0.383 -0.694 0.610 32 31 37 0 0
0.9280 2.2291 0.5577 0.416 -0.826 -0.380 36 35 40 0 0
0.5709 2.2099 0.6437 0.919 0.238 0.315 160 158 159 0 0
1.3973 2.5563 0.4240 0.893 -0.439 -0.103 34 34 36 0 0
1.3113 2.3949 0.4631 0.925 -0.335 0.180 38 37 39 0 0
1.3107 2.3802 0.4650 0.758 -0.645 0.091 37 35 39 0 0
1.3008 2.3690 0.4686 0.758 -0.645 0.091 31 28 32 0 0
1.2907 2.3578 0.4723 0.697 -0.708 -0.111 25 22 27 0 0
0.8974 2.2576 0.5768 0.285 -0.757 0.587 31 31 34 0 0
0.5865 2.2074 0.6559 0.908 -0.288 0.305 142 141 141 0 0
1.3840 2.5344 0.4443 0.851 -0.320 0.416 33 33 35 0 0
1.3896 2.5171 0.4450 0.978 -0.173 -0.121 33 33 35 0 0
1.3577 2.4997 0.4546 0.915 0.402 0.009 36 36 38 0 0
1.3189 2.4247 0.4725 0.869 -0.416 0.270 39 39 41 0 0
1.2715 2.3827 0.4886 0.718 -0.256 0.647 39 38 43 0 0
1.2654 2.3700 0.4915 0.700 -0.273 0.660 37 36 41 0 0
0.5803 2.2121 0.6725 0.884 -0.349 0.310 105 106 104 0 0
1.5870 2.9672 0.3606 0.911 -0.412 0.023 24 24 26 0 0
1.4504 2.6762 0.4268 0.904 -0.173 0.391 35 35 37 0 0
1.3667 2.5139 0.4655 0.946 0.271 -0.180 35 35 37 0 0
1.2111 2.3479 0.5218 0.570 -0.333 0.751 41 41 43 0 0
0.8550 2.2621 0.6168 0.297 -0.807 0.509 30 30 32 0 0
0.5693 2.2026 0.6920 0.887 -0.145 0.439 127 126 124 0 0
1.6326 3.0104 0.3593 0.903 -0.339 -0.265 16 16 18 0 0
1.4481 2.6800 0.4415 0.952 -0.271 0.141 34 34 36 0 0
1.3418 2.5418 0.4830 0.894 0.315 -0.318 36 36 38 0 0
1.3632 2.5181 0.4805 0.899 0.073 -0.432 37 37 39 0 0
0.7240 2.2788 0.6617 0.321 -0.939 -0.120 31 31 33 0 0
0.5652 2.2065 0.7082 0.642 -0.734 0.224 92 91 90 0 0
1.6086 3.5969 0.3130 0.632 -0.459 -0.624 48 46 52 0 0
1.4667 2.7207 0.4471 0.351 -0.853 0.387 34 34 36 0 0
1.4463 2.6837 0.4562 0.650 -0.704 -0.288 34 34 36 0 0
1.3738 2.4715 0.4980 0.601 -0.779 0.181 39 39 41 0 0
1.2628 2.4393 0.5285 -0.001 -0.922 -0.387 35 35 37 0 0
0.5533 2.1973 0.7279 0.823 -0.237 0.517 103 103 102 0 0
1.6445 2.9956 0.3873 0.591 -0.675 -0.442 17 17 19 0 0
1.3765 2.7162 0.4843 0.820 -0.277 -0.500 33 33 35 0 0
1.3332 2.5661 0.5118 0.805 -0.506 -0.310 37 37 39 0 0
1.3303 2.5520 0.5141 0.905 -0.372 -0.205 38 38 40 0 0
1.3566 2.5263 0.5106 0.847 -0.528 0.061 38 38 40 0 0
1.3339 2.5534 0.5279 0.905 -0.372 -0.205 38 38 40 0 0
1.1289 2.3739 0.5983 0.807 0.580 -0.110 45 44 49 0 0
1.6354 3.0062 0.4176 0.878 -0.272 -0.395 18 18 20 0 0
1.5193 2.7676 0.4729 -0.012 -0.838 -0.546 27 27 29 0 0
1.3439 2.5826 0.5369 0.785 -0.463 -0.412 35 35 37 0 0
1.5668 3.6509 0.3777 -0.004 -0.936 0.352 44 44 46 0 0
1.6439 2.9745 0.4337 0.535 -0.829 -0.162 16 16 18 0 0
1.5398 2.7616 0.4832 0.030 -0.842 -0.538 24 24 26 0 0
1.3668 2.6066 0.5434 0.950 -0.202 -0.239 32 32 34 0 0
1.3389 2.6027 0.5508 0.830 -0.024 -0.557 33 33 35 0 0
1.3417 2.5407 0.5570 0.725 -0.685 0.077 34 34 36 0 0
1.5653 3.6554 0.3928 0.011 -0.963 0.270 43 43 45 0 0
1.6411 2.9943 0.4468 0.989 -0.079 -0.126 16 16 18 0 0
1.6422 2.9784 0.4483 0.852 -0.451 -0.267 16 16 18 0 0
1.5699 3.6564 0.4067 0.011 -0.994 0.104 43 43 45 0 0
1.6426 2.9813 0.4625 0.973 -0.026 -0.230 16 16 18 0 0
1.2229 2.4712 0.6241 0.586 0.067 0.808 37 37 39 0 0
1.1426 2.4715 0.6443 -0.190 -0.591 -0.784 37 37 39 0 0
1.5870 3.6506 0.4183 -0.032 -0.987 -0.157 45 45 47 0 0
1.4176 3.3481 0.4942 -0.189 -0.966 0.177 11 11 13 0 0
1.6360 3.0030 0.4765 0.907 0.280 -0.313 18 18 20 0 0
1.6482 2.9818 0.4757 0.919 -0.154 -0.363 17 17 19 0 0
1.6465 2.9671 0.4778 0.919 -0.154 -0.363 17 17 19 0 0
1.4123 2.6421 0.5725 0.981 -0.183 0.062 27 27 29 0 0
1.4107 2.6275 0.5745 0.954 -0.111 0.278 27 27 29 0 0
1.4202 3.3502 0.5086 -0.206 -0.953 0.221 13 13 15 0 0
1.6480 2.9696 0.4918 0.790 -0.175 -0.587 16 16 18 0 0
1.4218 2.6410 0.5850 0.671 -0.617 -0.411 25 25 27 0 0
1.4133 2.6293 0.5885 0.584 -0.612 -0.533 24 24 26 0 0
1.3883 2.6244 0.5954 0.889 -0.351 -0.294 24 24 26 0 0
1.2957 2.4941 0.6331 0.882 0.216 0.418 29 29 31 0 0
1.5575 2.9377 0.5331 0.475 -0.322 -0.819 25 25 27 0 0
1.3923 2.6409 0.6074 0.340 -0.618 -0.709 20 20 22 0 0
1.3869 2.6278 0.6102 0.593 -0.246 -0.767 20 20 22 0 0
1.3341 2.6037 0.6264 0.488 -0.759 0.431 17 17 19 0 0
1.2511 2.4381 0.6655 0.609 -0.717 -0.337 29 29 31 0 0
1.5705 3.0593 0.5315 0.479 -0.659 0.580 19 19 21 0 0
1.6715 2.9647 0.5156 0.989 -0.064 -0.134 17 17 19 0 0
1.6732 2.9485 0.5169 0.725 -0.660 -0.197 18 18 20 0 0
1.3818 2.6482 0.6242 0.266 -0.609 -0.747 18 18 20 0 0
1.4420 2.7023 0.6178 0.656 -0.525 -0.543 19 19 21 0 0
1.2838 2.4462 0.6860 0.366 -0.700 -0.614 19 19 21 0 0
1.2738 2.4197 0.6915 0.223 -0.461 -0.859 22 22 24 0 0
1.6793 2.9518 0.5443 0.717 -0.689 -0.105 17 17 19 0 0
1.3928 2.6493 0.6511 0.327 -0.939 -0.108 13 13 15 0 0
1.3846 2.6068 0.6577 0.753 -0.528 -0.393 13 13 15 0 0
1.2398 2.4813 0.7088 0.402 -0.222 -0.888 16 16 18 0 0
1.2941 2.4450 0.6984 0.897 -0.201 0.394 17 17 19 0 0
1.2702 2.3935 0.7101 0.939 -0.336 0.070 20 20 22 0 0
1.5992 3.7321 0.4981 0.910 -0.364 -0.195 73 72 73 0 0
1.5160 2.9227 0.6049 0.625 0.133 -0.769 24 24 26 0 0
1.4652 2.7289 0.6386 0.838 -0.542 -0.062 15 15 17 0 0
1.4577 2.7168 0.6419 0.838 -0.542 -0.062 16 16 18 0 0
1.4559 2.7022 0.6438 0.767 -0.490 -0.415 16 16 18 0 0
1.4348 2.6500 0.6549 0.292 -0.622 -0.727 12 12 14 0 0
1.3930 2.6062 0.6705 0.670 -0.692 -0.268 12 12 14 0 0
1.2704 2.5027 0.7135 0.726 -0.187 0.662 14 14 16 0 0
1.2846 2.4819 0.7120 0.673 -0.221 0.706 14 14 16 0 0
1.4412 2.6808 0.6648 0.614 -0.743 0.266 13 13 15 0 0
1.6307 2.9718 0.6140 0.914 -0.256 0.315 15 15 17 0 0
1.6216 2.9606 0.6176 0.789 -0.576 0.213 17 17 19 0 0
1.5908 2.9440 0.6275 0.241 -0.971 -0.005 31 31 33 0 0
1.5687 2.9232 0.6356 0.175 -0.845 -0.505 32 32 34 0 0
1.4680 2.7059 0.6849 0.933 0.354 -0.062 11 11 13 0 0
0.3959 1.9874 1.0456 0.927 0.159 0.340 78 78 79 0 0
1.7835 3.3213 0.5520 0.909 0.414 0.039 23 23 25 0 0
1.6010 2.9424 0.6398 0.215 -0.977 0.007 27 27 29 0 0
1.5768 2.9226 0.6484 0.313 -0.935 -0.166 32 32 35 0 0
1.6147 3.0637 0.6386 0.242 -0.491 -0.837 20 20 22 0 0
1.6190 2.9680 0.6472 0.789 -0.576 0.213 16 16 18 0 0
1.5818 2.9234 0.6618 0.204 -0.972 -0.119 34 33 38 0 0
1.5796 2.8934 0.6655 0.496 -0.838 0.229 35 34 39 0 0
1.5539 2.8897 0.6728 0.668 -0.020 -0.744 34 33 38 0 0
1.6021 2.9636 0.6671 0.912 -0.253 0.323 18 18 20 0 0
1.5608 2.8896 0.6858 0.736 -0.035 -0.676 35 34 39 0 0
1.8017 3.3061 0.5930 0.918 0.095 -0.386 20 20 22 0 0
1.6378 3.0589 0.6627 0.516 -0.436 -0.738 25 25 27 0 0
1.5816 2.8677 0.6972 0.985 0.147 -0.091 36 35 40 0 0
1.4658 2.6879 0.7470 0.831 -0.545 -0.111 11 11 13 0 0
1.8041 3.3083 0.6070 0.971 0.154 -0.185 21 21 23 0 0
1.8315 3.2781 0.6024 0.867 0.345 -0.360 20 20 22 0 0
1.6740 2.9670 0.6768 0.653 -0.722 0.229 13 13 15 0 0
1.5729 2.8285 0.7184 0.964 -0.259 0.061 32 31 36 0 0
1.5690 2.8148 0.7209 0.964 -0.259 0.061 26 25 30 0 0
1.5522 2.7455 0.7324 0.712 -0.350 -0.609 14 14 16 0 0
1.7806 3.3558 0.6236 0.857 0.365 -0.365 29 29 31 0 0
1.7936 3.3330 0.6223 0.854 0.481 -0.198 25 25 27 0 0
1.8064 3.3104 0.6210 0.971 0.154 -0.185 20 20 22 0 0
1.6716 2.9713 0.6919 0.368 -0.913 0.174 13 13 15 0 0
1.6165 2.9197 0.7122 0.726 -0.670 -0.153 21 21 23 0 0
1.5865 2.8716 0.7253 0.826 -0.516 -0.226 37 36 41 0 0
1.5616 2.7596 0.7433 0.990 -0.009 0.141 16 16 18 0 0
0.3417 1.9866 1.1576 0.210 -0.977 0.035 140 140 139 0 0
1.6656 3.7649 0.6305 0.559 -0.827 -0.056 113 114 113 0 0
1.7986 3.3655 0.6326 0.807 0.440 0.393 33 33 35 0 0
1.8181 3.3076 0.6328 0.909 0.204 0.362 23 23 25 0 0
1.8289 3.2862 0.6320 0.914 0.334 0.232 20 20 22 0 0
1.6563 3.0439 0.7038 0.807 -0.397 -0.438 29 29 31 0 0
1.6592 2.9648 0.7108 0.646 -0.763 -0.039 13 13 15 0 0
1.6156 2.9077 0.7285 0.681 -0.732 0.008 21 21 23 0 0
1.4601 2.6837 0.7939 0.819 -0.484 -0.307 12 12 14 0 0
1.4240 2.6836 0.8039 0.444 -0.240 -0.864 11 11 13 0 0
0.3456 1.9880 1.1727 0.210 -0.977 0.035 138 137 137 0 0
1.8190 3.3106 0.6472 0.747 0.129 0.652 25 25 27 0 0
1.6574 3.0466 0.7182 0.877 -0.373 -0.303 30 30 32 0 0
1.6668 2.9798 0.7221 -0.064 -0.989 0.130 15 15 17 0 0
1.5706 2.8540 0.7613 0.356 -0.932 -0.059 37 36 41 0 0
1.6656 3.0458 0.7309 0.914 -0.183 -0.362 32 32 34 0 0
1.6752 2.9790 0.7346 -0.076 -0.994 0.082 15 15 17 0 0
1.5905 2.8635 0.7697 0.488 -0.872 -0.038 37 37 39 0 0
1.5753 2.8549 0.7748 0.356 -0.932 -0.059 37 37 39 0 0
1.5533 2.8494 0.7816 0.208 -0.944 -0.258 38 38 40 0 0
1.5534 2.8185 0.7845 0.965 -0.064 0.256 39 39 41 0 0
1.6951 2.9727 0.7445 -0.016 -1.000 0.010 16 16 18 0 0
1.6405 2.9364 0.7635 0.705 -0.063 -0.706 13 13 15 0 0
1.5849 2.8536 0.7872 0.422 -0.906 -0.001 35 35 37 0 0
1.5674 2.8461 0.7929 0.349 -0.936 -0.050 37 37 39 0 0
1.5415 2.8268 0.8021 0.325 -0.927 -0.184 39 39 41 0 0
1.5388 2.7971 0.8057 0.907 -0.061 0.418 40 39 44 0 0
1.5900 3.1364 0.7737 0.770 0.625 0.129 15 15 17 0 0
1.6581 2.9468 0.7724 0.721 -0.320 -0.615 13 13 15 0 0
1.5153 2.8106 0.8261 0.382 -0.920 0.087 42 41 46 0 0
1.3874 2.6490 0.8780 0.279 -0.959 0.058 18 18 20 0 0
1.7025 2.9600 0.7733 -0.021 -0.994 -0.106 16 16 19 0 0
1.5747 2.8335 0.8220 0.498 -0.823 0.274 35 35 37 0 0
1.5148 2.7983 0.8425 0.730 -0.683 0.005 42 41 46 0 0
1.4152 2.6403 0.8860 0.740 -0.480 0.472 27 27 28 0 0
1.7303 2.9653 0.7797 0.208 -0.978 -0.013 20 19 24 0 0
1.7081 2.9604 0.7865 0.013 -0.999 -0.047 16 16 19 0 0
1.6697 2.9631 0.7974 0.039 -0.995 -0.096 16 16 18 0 0
1.5396 2.8058 0.8496 0.576 -0.741 -0.345 40 39 44 0 0
1.5401 2.7747 0.8524 -0.142 -0.949 -0.281 42 41 46 0 0
1.4286 2.6376 0.8975 0.941 -0.185 0.284 38 38 38 0 0
1.1775 2.3678 0.9952 0.251 -0.763 -0.596 33 32 38 0 0
1.7190 2.9584 0.7984 0.247 -0.961 0.123 18 18 21 0 0
1.6785 2.9621 0.8098 0.126 -0.992 -0.019 16 16 18 0 0
1.5819 2.8054 0.8525 0.726 0.273 0.631 33 33 36 0 0
1.2415 2.5156 0.9782 0.792 0.410 -0.452 40 40 40 0 0
1.7228 2.9597 0.8121 0.269 -0.958 0.095 21 21 25 0 0
1.6962 2.9569 0.8201 0.118 -0.993 0.003 17 17 19 0 0
1.6643 2.9564 0.8294 0.119 -0.992 -0.030 16 16 18 0 0
1.4820 2.9159 0.8863 0.636 0.446 0.629 32 32 34 0 0
1.5149 2.8852 0.8796 0.676 0.527 0.515 35 35 37 0 0
1.3692 2.6994 0.9393 0.844 -0.336 0.418 44 44 44 0 0
0.4172 2.0026 1.2813 0.153 -0.968 0.201 58 60 60 0 0
0.3854 1.9962 1.2912 0.372 -0.880 0.295 109 111 106 0 0
1.7021 2.9572 0.8333 0.137 -0.990 0.018 17 17 19 0 0
1.6703 2.9567 0.8426 0.119 -0.992 -0.030 16 16 18 0 0
1.4635 2.9117 0.9074 0.558 0.369 0.743 34 34 38 0 0
1.0353 2.3045 1.0887 0.795 -0.153 0.587 40 40 45 0 0
1.6550 3.8595 0.7797 0.576 0.688 -0.442 168 168 167 0 0
1.3853 2.7141 0.9637 0.060 -0.912 -0.406 46 46 46 0 0
1.3475 2.7145 0.9748 0.048 -0.805 -0.591 46 46 46 0 0
1.3440 2.7003 0.9772 0.170 -0.741 -0.650 46 46 46 0 0
0.4816 2.0200 1.2934 0.359 -0.885 0.297 39 40 44 0 0
0.4407 2.0165 1.3058 0.299 -0.838 0.456 47 48 52 0 0
1.8359 3.3995 0.7834 0.941 0.157 -0.301 28 29 31 0 0
1.8406 3.3811 0.7837 0.945 0.177 -0.275 27 28 30 0 0
1.7034 2.9319 0.8650 0.781 -0.621 0.065 15 15 17 0 0
1.3648 2.9150 0.9669 0.474 0.174 0.863 38 36 41 0 0
1.0508 2.3043 1.1153 0.429 -0.315 -0.847 46 45 50 0 0
0.4650 2.0276 1.3139 0.518 -0.737 0.434 46 47 50 0 0
1.7583 3.7731 0.7880 0.939 -0.298 0.174 105 107 106 0 0
1.7209 2.9422 0.8738 0.943 -0.303 0.135 17 16 19 0 0
1.7035 2.9350 0.8797 0.752 -0.659 -0.012 15 15 18 0 0
1.3397 2.6924 1.0099 -0.005 -0.988 -0.154 46 46 46 0 0
1.1021 2.3813 1.1086 0.568 0.202 0.798 49 47 52 0 0
1.7547 3.7790 0.8040 0.949 -0.132 0.286 100 102 101 0 0
1.7171 2.9317 0.8908 0.887 -0.416 0.200 14 13 18 0 0
1.6656 2.9249 0.9069 0.113 -0.951 -0.288 14 14 16 0 0
1.0694 2.3185 1.1396 0.979 -0.201 0.033 41 43 42 0 0
1.7502 3.7687 0.8217 0.959 -0.025 0.281 69 71 71 0 0
1.7223 2.9478 0.9028 0.923 -0.284 0.261 31 30 35 0 0
1.7155 2.9356 0.9059 0.887 -0.416 0.200 16 15 20 0 0
1.6902 2.9165 0.9152 0.778 -0.610 0.149 15 15 17 0 0
1.7319 3.7999 0.8400 0.458 -0.858 -0.234 143 145 144 0 0
1.7139 2.9395 0.9210 0.887 -0.416 0.200 19 18 23 0 0
1.2759 2.7756 1.0680 0.499 0.056 0.865 44 44 44 0 0
0.9788 2.7068 1.1640 0.097 -0.838 0.537 73 73 73 0 0
0.9511 2.7018 1.1729 0.295 -0.750 0.592 81 81 81 0 0
1.7189 3.7946 0.8600 0.623 -0.747 -0.232 92 92 92 0 0
1.6951 2.9360 0.9420 0.947 -0.310 0.085 18 17 23 0 0
1.7004 2.9180 0.9420 0.842 -0.540 0.017 18 17 21 0 0
1.2757 2.7312 1.0875 0.907 0.414 0.073 37 37 37 0 0
1.7594 3.7748 0.8649 0.585 -0.128 -0.801 90 91 91 0 0
1.5503 3.1347 0.9842 0.901 0.345 -0.261 19 19 21 0 0
1.7763 3.7686 0.8757 0.666 -0.023 -0.746 73 73 73 0 0
1.7768 3.7517 0.8770 0.600 -0.121 -0.791 69 71 71 0 0
1.1740 2.7162 1.1512 0.090 -0.932 0.351 28 28 30 0 0
1.7906 3.7641 0.8872 0.884 -0.040 -0.466 61 62 62 0 0
1.1551 2.7271 1.1719 0.072 -0.983 0.170 24 24 26 0 0
0.5092 2.1142 1.4238 0.767 0.639 -0.062 81 79 82 0 0
0.5016 2.1006 1.4273 0.386 -0.682 0.621 133 131 133 0 0
1.8485 3.3761 0.9174 0.625 0.090 -0.775 16 16 18 0 0
1.2730 2.7286 1.1509 0.729 -0.587 0.351 28 28 30 0 0
0.4887 2.1233 1.4459 0.818 0.429 0.383 98 96 97 0 0
0.4702 2.1130 1.4525 0.724 0.092 0.683 151 149 150 0 0
1.8540 3.3927 0.9294 0.915 -0.226 0.335 20 20 22 0 0
1.8430 3.3826 0.9337 0.887 0.388 -0.251 16 16 18 0 0
0.4435 2.1240 1.4764 0.659 0.340 0.671 163 161 162 0 0
1.8637 3.3749 0.9430 0.801 0.489 0.346 29 29 31 0 0
1.2713 2.7353 1.1822 0.791 0.029 0.611 36 36 38 0 0
1.2518 2.7465 1.2031 0.826 -0.137 0.546 41 40 44 0 0
1.1576 2.7061 1.2361 0.572 -0.499 -0.651 25 26 28 0 0
1.7819 3.7883 0.9656 0.888 -0.291 -0.357 72 72 74 0 0
1.6653 2.8660 1.0778 0.716 -0.479 -0.508 14 15 17 0 0
1.6286 2.8517 1.0906 0.461 -0.373 -0.805 11 12 14 0 0
1.2499 2.7822 1.2165 0.972 0.176 0.154 54 53 58 0 0
1.2458 2.7521 1.2202 0.938 -0.182 0.294 44 43 48 0 0
1.1581 2.7089 1.2516 0.770 -0.479 -0.422 20 21 23 0 0
1.6712 2.8664 1.0910 0.734 -0.571 -0.367 15 16 18 0 0
1.6487 2.8612 1.0986 0.540 -0.338 -0.771 12 13 15 0 0
1.6440 2.8478 1.1012 0.461 -0.373 -0.805 11 12 14 0 0
1.2484 2.7700 1.2337 0.990 0.038 0.132 54 53 58 0 0
1.2459 2.7551 1.2357 0.991 -0.113 0.077 50 49 54 0 0
1.2339 2.7442 1.2404 0.900 -0.436 -0.023 39 38 43 0 0
1.8474 3.3978 1.0071 0.701 0.591 -0.399 19 19 21 0 0
1.6778 2.8665 1.1040 0.734 -0.571 -0.367 16 17 19 0 0
1.6624 2.8580 1.1096 0.540 -0.338 -0.771 14 15 17 0 0
1.1583 2.6988 1.2841 0.553 -0.833 -0.013 17 18 23 0 0
1.8785 3.3684 1.0146 0.582 0.742 -0.334 17 15 18 0 0
1.6989 2.8908 1.1104 0.701 -0.705 -0.108 21 22 24 0 0
1.6915 2.8788 1.1138 0.768 -0.634 -0.090 17 18 20 0 0
1.6772 2.8543 1.1203 0.820 -0.515 -0.249 30 31 33 0 0
1.6703 2.8419 1.1235 0.837 -0.547 -0.005 25 26 28 0 0
1.2434 2.7462 1.2688 0.979 -0.121 -0.166 50 49 54 0 0
1.2390 2.7321 1.2713 0.828 -0.504 -0.247 42 41 46 0 0
1.6757 2.8581 1.1357 0.702 -0.634 -0.324 16 17 19 0 0
1.6751 2.8428 1.1371 0.820 -0.515 -0.249 14 15 17 0 0
1.2444 2.7488 1.2840 0.997 0.071 -0.001 53 52 57 0 0
1.7023 2.8955 1.1393 0.883 -0.446 -0.145 39 39 41 0 0
1.6866 2.8562 1.1474 0.820 -0.515 -0.249 16 17 19 0 0
1.6798 2.8438 1.1506 0.820 -0.515 -0.249 14 15 17 0 0
1.6734 2.8312 1.1537 0.782 -0.528 -0.331 12 13 15 0 0
1.2449 2.7517 1.2995 0.998 0.046 0.040 53 52 57 0 0
1.2471 2.7348 1.3001 0.978 -0.085 0.188 50 50 55 0 0
1.2435 2.7204 1.3024 0.964 -0.160 0.212 41 42 47 0 0
1.7013 2.8836 1.1557 0.909 -0.382 -0.168 29 29 33 0 0
1.6957 2.8706 1.1585 0.797 -0.570 -0.200 19 20 22 0 0
1.6845 2.8447 1.1642 0.820 -0.515 -0.249 16 17 19 0 0
1.6777 2.8323 1.1674 0.820 -0.515 -0.249 14 15 17 0 0
1.1800 2.8306 1.3304 0.910 -0.151 -0.385 30 32 37 0 0
1.2446 2.7389 1.3164 0.973 0.034 0.230 52 52 56 0 0
1.2405 2.7246 1.3188 0.964 -0.160 0.212 47 47 52 0 0
1.2267 2.7144 1.3241 0.876 -0.481 0.035 38 38 44 0 0
1.7759 3.8864 1.0695 0.912 0.334 0.236 168 168 166 0 0
1.5597 3.1122 1.2000 0.165 -0.967 -0.194 20 20 22 0 0
1.5215 3.1145 1.2123 0.564 -0.824 -0.053 19 19 21 0 0
1.6994 2.8720 1.1724 0.922 -0.304 -0.239 16 17 19 0 0
1.6915 2.8601 1.1759 0.752 -0.592 -0.291 15 16 18 0 0
1.6689 2.8238 1.1861 0.506 -0.837 -0.208 13 14 16 0 0
1.1840 2.8319 1.3450 0.952 -0.191 -0.240 23 27 30 0 0
1.2404 2.7436 1.3332 0.973 0.034 0.230 54 54 58 0 0
1.2376 2.7288 1.3353 0.972 -0.144 0.184 51 50 56 0 0
1.2280 2.7169 1.3394 0.889 -0.457 0.020 42 41 47 0 0
1.7741 3.8914 1.0855 0.984 -0.086 0.159 169 169 167 0 0
1.7872 3.8666 1.0831 0.918 0.359 0.167 168 167 166 0 0
1.5375 3.1262 1.2218 0.207 -0.707 -0.676 20 21 23 0 0
1.5241 3.1166 1.2270 0.269 -0.902 -0.337 19 19 21 0 0
1.6978 2.8603 1.1890 0.875 -0.462 -0.143 14 15 17 0 0
1.7012 2.8122 1.1915 0.535 -0.793 0.291 15 16 18 0 0
1.1759 2.8385 1.3632 0.991 -0.126 -0.034 18 22 25 0 0
1.2351 2.7329 1.3517 0.972 -0.144 0.184 52 51 55 0 0
1.2289 2.7195 1.3547 0.889 -0.457 0.020 46 45 49 0 0
1.7814 3.8740 1.1002 0.929 0.369 -0.011 170 169 166 0 0
1.8084 3.4763 1.1212 0.646 0.680 -0.347 29 29 31 0 0
1.5546 3.1212 1.2322 0.200 -0.811 -0.549 22 22 24 0 0
1.5453 3.1096 1.2361 0.448 -0.746 -0.494 20 20 22 0 0
1.4966 3.1170 1.2518 0.333 -0.873 0.357 18 18 20 0 0
1.6988 2.8629 1.2037 0.794 -0.598 -0.108 16 17 19 0 0
1.6499 2.8231 1.2229 0.650 -0.759 0.029 14 15 17 0 0
1.1749 2.8421 1.3793 0.997 0.005 0.081 14 18 21 0 0
1.1847 2.8217 1.3776 0.819 -0.559 -0.130 21 25 28 0 0
1.2299 2.7221 1.3701 0.889 -0.457 0.020 50 50 51 0 0
1.2210 2.7098 1.3739 0.904 -0.424 -0.057 42 41 46 0 0
1.2149 2.6964 1.3770 0.904 -0.424 -0.057 36 37 41 0 0
1.1188 2.6557 1.4120 0.016 -0.924 -0.382 35 36 43 0 0
1.8225 3.8028 1.1076 0.903 -0.101 -0.417 73 74 77 0 0
1.5467 3.1122 1.2511 0.426 -0.794 -0.433 22 22 24 0 0
1.5403 3.0993 1.2542 0.541 -0.725 -0.427 18 18 20 0 0
1.4651 3.1192 1.2778 0.160 -0.908 0.386 17 17 19 0 0
1.6676 2.8337 1.2315 0.503 -0.862 0.063 15 16 18 0 0
1.6507 2.8258 1.2377 0.586 -0.810 0.034 15 16 18 0 0
1.1884 2.8232 1.3923 0.823 -0.559 0.101 18 19 21 0 0
1.2318 2.7243 1.3852 0.953 -0.288 0.093 51 51 56 0 0
1.2251 2.7112 1.3884 0.981 -0.186 0.050 47 46 51 0 0
1.1351 2.6521 1.4228 0.171 -0.929 -0.330 28 28 34 0 0
0.9321 2.6361 1.4918 -0.145 -0.912 -0.383 168 168 166 0 0
1.9405 3.2515 1.1243 0.818 -0.491 -0.299 30 30 32 0 0
1.5547 3.1117 1.2641 0.546 -0.838 0.001 24 24 26 0 0
1.5446 3.1004 1.2683 0.640 -0.758 -0.127 22 22 24 0 0
1.5205 3.0959 1.2768 0.966 -0.104 -0.235 20 20 22 0 0
1.6964 2.8547 1.2355 0.597 -0.781 -0.183 23 21 24 0 0
1.6846 2.8446 1.2402 0.597 -0.781 -0.183 16 15 18 0 0
1.6684 2.8364 1.2463 0.551 -0.810 -0.202 16 17 19 0 0
1.6558 2.8266 1.2512 0.551 -0.810 -0.202 16 17 19 0 0
1.6434 2.8166 1.2561 0.663 -0.624 -0.415 15 16 18 0 0
1.6394 2.8029 1.2585 0.510 -0.818 -0.265 13 14 16 0 0
1.2312 2.7276 1.4010 0.953 -0.288 0.093 50 49 54 0 0
1.2249 2.7143 1.4041 0.981 -0.186 0.050 49 48 53 0 0
1.2218 2.6996 1.4063 0.991 -0.135 -0.015 45 44 49 0 0
0.9412 2.6355 1.5052 -0.166 -0.935 -0.315 147 147 145 0 0
1.9435 3.2533 1.1383 0.713 -0.576 -0.400 30 30 32 0 0
1.5598 3.1125 1.2780 0.657 -0.742 0.135 25 25 27 0 0
1.5474 3.1024 1.2829 0.657 -0.742 0.135 25 25 27 0 0
1.5236 3.0977 1.2913 0.971 -0.189 -0.146 22 22 24 0 0
1.5235 3.0817 1.2925 0.899 0.257 -0.353 17 17 19 0 0
1.6579 2.8287 1.2656 0.479 -0.822 -0.307 15 16 18 0 0
1.6480 2.8021 1.2710 0.638 -0.769 -0.048 14 15 17 0 0
1.1750 2.7865 1.4316 0.292 -0.908 -0.300 33 34 37 0 0
1.2193 2.7357 1.4204 0.942 0.161 0.294 50 50 54 0 0
1.2191 2.7037 1.4228 0.983 -0.176 -0.057 46 45 51 0 0
0.9130 2.6332 1.5312 -0.040 -0.989 -0.140 157 157 155 0 0
1.9492 3.2379 1.1526 0.451 -0.638 -0.624 31 31 33 0 0
1.5475 3.1057 1.2984 0.616 -0.729 0.297 27 27 29 0 0
1.5262 3.0998 1.3060 0.971 -0.189 -0.146 22 22 24 0 0
1.5241 3.0846 1.3078 0.917 0.144 -0.372 17 17 19 0 0
1.6921 2.8473 1.2680 0.510 -0.798 -0.321 27 26 28 0 0
1.6654 2.8284 1.2784 0.488 -0.821 -0.297 16 17 19 0 0
1.6386 2.7938 1.2900 0.781 -0.624 0.019 14 14 16 0 0
1.1714 2.7749 1.4497 0.219 -0.913 -0.343 39 40 44 0 0
1.2250 2.7203 1.4355 0.972 0.002 0.233 50 50 54 0 0
1.2206 2.7061 1.4381 0.982 -0.179 -0.067 47 46 52 0 0
1.1486 2.6235 1.4684 0.745 -0.372 -0.553 56 55 57 0 0
1.7727 3.9159 1.1793 0.997 -0.038 -0.071 169 169 167 0 0
1.7578 3.8568 1.1887 0.818 -0.530 -0.222 57 58 60 0 0
1.8693 3.4120 1.1825 0.593 0.751 -0.290 34 34 36 0 0
1.9565 3.2374 1.1653 0.642 -0.596 -0.481 31 31 33 0 0
1.9501 3.2250 1.1684 0.618 -0.563 -0.549 29 29 31 0 0
1.5336 3.0995 1.3192 0.967 -0.252 -0.039 25 25 27 0 0
1.5294 3.0854 1.3217 0.912 0.067 -0.404 18 18 20 0 0
1.5129 3.0771 1.3279 0.834 0.478 0.275 16 16 18 0 0
1.6534 2.8213 1.2983 0.404 -0.853 -0.331 17 17 19 0 0
1.6331 2.7838 1.3080 0.747 -0.304 -0.591 14 14 16 0 0
1.1778 2.7753 1.4636 0.235 -0.871 -0.432 33 33 37 0 0
1.2597 2.6769 1.4428 0.863 0.151 -0.481 45 44 49 0 0
2.0048 3.2467 1.1632 0.802 -0.597 0.027 32 32 34 0 0
1.9620 3.2221 1.1796 0.944 0.102 -0.313 30 30 32 0 0
1.9638 3.2055 1.1802 0.936 0.067 -0.346 28 28 30 0 0
1.5403 3.0996 1.3326 0.875 -0.318 0.366 30 30 32 0 0
1.5281 3.0732 1.3387 0.803 -0.392 0.449 17 17 19 0 0
1.6743 2.8305 1.3059 0.665 -0.719 -0.201 15 15 17 0 0
1.7654 3.8431 1.2188 0.727 -0.437 -0.530 50 50 52 0 0
1.9537 3.3411 1.1893 0.602 0.687 -0.408 18 18 20 0 0
2.0089 3.2637 1.1757 0.150 -0.977 -0.150 30 30 32 0 0
2.0012 3.2521 1.1792 0.629 -0.656 -0.418 32 32 34 0 0
1.5271 3.0931 1.3534 0.794 -0.420 0.439 21 21 23 0 0
1.5210 3.0799 1.3564 0.816 -0.393 0.424 17 17 19 0 0
1.6186 2.7964 1.3427 0.351 -0.914 -0.202 16 16 18 0 0
1.1549 2.5979 1.5161 0.932 -0.362 0.012 45 44 48 0 0
2.0119 3.2498 1.1907 0.789 -0.388 -0.477 32 32 34 0 0
1.1907 2.7791 1.5072 0.657 -0.737 -0.157 22 19 26 0 0
1.1791 2.7677 1.5120 0.657 -0.737 -0.157 31 29 35 0 0
1.7676 3.9349 1.2436 0.891 0.358 -0.279 170 170 170 0 0
2.0179 3.2500 1.2037 0.765 -0.521 -0.378 34 34 36 0 0
1.6737 2.8245 1.3525 0.855 -0.402 -0.328 29 28 31 0 0
1.6685 2.8112 1.3552 0.855 -0.402 -0.328 15 15 16 0 0
1.1352 2.6277 1.5530 0.416 -0.839 -0.351 32 31 37 0 0
1.1134 2.6043 1.5622 0.299 -0.803 -0.515 24 23 28 0 0
1.1008 2.5933 1.5674 0.159 -0.869 -0.469 42 41 41 0 0
1.8617 3.7975 1.2361 0.826 0.060 -0.561 63 64 66 0 0
2.0268 3.2487 1.2158 0.821 -0.189 -0.539 35 35 37 0 0
1.1405 2.6285 1.5673 0.520 -0.853 -0.056 27 26 29 0 0
1.1167 2.5899 1.5782 0.389 -0.786 -0.481 40 40 40 0 0
1.8573 3.7703 1.2552 0.993 0.039 -0.110 51 52 54 0 0
2.0224 3.2544 1.2321 0.924 -0.226 -0.309 39 39 41 0 0
1.1255 2.5893 1.5913 0.568 -0.750 -0.340 43 45 46 0 0
1.8577 3.7740 1.2706 0.995 0.021 -0.094 53 54 56 0 0
1.8662 3.3900 1.2932 0.631 0.762 0.144 25 25 27 0 0
1.8030 3.9465 1.2944 0.869 0.258 -0.423 171 171 171 0 0
1.8662 3.8064 1.2813 0.941 -0.293 -0.168 51 51 56 0 0
1.8640 3.7909 1.2830 0.905 -0.267 -0.332 45 45 49 0 0
1.7050 2.7604 1.4072 0.715 -0.638 -0.286 18 18 20 0 0
1.8119 3.9451 1.3073 0.776 -0.014 -0.630 171 171 171 0 0
1.7107 2.7609 1.4205 0.715 -0.638 -0.286 16 16 18 0 0
1.5459 2.7247 1.4814 0.789 0.356 -0.501 13 13 15 0 0
1.8783 3.7902 1.3096 0.967 -0.152 0.204 43 43 49 0 0
1.8299 3.9420 1.3331 0.766 0.158 -0.623 171 171 171 0 0
1.7019 2.7244 1.4566 0.712 -0.466 -0.524 26 26 29 0 0
1.7062 2.7751 1.4826 0.874 -0.236 -0.424 88 86 89 0 0
1.7157 2.7739 1.4947 0.870 -0.488 -0.073 90 88 89 0 0
1.3239 2.6286 1.6462 -0.103 -0.122 -0.987 42 43 46 0 0
1.7673 2.7846 1.4906 0.435 -0.637 -0.637 71 71 71 0 0
1.7635 2.7554 1.4937 0.785 -0.502 -0.364 95 93 94 0 0
1.3326 2.5805 1.6619 0.041 -0.767 -0.640 76 76 77 0 0
1.8865 3.7917 1.4016 0.828 -0.409 -0.383 69 69 71 0 0
1.7656 2.7575 1.5082 0.807 -0.290 -0.515 93 89 90 0 0
1.7596 2.7447 1.5111 0.593 -0.569 -0.569 91 89 90 0 0
1.4336 2.6050 1.6393 -0.016 -0.456 -0.890 42 42 47 0 0
1.3551 2.5743 1.6700 0.023 -0.883 -0.468 63 63 67 0 0
1.2370 2.5903 1.7124 -0.104 -0.993 0.063 53 52 56 0 0
1.8917 3.8094 1.4145 0.762 -0.059 -0.645 59 58 62 0 0
1.8840 3.7971 1.4181 0.992 -0.123 0.038 57 56 60 0 0
1.5240 3.3096 1.5799 0.751 0.655 0.083 17 17 19 0 0
1.7979 2.7614 1.5114 0.355 -0.511 -0.783 86 83 85 0 0
1.7927 2.7483 1.5140 0.497 -0.205 -0.843 90 87 89 0 0
1.4373 2.5908 1.6546 0.091 -0.538 -0.838 73 72 75 0 0
1.3514 2.5787 1.6870 0.140 -0.967 -0.215 55 54 57 0 0
1.2981 2.5845 1.7063 -0.100 -0.990 -0.100 52 52 55 0 0
1.8798 3.8543 1.4322 0.969 0.049 -0.242 75 74 77 0 0
1.8794 3.8376 1.4333 0.962 -0.267 -0.051 59 58 63 0 0
1.7865 2.7387 1.5322 0.370 -0.506 -0.779 91 89 90 0 0
1.8891 3.8526 1.4448 0.988 0.154 -0.012 68 68 71 0 0
1.8823 3.8398 1.4481 0.975 -0.204 0.088 54 53 58 0 0
1.8790 3.8248 1.4502 0.937 -0.293 0.190 45 44 49 0 0
1.8030 2.7651 1.5399 0.039 -0.668 -0.743 89 87 90 0 0
1.7351 2.7030 1.5688 0.278 -0.786 0.552 85 83 85 0 0
1.4804 2.5789 1.6708 0.703 -0.689 0.176 50 49 54 0 0
1.7972 2.9267 1.5481 0.051 -0.032 -0.998 14 14 16 0 0
1.8650 2.8015 1.5299 0.489 -0.871 -0.043 89 87 89 0 0
1.8377 2.7832 1.5412 0.426 -0.864 -0.268 94 92 95 0 0
1.8258 2.7733 1.5462 0.300 -0.857 -0.420 90 88 91 0 0
1.5489 2.6001 1.6597 0.379 -0.886 0.267 57 57 59 0 0
1.5189 2.5970 1.6711 0.482 -0.840 0.249 50 50 50 0 0
1.5087 2.5857 1.6756 0.886 -0.412 0.215 49 49 50 0 0
1.6334 3.3007 1.6041 0.157 -0.911 0.381 21 21 23 0 0
1.8544 2.7940 1.5496 0.643 -0.763 -0.062 108 107 108 0 0
1.8454 2.7828 1.5536 0.574 -0.812 -0.105 91 89 90 0 0
1.8320 2.7735 1.5592 0.341 -0.915 -0.217 91 89 90 0 0
1.5795 2.6213 1.6627 0.326 -0.839 0.435 62 62 62 0 0
1.5681 2.6106 1.6676 0.538 -0.750 0.384 57 57 57 0 0
1.5391 2.6071 1.6786 0.630 -0.506 0.590 45 45 47 0 0
1.5135 2.6023 1.6886 0.626 -0.399 0.670 52 52 55 0 0
1.9118 2.8939 1.5376 0.985 -0.001 0.172 15 15 17 0 0
1.8590 2.8880 1.5579 0.135 0.143 -0.980 31 30 32 0 0
1.8460 2.8010 1.5677 0.374 -0.785 0.494 108 106 106 0 0
1.5927 2.6342 1.6726 0.312 -0.812 0.493 54 54 54 0 0
1.8898 3.9535 1.5030 0.822 -0.535 -0.194 174 174 174 0 0
1.9532 2.9703 1.5330 0.567 -0.720 0.401 13 13 15 0 0
1.9450 2.9587 1.5368 0.431 -0.872 0.230 13 13 15 0 0
1.9256 2.9526 1.5445 0.719 -0.694 0.032 12 12 14 0 0
1.9159 2.9418 1.5488 0.742 -0.657 -0.133 13 13 15 0 0
1.9105 2.9288 1.5515 0.843 -0.489 -0.224 16 16 18 0 0
1.9133 2.9119 1.5514 0.959 -0.267 -0.098 17 17 19 0 0
1.9090 2.8984 1.5538 0.985 -0.001 0.172 21 21 23 0 0
1.9074 2.8837 1.5552 0.974 0.004 -0.228 34 34 36 0 0
1.9036 2.8700 1.5574 0.208 0.201 -0.957 64 63 65 0 0
1.8207 2.8003 1.5927 0.357 -0.819 0.449 104 101 102 0 0
1.8216 2.7689 1.5940 0.352 -0.712 -0.608 70 68 71 0 0
1.8167 2.7557 1.5966 0.145 -0.342 -0.929 51 49 52 0 0
2.0160 3.3845 1.5019 0.682 -0.044 0.730 37 36 40 0 0
1.9691 2.9501 1.5434 0.141 -0.975 0.172 13 13 16 0 0
1.9406 2.9485 1.5543 0.248 -0.967 -0.052 13 13 16 0 0
1.9302 2.9380 1.5588 0.306 -0.898 -0.316 14 13 15 0 0
1.9208 2.9115 1.5639 0.792 -0.193 -0.579 25 25 27 0 0
1.9417 2.8550 1.5590 0.592 -0.805 -0.021 95 94 96 0 0
1.8944 2.8465 1.5774 0.432 -0.611 -0.663 108 106 109 0 0
1.8879 2.8341 1.5806 0.507 -0.638 -0.580 113 111 114 0 0
1.8317 2.7983 1.6039 0.363 -0.928 -0.091 68 67 68 0 0
1.8310 2.7677 1.6059 0.049 -0.307 -0.950 44 43 46 0 0
1.8185 2.7425 1.6120 0.217 -0.568 -0.794 35 34 38 0 0
1.9961 2.9556 1.5480 0.114 -0.975 0.192 14 14 16 0 0
1.9028 2.8457 1.5896 0.591 -0.752 -0.292 102 100 103 0 0
1.8986 2.8322 1.5919 0.507 -0.638 -0.580 101 100 103 0 0
1.8626 2.7871 1.6081 0.029 -0.040 -0.999 41 41 44 0 0
1.8541 2.7756 1.6120 0.043 -0.144 -0.989 38 37 42 0 0
2.0993 3.1871 1.5113 0.798 -0.601 -0.030 33 34 36 0 0
2.0931 3.1747 1.5144 0.793 -0.583 0.174 42 43 45 0 0
1.9326 2.8502 1.5932 0.817 -0.498 0.291 92 90 91 0 0
1.9205 2.8404 1.5984 0.334 -0.681 -0.652 87 85 88 0 0
1.7986 2.6958 1.6529 0.145 -0.887 -0.439 53 53 55 0 0
1.9319 3.8074 1.5589 0.993 -0.116 0.009 43 42 46 0 0
1.9220 3.7965 1.5633 0.752 -0.632 -0.188 41 40 44 0 0
1.9132 3.7849 1.5673 0.752 -0.632 -0.188 38 37 42 0 0
2.0035 3.3859 1.5532 -0.098 -0.139 -0.985 22 22 24 0 0
2.1015 3.1893 1.5256 0.798 -0.601 -0.030 33 34 36 0 0
2.0933 3.1780 1.5294 0.889 -0.451 0.079 33 34 36 0 0
1.9372 2.8049 1.6091 0.058 -0.059 -0.997 34 33 38 0 0
0.8778 2.7855 2.0191 0.620 0.641 -0.452 52 51 56 0 0
2.0173 3.3336 1.5661 -0.204 -0.211 -0.956 29 29 31 0 0
2.1273 3.2578 1.5274 0.315 -0.636 -0.705 28 28 30 0 0
2.0812 3.1878 1.5488 0.782 -0.356 0.511 34 34 35 0 0
1.9654 2.8408 1.6115 0.487 0.152 -0.860 36 33 36 0 0
1.9647 2.7951 1.6142 0.175 0.007 -0.984 21 22 26 0 0
1.9038 2.7313 1.6411 0.299 -0.780 0.550 35 34 39 0 0
1.8825 2.7256 1.6496 0.356 -0.766 0.536 47 46 51 0 0
0.8787 2.7715 2.0365 0.347 0.239 -0.907 48 48 52 0 0
2.0329 3.3607 1.5742 0.034 0.273 -0.961 36 35 40 0 0
2.0261 2.9073 1.5998 0.437 -0.789 0.432 72 72 72 0 0
1.9843 2.8350 1.6197 0.460 0.147 -0.876 23 21 26 0 0
1.9287 2.7535 1.6455 0.375 -0.704 0.603 37 36 41 0 0
1.9102 2.7467 1.6530 0.277 -0.822 0.498 47 46 51 0 0
0.9804 2.6835 2.0184 -0.141 0.078 -0.987 47 47 51 0 0
1.9874 2.8829 1.6313 0.597 0.396 -0.697 21 21 26 0 0
2.0020 2.8451 1.6275 0.524 0.146 -0.839 18 16 22 0 0
2.0057 2.8279 1.6269 0.524 0.146 -0.839 17 16 22 0 0
2.0101 2.8105 1.6261 0.440 -0.064 -0.896 16 17 22 0 0
2.0080 2.7962 1.6276 0.495 -0.083 -0.865 16 18 22 0 0
1.0515 2.6745 2.0079 0.242 0.666 -0.706 43 47 50 0 0
1.1583 2.5667 1.9715 -0.241 -0.548 -0.801 61 61 60 0 0
1.1219 2.5487 1.9866 -0.128 -0.990 0.062 82 82 83 0 0
1.9945 2.8981 1.6431 0.609 0.473 -0.637 16 17 18 0 0
2.0064 2.8769 1.6395 0.436 0.399 -0.806 16 17 20 0 0
2.0134 2.8581 1.6376 0.464 0.187 -0.866 16 17 21 0 0
1.9952 2.7900 1.6481 0.517 -0.829 -0.211 30 30 36 0 0
1.9800 2.7818 1.6545 0.298 -0.952 0.066 42 42 46 0 0
1.9610 2.7754 1.6623 0.245 -0.954 0.170 50 49 54 0 0
1.1938 2.5396 1.9753 -0.232 -0.771 -0.593 88 87 88 0 0
1.1176 2.5534 2.0046 -0.156 -0.988 -0.007 93 93 93 0 0
0.8764 2.5814 2.0980 0.233 -0.972 -0.015 130 129 127 0 0
1.9177 3.7342 1.6482 0.505 -0.616 -0.605 40 39 44 0 0
2.1423 3.2951 1.5808 0.691 0.185 -0.698 50 50 52 0 0
2.1492 3.2281 1.5814 0.597 -0.720 -0.355 44 44 46 0 0
2.1496 3.2122 1.5820 0.788 -0.400 -0.468 59 59 59 0 0
2.0150 2.8913 1.6506 0.467 0.438 -0.768 14 15 17 0 0
2.0303 2.8378 1.6472 0.413 -0.110 -0.904 14 15 20 0 0
1.9795 2.7852 1.6698 0.400 -0.840 0.367 49 48 54 0 0
0.8745 2.5851 2.1155 0.409 -0.831 -0.378 128 127 125 0 0
1.9126 3.9283 1.6570 0.579 -0.814 0.046 175 175 175 0 0
1.8995 3.9192 1.6626 0.579 -0.814 0.046 162 162 164 0 0
1.9076 2.7756 1.7139 0.229 -0.800 0.554 45 44 49 0 0
1.8965 3.8395 1.6838 0.973 -0.147 -0.179 66 66 70 0 0
1.9098 3.7974 1.6805 0.850 0.289 -0.440 59 58 60 0 0
2.0409 2.8543 1.6726 0.904 -0.179 -0.389 44 43 49 0 0
1.1724 2.5407 2.0330 -0.205 -0.967 -0.153 88 86 87 0 0
1.9077 3.8537 1.6949 0.938 -0.346 -0.020 73 74 77 0 0
1.8921 3.8461 1.7014 0.851 -0.321 -0.416 68 70 73 0 0
2.0487 2.8690 1.6840 0.744 -0.540 -0.393 47 46 51 0 0
1.2822 2.5324 2.0060 -0.144 -0.985 0.092 87 87 85 0 0
1.2173 2.5421 2.0315 -0.145 -0.988 0.050 77 77 78 0 0
1.8981 3.8635 1.7145 0.928 -0.324 -0.183 55 56 60 0 0
1.8911 3.8507 1.7179 0.943 -0.266 -0.202 52 55 58 0 0
2.0528 2.8702 1.6975 0.711 -0.652 -0.264 48 47 52 0 0
2.0402 2.8455 1.7037 0.566 -0.822 0.056 40 40 45 0 0
1.9865 2.8096 1.7269 0.481 -0.876 -0.028 49 49 51 0 0
1.2865 2.5336 2.0205 -0.142 -0.983 0.115 74 74 73 0 0
0.8735 2.5643 2.1849 0.755 -0.655 -0.037 175 175 173 0 0
2.0946 3.0074 1.6898 0.255 -0.152 -0.955 15 14 16 0 0
2.0172 2.8290 1.7290 0.611 -0.791 0.043 76 76 79 0 0
2.0044 2.8196 1.7345 0.605 -0.788 0.114 35 35 38 0 0
1.2461 2.5366 2.0530 -0.097 -0.989 0.113 64 63 68 0 0
0.8757 2.5664 2.2010 0.761 -0.647 -0.043 167 167 165 0 0
2.0173 3.1923 1.7282 0.323 -0.445 0.835 43 43 47 0 0
1.3150 2.5281 2.0418 -0.099 -0.990 0.100 62 63 64 0 0
1.2401 2.5419 2.0716 -0.134 -0.989 0.068 65 64 69 0 0
1.9037 3.9236 1.7584 0.777 -0.264 -0.572 82 83 84 0 0
1.9002 3.9086 1.7605 0.777 -0.264 -0.572 71 73 72 0 0
1.8883 3.8643 1.7672 0.708 -0.351 -0.613 44 44 49 0 0
1.8819 3.8510 1.7704 0.916 -0.324 -0.235 38 37 43 0 0
1.2479 2.5417 2.0848 -0.134 -0.989 0.068 60 61 65 0 0
0.9390 2.5317 2.2109 0.898 0.426 0.112 175 175 175 0 0
1.8977 3.8454 1.7805 0.727 -0.620 -0.294 41 40 46 0 0
1.9893 2.8982 1.7833 0.038 -0.876 0.480 15 15 17 0 0
1.4104 2.5463 2.0509 0.101 -0.803 -0.587 68 69 73 0 0
0.9288 2.5415 2.2486 0.888 0.436 0.145 152 152 152 0 0
1.3448 2.5439 2.0942 -0.054 -0.997 0.061 58 59 63 0 0
0.9231 2.5466 2.2678 0.888 0.436 0.145 134 134 134 0 0
2.1744 3.0329 1.7477 0.818 -0.383 -0.429 50 49 55 0 0
1.4471 2.5373 2.0685 0.162 -0.421 -0.892 84 83 87 0 0
1.3548 2.5428 2.1064 -0.029 -0.995 0.100 55 56 60 0 0
0.9158 2.5524 2.2876 0.885 0.429 0.182 120 120 120 0 0
0.9266 2.5317 2.2840 0.885 0.429 0.182 161 161 161 0 0
2.1909 3.0276 1.7563 0.881 -0.186 -0.434 32 31 36 0 0
1.1661 2.9696 2.1842 -0.299 -0.902 -0.312 18 18 20 0 0
1.3539 2.5461 2.1230 -0.075 -0.996 0.051 55 56 60 0 0
0.9091 2.5579 2.3072 0.885 0.429 0.182 108 108 108 0 0
0.9199 2.5373 2.3036 0.885 0.429 0.182 145 145 145 0 0
0.9314 2.5164 2.2996 0.893 0.402 0.202 179 179 179 0 0
2.1968 3.0434 1.7685 0.992 0.023 -0.123 29 29 33 0 0
0.9131 2.5428 2.3233 0.885 0.429 0.182 129 129 129 0 0
0.9244 2.5220 2.3194 0.893 0.402 0.202 174 174 174 0 0
2.2101 3.0553 1.7777 0.862 -0.458 0.216 36 35 40 0 0
1.4556 2.5585 2.1126 0.388 0.567 -0.726 74 75 77 0 0
0.9105 2.5468 2.3413 0.991 -0.081 0.103 116 116 116 0 0
0.9174 2.5276 2.3392 0.893 0.402 0.202 165 165 165 0 0
1.4714 2.5391 2.1229 0.387 0.123 -0.914 54 55 59 0 0
1.4248 2.5423 2.1424 0.018 -0.993 0.119 54 55 59 0 0
0.9119 2.5492 2.3578 0.870 -0.489 -0.057 107 107 107 0 0
0.9139 2.5319 2.3576 0.916 0.385 0.112 152 152 151 0 0
1.7153 2.5659 2.0351 0.095 -0.827 -0.554 38 37 43 0 0
1.6422 2.5500 2.0665 0.460 -0.874 -0.158 63 62 67 0 0
1.6261 2.5412 2.0736 0.393 -0.879 -0.270 72 71 76 0 0
1.4888 2.5350 2.1319 0.399 0.106 -0.911 54 55 59 0 0
1.4385 2.5396 2.1529 0.020 -0.993 0.115 55 56 60 0 0
0.9098 2.5364 2.3763 0.983 0.164 -0.078 135 136 133 0 0
1.6432 2.5526 2.0819 0.503 -0.665 -0.553 70 70 73 0 0
1.5163 2.5267 2.1367 0.234 -0.909 -0.346 56 57 61 0 0
0.9107 2.5391 2.3930 0.983 0.164 -0.078 118 120 118 0 0
0.9175 2.5199 2.3908 0.972 0.210 -0.100 175 176 174 0 0
1.7266 2.5981 2.0607 0.292 -0.928 0.230 53 53 55 0 0
1.6674 2.5766 2.0867 0.553 -0.829 0.083 66 66 68 0 0
1.6525 2.5672 2.0933 0.531 -0.840 -0.111 69 69 71 0 0
1.6534 2.5512 2.0935 0.557 -0.609 -0.564 72 72 74 0 0
0.9520 2.5594 2.3919 0.438 -0.858 -0.267 81 80 82 0 0
0.9202 2.5550 2.4056 0.853 -0.418 -0.311 89 89 89 0 0
0.9073 2.5433 2.4115 0.958 0.225 -0.177 105 107 105 0 0
0.9114 2.5252 2.4104 0.958 0.225 -0.177 156 157 155 0 0
1.8298 2.6803 2.0296 -0.085 -0.441 -0.894 26 24 29 0 0
1.7972 2.6636 2.0441 -0.226 -0.533 -0.815 39 37 42 0 0
