ply
format ascii 1.0
element vertex 725
property float x
property float y
property float z
property uchar diffuse_red
property uchar diffuse_green
property uchar diffuse_blue
end_header
0.5972292844414323 2.724160704120369 0.12570250441212513 55 55 57
0.5769680310718757 3.164506922725569 0.08099114444026835 43 42 46
0.6153005064585322 3.2546028605240207 0.06644517956843614 44 44 47
0.6053557731166879 3.2659818471144924 0.06648699187964015 66 66 66
0.5961750269034902 3.278634089485476 0.06629499307712003 84 84 82
1.094390980948945 2.367501620741621 0.11472959897092475 171 171 171
0.9699459604019206 2.3176989707849143 0.13569919939543257 73 73 73
0.9596404076561674 2.326921270604428 0.13601903136625504 63 63 64
0.9558866433260439 2.3449678206015525 0.13457650244649424 56 56 56
0.8613476793071149 2.263255605931965 0.15516431638493647 45 44 47
0.7961674839311191 2.243084246609402 0.16551978441188725 40 40 42
0.7864635342285987 2.252671412115886 0.16572506982358248 52 52 54
0.7744517680035843 2.259081666773752 0.16655841883909298 65 65 67
0.7257272909188353 2.2375564366488145 0.1749837665453506 60 58 61
0.731296709065434 2.2914000802350594 0.16856651133340078 65 63 66
0.7286178663287988 2.3108450535175376 0.16684007634147113 68 66 69
0.7276804997147129 2.3328149563013123 0.16462615695188593 72 70 71
0.7256710330440866 2.353361348384799 0.16269845101768568 72 70 71
0.7145184014288208 2.361029431576117 0.1632900122812721 66 64 65
0.6628533029187316 2.428940265395775 0.16259253418723515 41 41 43
0.6330329147838177 2.4095232741718204 0.16841171149290696 42 42 44
0.6400339695489022 2.5645066352069192 0.1510783031490054 53 54 54
0.6408096644381088 2.5901714482482427 0.14825628974329122 54 55 54
0.640646527363883 2.6145516148266505 0.14568895459805797 54 55 55
0.6402924560272633 2.638753680931552 0.14316458685091404 54 54 56
0.5638187292002277 2.5978351778176654 0.15714557920796024 54 54 56
0.5646270413160439 2.6737188579720237 0.14898884648184108 52 52 54
0.6141343435304942 3.2521116254522076 0.08135472930696674 41 42 45
0.6030687860200861 3.2616431749359123 0.08173751471917068 61 62 62
0.5915140181493916 3.270368963557822 0.08226748234720851 64 66 63
1.0960257804760625 2.3690707792001073 0.1282671863718128 165 165 163
1.0061816467211133 2.319442696244199 0.14470192134059565 83 83 83
0.8732175584139221 2.2558885735861463 0.1679865343966409 48 46 49
0.8470451178588938 2.243304551067893 0.17257761777506642 44 44 46
0.8261129089392726 2.237702561151823 0.17578131486583978 44 44 46
0.7871191225552395 2.2301346932934174 0.18144848576733402 46 46 48
0.7799816601043006 2.2432066806135773 0.1809690884704825 57 57 57
0.7682243819836191 2.2499378858476833 0.18173226719055666 55 55 56
0.7545583804930186 2.2540142780677606 0.18301250636713992 58 58 60
0.7239449281575802 2.280567583051252 0.1840526631363447 58 56 59
0.7187409872605486 2.296434650452705 0.183038390682486 64 62 65
0.7298298996549729 2.3352838112020717 0.17757685586711214 70 69 71
0.7221945744039742 2.347894012617256 0.1772081250324425 69 69 70
0.7099100244637133 2.3539413714079886 0.17810894219062617 66 65 67
0.6935515360942933 2.3541760730949672 0.18012870863351158 63 63 63
0.6817971570803114 2.4557937868800623 0.17093688070895285 47 47 48
0.6234334743831357 2.563761749793837 0.1669038025570247 54 56 55
0.6224185936640654 2.5867793176413003 0.16461583900314036 55 57 56
0.6269307106457896 2.618175101549375 0.1607581757090059 55 57 57
0.6201508107170999 2.632753275540974 0.16007607667407847 54 55 55
0.5736125024503322 2.5873944333131096 0.17065080951200262 53 55 55
0.5598370509829664 2.6909173655107437 0.16151168504520158 50 50 52
0.5988244289846512 3.254090498235324 0.0975561769321101 53 55 54
0.587542431628902 3.2632412717500925 0.09800611833496439 56 58 57
0.5798525639621495 3.2783317761781694 0.09738399267405516 125 123 123
1.1049223194146003 2.3571018532538686 0.142317536835211 157 157 155
1.0723121877414692 2.3373123246276237 0.14841036300039917 117 117 115
1.0230972390468303 2.295421973834749 0.15885220455635551 89 89 87
1.03518415879561 2.334331222122461 0.1533204582575648 80 80 80
1.0157847153901394 2.331624083148849 0.15600516411213156 67 67 67
0.7768998197539037 2.192847769724799 0.19999614537021781 45 45 47
0.7781891308114816 2.2173492845122817 0.19729618892508627 53 53 54
0.770860020989075 2.2301160710040975 0.19688084769776235 54 54 55
0.7553043527766353 2.2315675918380764 0.1986580732096746 49 49 51
0.7475631507286058 2.2437808600365203 0.19835118554237252 50 49 52
0.7527035951626424 2.343516575459413 0.18737412051633923 59 57 59
0.7325057976432258 2.338493170189886 0.19039789871235666 59 59 61
0.7171993075577501 2.3402824783235485 0.19210922531977076 58 58 60
0.6174444332886772 2.48144010528873 0.1898367504096422 58 58 58
0.611630494727765 2.4970294801805526 0.188941013774198 58 60 59
0.6032784198974573 2.5332225988150796 0.1862237301372615 58 60 59
0.6055363252240477 2.5610199792897377 0.18306204520250718 58 60 59
0.6076100901344267 2.5886738623142302 0.17993805658880746 57 59 58
0.5984281949316607 2.599540181298259 0.17994934869457943 56 58 57
0.5522719176281701 3.149721883749666 0.12862941498185546 45 47 46
0.5854969977202187 3.259288965293876 0.11315274544054792 54 56 55
0.5731744477973499 3.2667049031057562 0.11391095443177633 103 102 101
1.0806353766312968 2.3246998686776337 0.1625292237020461 103 103 101
1.0561857910610168 2.315533701966225 0.1664723641217732 82 82 80
1.0356775869836965 2.3114434546805893 0.16941125220476255 75 75 73
1.0190914307768975 2.3124556380054493 0.17134554777677605 66 66 66
0.7685880665856234 2.203646980379022 0.21327160644022147 53 53 55
0.7615259107826408 2.3553313262225473 0.19860116349961507 61 60 60
0.7338292312413184 2.339798540711731 0.20359546366815373 60 60 62
0.637301826571512 2.485941934840953 0.2004854349257085 56 56 56
0.6309471705261434 2.5007600448496112 0.19974831463812442 58 58 58
0.6123988443056834 2.546231855395114 0.19736936729419968 61 63 62
0.6026235551780725 2.5561150587461094 0.19755806870702597 61 63 62
0.5955671629419423 2.570077603025236 0.19699481458586604 61 63 62
0.5878673227126113 2.58310858476526 0.19660604955309136 60 62 61
0.5443016334458797 2.6910659127672867 0.1909001770458016 47 47 49
0.575606483823818 2.764683729143608 0.17951243840833875 46 46 48
0.568878577039545 3.259019591950839 0.1297005110626834 87 85 85
0.5463732744855825 3.2494943369984997 0.1334415368654423 156 154 156
0.9992930602392653 2.285679352446934 0.1902318498918552 55 55 56
1.0801978509846455 2.5100185084692597 0.157672641790362 39 40 42
0.9603217106370643 2.371850579553985 0.1862588031655586 41 42 44
0.5976204966326507 2.4752266043652607 0.21998182087523496 59 60 59
0.5690383974672504 2.4570461292953856 0.2253036069072259 59 61 60
0.5792929185307583 2.496437455402482 0.22006795785797506 60 62 61
0.5717376785397498 2.509462345178933 0.2196702192964703 61 63 62
0.46505529347743635 2.9791824962715143 0.1851304022026818 52 53 54
0.5665017321733079 3.254508908599891 0.14490883737031524 72 71 71
0.5423348121715021 3.24221353138062 0.149097184406509 151 149 151
1.1380759726144845 2.3296699587447227 0.1827860617443391 115 114 112
0.9691721392364631 2.3832311490477274 0.19783042476256102 41 41 43
0.6056427101728216 2.486520184696728 0.2314087653891247 54 54 54
0.5845712408919546 2.479514012153095 0.23465393088884945 54 54 54
0.5723560127743901 2.485567863701193 0.23552400040523427 56 56 56
0.5804041164139844 2.521842105955697 0.2309259266669948 60 60 60
0.561799745034712 2.518395016442958 0.23351736180110078 64 64 64
0.5420545447111416 2.513147562838623 0.23642654581354738 64 64 64
0.5169408352053917 2.499705622356583 0.24080323551842175 64 64 64
0.5483174964292981 3.251564596288751 0.16185535053560335 141 140 140
1.1525338173516184 2.32492039035802 0.19543869874460823 104 102 103
0.9616494418590795 2.3492970492942318 0.21588451497131306 42 42 44
0.970562350164742 2.384535009782528 0.21133855863722276 42 42 44
0.7508952009586687 2.155151672039201 0.26028300354847833 56 56 57
0.5812591715355487 2.4982544164904974 0.24671834001827186 49 49 49
0.5628771828984653 2.495133701669975 0.2492271049738614 52 52 52
0.5444282149299884 2.4918292316310904 0.2517620300869023 56 56 56
0.5770160397346029 2.5651312970552134 0.24062381375848269 61 61 61
0.5570641028826494 2.559658979532947 0.24355269600421361 64 64 64
0.4874570732714376 2.6769391541286285 0.24030732033996194 42 42 44
0.5073471188423728 2.7332632866121593 0.23236543487011646 40 40 42
0.5179374377036179 2.7753468831803194 0.22694281659521276 38 38 40
0.4758158467867428 3.0223556651687904 0.2075992906896853 48 48 48
0.5489021337825224 3.251956342484746 0.17618186265368632 128 128 128
0.53909938892746 3.2634704050478254 0.17621869370120716 165 163 164
0.9657998639093938 2.3543106897855033 0.22865839382586717 43 43 45
0.9711312825765265 2.3847295338880534 0.22506022959028876 42 42 44
0.5773873124196898 2.565133265615232 0.25419737127708536 51 51 51
0.5557392879143905 2.557107001693055 0.2575487538129549 56 56 56
0.5070823856286762 2.5080953299243975 0.26810082707430066 60 60 60
0.49440284267118484 2.5133057346213636 0.26909751658757564 64 64 64
0.4772592817808814 2.511689104208774 0.2712894988348524 64 64 64
0.5426403679914176 3.2133180188699066 0.19512987714179983 56 56 56
0.5486637009737028 3.2509821809543347 0.19074326728958418 107 107 107
0.5371885977938737 3.2597100660630822 0.19125411399151404 158 156 157
1.146575406192852 2.293261866809439 0.22703991816359737 79 79 79
0.9655020322448331 2.353337599521651 0.24255460009243004 43 43 45
0.5000625388026508 2.5213500098435717 0.2811261214463495 57 56 58
0.4856549406819055 2.523933271520839 0.28257203714152224 61 60 62
0.4657821849778685 2.518116864379033 0.2854692196716267 64 63 65
0.5314140709897186 3.1941813726644295 0.2126777908156786 60 59 60
0.8790928460598147 2.2137731828776834 0.2796550698719841 43 43 45
0.9928539589436816 2.3895682467083263 0.24969172546389823 42 42 44
0.5105577422769613 2.5367340064742727 0.291927263845504 47 45 48
0.49917933622761823 2.54398902038899 0.2925642493961671 53 51 54
0.4791145738117484 2.5379529917208594 0.2954765790730889 59 58 60
0.46063986330174234 2.534252029648637 0.29798170324119544 65 65 65
0.4404251218609184 2.5277840884942675 0.30095255259023324 70 70 70
0.4835544600566455 3.060244474055944 0.24533427190889576 40 38 41
0.8726554739003947 2.181978671152139 0.29688610067751225 42 42 44
0.8586157799693133 2.185754672100054 0.2981537553205893 42 42 44
0.8398910323886714 2.183193333770003 0.3005568775763674 42 42 44
0.5116618559791479 2.562454350468728 0.30290579806836726 41 39 43
0.4918825211221233 2.5569230295779484 0.30570924978154695 48 47 49
0.4719379030166656 2.5510370834206832 0.308565048895275 54 54 54
0.4504327354144776 2.542645109632289 0.3118361144395711 63 63 63
0.43815671194856565 2.548390473116521 0.3127153658894213 70 70 70
0.4365819410338101 2.5707057059860796 0.3108046449020903 71 71 71
1.2672439447439652 2.3545458609086167 0.24921410348689027 146 146 146
0.8518517931381777 2.1536206746182542 0.31535295981129147 44 44 46
0.8586209047757819 2.185202162342855 0.31165569329249954 43 43 45
0.5282467682847216 2.5871656726461603 0.3122735283619048 37 35 40
0.5074333096982108 2.5801438762759936 0.31530561381937117 39 38 41
0.4856215018600578 2.571478838047533 0.3186040318349539 43 43 43
0.4682073464919443 2.5694601952107226 0.3207840537526674 48 48 48
0.4512196396503376 2.5680239157115756 0.32286137393249953 59 59 59
0.44131234111382756 2.5774919470044475 0.3231192129257708 69 69 69
0.4320424312109681 2.5879563908103105 0.3232118908923701 69 69 69
1.2379045839313734 2.316690404508888 0.2700896757151434 105 105 106
1.1903349981042177 2.2788833417834504 0.27893619251480645 67 67 68
1.147743413764087 2.2471255676871347 0.28666586952449635 64 64 66
1.1154807947468512 2.228344777703014 0.2920393721689581 63 63 65
0.8295106635886892 2.1232131813005135 0.3340690257786555 44 44 46
0.8259657458112165 2.1408642058253786 0.3328595191220868 44 44 46
0.5271693226614436 2.5849708332689785 0.326198666164076 51 51 53
0.5207671890860932 2.599972453494614 0.32555507863297434 42 42 44
0.49776223414745324 2.5895507336367998 0.32911551334315353 42 42 44
0.47693416105017605 2.582343937163666 0.33213555247387094 40 40 42
0.46048368806016726 2.581786050769391 0.3340520968692638 42 42 44
0.45154608416578323 2.5928080835625766 0.33405938494867327 55 55 57
0.44283185547396786 2.6041932542839357 0.3340081863023623 67 67 69
0.42911492778860993 2.6077867247757016 0.33523570942209185 65 65 67
0.4213613396938245 2.620685794679492 0.3349373487208838 56 56 58
1.223919147205712 2.298341127981679 0.28732971642637306 76 76 78
1.1826735706685692 2.268537268809594 0.29464804253012067 61 61 63
1.1433222701408832 2.2408933964183033 0.3015590060479715 61 61 63
1.1069222767841933 2.2167884531540736 0.3078196549641426 63 63 65
0.8607168915077447 2.141897647185702 0.34222688635315324 46 46 48
0.8083986413494961 2.094452763219647 0.35237805470416056 45 45 47
0.780331101533421 2.101405892128503 0.3549053871653188 43 43 45
0.4821746241600193 2.540434893084058 0.34886547439773063 46 46 48
0.4812120965932589 2.5636150298046254 0.34688599343227106 44 44 46
0.46415895305250876 2.562130605113926 0.34893569402976526 40 40 42
0.4503948801999076 2.5656538221904555 0.3501648567730531 38 38 40
0.44441752613004093 2.5812095173127574 0.3494354831389513 40 40 42
0.43652209891326343 2.5938294502484402 0.3491860129281435 48 48 50
0.43453838295734526 2.6157047247621836 0.3474387851206161 61 61 63
0.4247429850320954 2.62543522789918 0.34766301168660285 59 59 61
0.40305007324803843 2.6415992126313608 0.348644581808312 50 50 51
1.2079590856079674 2.2774873259241604 0.30493891387290134 63 62 68
1.1657805281846811 2.246430135290834 0.3123920849608328 57 57 60
1.1296318227357287 2.222811661695708 0.31851339103484233 61 61 63
1.0937982764418765 2.1993775085375047 0.32458324719125126 65 65 67
0.8405624556943542 2.114507338711161 0.3603075024978504 46 46 48
0.4655665379324083 2.5390705736033565 0.36433488686353294 46 46 48
0.4504335341337451 2.540457920464928 0.36589600640127484 43 43 45
0.4402337662563558 2.5494123333120546 0.3662359171951485 40 40 42
0.42897592941642304 2.556728135134443 0.3668391395657082 40 40 42
0.42266124666227434 2.5717222187073046 0.36621017081557544 42 42 44
0.43275468966440034 2.6123717727862577 0.36147614854209054 43 43 45
0.425231130003632 2.625651370546638 0.36113401611324353 55 55 56
0.41176599248193146 2.6296225841114746 0.3622799919470777 57 57 57
0.4015666632328383 2.638711380866929 0.36260791761271793 52 52 53
1.1981340087894847 2.2644272037444715 0.32110566911168503 56 55 60
1.1536113759428468 2.2303452744482613 0.3289993257915125 56 56 59
1.0772880503244433 2.2000224914215636 0.3400697783376514 57 56 60
0.43420584148758734 2.514937732857492 0.3833883299152113 50 50 52
0.4228081650137938 2.5219544123530464 0.3840303801228149 43 43 46
0.41673458765244464 2.5372102054243157 0.3833638343813234 39 39 42
0.4131410986263866 2.556369305428643 0.3820819919167498 39 39 41
0.43032845963394606 2.6080363801686963 0.37566188432338976 36 36 38
0.4255743565593628 2.6256403926824774 0.3746442002927657 43 43 45
0.4139383371495795 2.63248936243245 0.37532721652841994 51 51 52
0.40692888905473534 2.646622458695422 0.3748621808076905 54 54 55
0.5579102157400144 3.261687431154499 0.30434675078287915 69 68 71
1.2381080563818674 2.2918772131884113 0.32828539092669 81 83 83
1.185689014805296 2.2480427563338834 0.337794304166975 53 53 55
1.1394490448691346 2.2117238533691643 0.3459795481552648 58 57 60
1.0937589230868712 2.19817834796576 0.3521383837526582 64 63 67
0.7471423581106967 2.0330035944833935 0.40425006688731757 44 44 46
0.40112240725778747 2.4879220403990394 0.40275472761460646 42 41 46
0.40275436969201883 2.515000518628731 0.4002384332888318 35 35 38
0.40516745692439704 2.5434237312077945 0.3975207311010371 37 37 39
0.39932852990467493 2.559107842097835 0.39680408508731624 37 37 39
0.4070435021189982 2.5960690332028684 0.39277021917061383 39 39 41
0.41226396008177524 2.6293095616411577 0.3893300083390371 41 41 43
0.40458108464831377 2.642371061209631 0.38904116608508393 50 50 52
0.4032853733932398 2.6655731085887617 0.38717927659035367 54 54 56
0.5575406143790707 3.260494755589063 0.3189665393053751 72 70 73
1.1825425249102304 2.2434661941341902 0.35240742312625506 54 54 56
1.134378000161183 2.20468646434368 0.3609165440852824 64 63 66
1.114861380063446 2.20220070084995 0.36323871642735417 68 68 70
1.0081556846020667 2.3590216915732456 0.3614319883845394 45 45 45
0.7288749214378094 2.0300104726460075 0.41963550890872175 48 48 50
0.4003714853277982 2.486220410611094 0.41633528088462085 33 32 37
0.39947161429115585 2.5093704967911004 0.41446238922847495 36 36 39
0.4052413719798884 2.5429942807197494 0.41097683944292784 39 39 41
0.4083525612467429 2.5726455839568128 0.4081168811586382 40 40 42
0.40461983338710117 2.5917270134363184 0.40689661451489234 40 40 42
0.4058371489349437 2.6186611508133155 0.4044727153955299 39 39 41
0.4029809750954809 2.6392994791962803 0.4030251528502595 43 43 45
0.3967955018124594 2.6547523051968285 0.40237895307307503 57 57 59
0.3898459680957973 2.669038678045994 0.40191465438980434 56 56 57
0.39655912705625607 2.7051434461636874 0.3981159344545001 46 46 46
0.5600570447494473 3.264087442698692 0.33286509031350436 74 72 75
1.1355263337555783 2.205572040962554 0.37449668175943746 68 67 69
1.1090325919377952 2.1941755173442505 0.378289730608313 69 69 71
0.573241273747248 2.1967881770506574 0.43544942774754414 43 42 46
0.3896625893172363 2.4936292239063973 0.4302141125298866 45 45 48
0.3900114875989067 2.5187687393197 0.42806838083349913 42 42 44
0.3927287351251052 2.547720263833013 0.42534931802000686 42 42 44
0.3913008626561101 2.570324159547031 0.4236065177484427 44 44 46
0.40502927675877287 2.6168444162285103 0.4182348190410592 38 38 40
0.39889420984156865 2.6323066330387825 0.4175950691720899 36 36 38
0.3979702705425918 2.656063718885957 0.41570158760945214 56 56 58
0.39704247785160995 2.679921028540091 0.4138001132756893 61 61 61
0.39601575276273526 2.7037276842783173 0.4119134819578103 50 50 50
1.226253706799563 2.27512003471893 0.3729109841091566 59 59 61
1.1744763330431804 2.2320642659351355 0.38195896682772434 62 62 64
1.1264994779379887 2.1934979398917114 0.3902329972517058 71 71 72
1.1027329338381469 2.185549873151227 0.3934098954839882 66 65 69
1.0986585875292667 2.2027376909204635 0.3924217498575054 56 55 60
1.082253402936373 2.20411696141202 0.39404736695578035 48 48 50
0.5576154965972455 2.1739795943241935 0.45216939777886905 38 38 40
0.5242624671035809 2.1720965280333444 0.4558616985348184 30 30 32
0.38388089960830807 2.4353351853781238 0.4489968529915723 32 32 34
0.37606640984095097 2.4965444680216917 0.4447679306523758 37 37 39
0.3808232584539344 2.528600424082364 0.44161482301310845 35 35 37
0.38524418403401306 2.5602959633932745 0.43852711645122056 36 36 38
0.40228335994782305 2.611982470957129 0.43244958810808715 38 38 40
0.3931629276114572 2.6227214417624958 0.43252937332156605 35 35 37
0.39394192471497513 2.6491406132439965 0.430263823897964 51 51 53
0.3947247548329642 2.6756912407919877 0.4279870061627833 62 62 62
0.4013222634420297 2.711635829425585 0.4243174102066918 54 54 54
1.277928565379884 2.317107401390552 0.37803363556134484 134 134 135
1.2231275470116791 2.2705800008592183 0.3875737018869064 60 60 61
1.166862380953491 2.221819623801424 0.39744921933262556 69 69 70
1.1193263032602354 2.183786510960671 0.40553524193197804 73 73 73
1.096913318606332 2.17753900776003 0.4083967469058488 64 63 67
1.1056306617261207 2.2111017386257186 0.404749956055842 55 54 59
0.740332114136626 2.0659504479160318 0.45491448758534453 48 48 48
0.5962071084095023 2.2053999448320942 0.4586960046735328 36 36 38
0.5424279339762355 2.151799012159372 0.46870449182490953 32 32 34
0.37751976143870514 2.400814003193445 0.4657506383884848 31 31 33
0.3715300028028611 2.4157964061211024 0.46516008981774193 32 32 34
0.36824296707239745 2.48384067382007 0.45996720499305005 40 40 42
0.3786142051636412 2.52461153848634 0.4555601250894605 39 39 41
0.3821845476589978 2.554961686318909 0.4527151588814538 38 38 40
0.40444839549091594 2.61483751870366 0.44550461773477434 35 35 37
0.3927365810599537 2.621502609162076 0.44619172900652926 34 34 36
0.3957321338333055 2.6514259502685364 0.4434418441516451 40 40 42
0.39716481409410687 2.679017662952143 0.4410458041372627 63 63 64
0.4013533002120484 2.7111350364074664 0.43799211126770055 57 57 57
0.5257311916546421 3.177888442338162 0.3869462122672361 72 72 74
1.2822734422379054 2.3219944793493767 0.3912636742230694 132 132 132
1.217451797666831 2.2628157111172755 0.4027437813545512 61 61 60
1.1539408951852697 2.2048406608011524 0.41399118477254176 76 76 75
1.1224112172339842 2.187139380192414 0.4186868496124149 74 74 75
1.0957926426117905 2.175533233525684 0.4223835802887954 62 62 66
1.104703201584456 2.2093369993370637 0.4187481789916031 53 52 57
0.6237832195831463 2.1296881919025488 0.47511481699220004 40 40 40
0.6017895977648303 2.18982836149695 0.472580531710032 35 35 37
0.5743652014622839 2.1738439117742585 0.4767119259396012 32 32 34
0.5443206131532576 2.153956686075249 0.48142844207074487 28 28 30
0.42082090058130317 2.442328725967445 0.4711515124244319 19 20 22
0.3699452549574984 2.388666269928603 0.48074006294152183 29 29 31
0.3580903469292587 2.467517933594795 0.4756523498121479 49 49 51
0.3693311063064473 2.509587300328183 0.47111229356922013 42 42 44
0.3791192641227432 2.5496192943354457 0.46688650067098825 42 42 44
0.3991904807480269 2.606029603402659 0.46027927789466155 34 34 36
0.3883009842141949 2.6139624469115206 0.4607752411912518 33 33 35
0.39381212308815416 2.64784011056081 0.4574872253397031 36 36 38
0.3983421882440057 2.680338403759694 0.45441172836708754 63 63 63
0.4068265039802903 2.719306841903747 0.45040668831948383 60 60 60
0.4124104299979994 2.753851522460909 0.4470576473781569 45 45 46
1.2185601333896392 2.2636329714347476 0.41650935877371736 66 66 65
1.1541510444758107 2.2045289139161275 0.4277994641184277 81 81 79
1.123278009142383 2.187667225106569 0.43230615958074203 77 76 76
1.111331465772692 2.1948116452704305 0.4329714460991762 61 60 64
1.1019168368387429 2.2051895339509744 0.43312110574198465 54 52 57
0.611656673591952 2.112222212433641 0.4908941689234922 39 39 40
0.6146770825438074 2.139061460198662 0.4884655935543561 38 38 39
0.5920735608452791 2.175537736743335 0.4879127243704986 31 31 33
0.5652547571002016 2.160367949875236 0.49186882191958986 28 28 30
0.5577411411723044 2.172536648981282 0.4916815985589762 28 28 30
0.43580262164667993 2.4403792029393028 0.48309142182118103 9 10 12
0.4150755698953841 2.4330119941310446 0.4858051213423269 17 18 20
0.3650349118213334 2.3806036270403887 0.4950886801147245 33 33 35
0.3634099128757372 2.4022315941204657 0.4935492302652823 33 33 35
0.3615983836144163 2.4479923697556294 0.49012469036526785 44 44 46
0.36378597355552 2.475832597314524 0.48770280839815544 41 41 43
0.36738398696968 2.5060089077938237 0.4849514879281494 33 33 35
0.3769603985067973 2.545696587901931 0.48083459317669525 46 46 48
0.3966683540191924 2.601520896274126 0.47440206708010135 34 34 36
0.38903628527810774 2.614575715801983 0.47415710765561964 29 29 31
0.394931994599687 2.649064394154939 0.4708291221672726 31 31 33
0.40087042490617253 2.6838037671029715 0.46747695971808434 64 63 65
1.1746362520152198 2.2299444502555503 0.43754649753498825 86 86 84
1.1266402663884825 2.19137205947879 0.4454295283884696 77 76 75
1.1110301346346685 2.1938511911428416 0.44682647514000784 60 58 61
1.0922104383768836 2.1921726932683834 0.448873151084779 54 52 56
0.8175635481377613 2.078909688174865 0.48563593806056754 45 45 45
0.5874625639119089 2.0779198834698875 0.5091427762773104 38 38 40
0.6011140716629141 2.119527536084477 0.5045211174675919 37 37 39
0.6166853037774964 2.1640603098514433 0.4994767939469895 35 35 37
0.6029037020278325 2.167457686539114 0.5006162326078094 31 31 33
0.5845205477018812 2.1643094117226283 0.5027326129734225 27 27 29
0.5777994549258051 2.177635664509018 0.5023819579389368 26 26 28
0.5660673795639364 2.183856673623736 0.5030933973009244 27 27 29
0.4311823744531583 2.432805163675829 0.4974925997496031 9 9 11
0.4078953464646188 2.421505293580625 0.5007414365945582 14 14 16
0.37202830832930134 2.3907852409318373 0.5067795628687097 28 29 32
0.3674926478554862 2.4079738464577365 0.5059063942518298 32 31 34
0.3684888885298261 2.4337608891511415 0.5038021149729103 30 28 32
0.3694891168089405 2.459675445751774 0.5016875258609951 29 29 31
0.3678374475207755 2.4815903502281675 0.5001536118315107 31 31 33
0.3715418338054508 2.5119535518477223 0.4974181536912611 34 34 36
0.37667937723577083 2.5447138456375216 0.4943505865433264 43 43 45
0.39543376118119133 2.5990353566760653 0.48822186437509396 38 38 40
0.3875952739403017 2.6117579099758066 0.4880318760377129 26 26 28
0.39445663068213843 2.6477646178630723 0.48453663846438155 29 29 31
0.40219332985026823 2.6853547955066395 0.4808292839155971 64 63 66
0.41311712136454704 2.7282280752869674 0.4763870747803701 62 60 63
1.188274748399857 2.24666831508089 0.4487557641330776 92 92 90
1.1147990601767463 2.1757209555918906 0.4615823541626426 76 75 75
1.1087359951659863 2.190345243843835 0.4610756262312929 60 58 63
1.0867387260861918 2.1845854623710155 0.4637325202024971 53 51 56
0.586226723899162 2.0981425354467205 0.5207762333110721 36 36 38
0.5888607029007794 2.1244253406312286 0.5185020569200994 33 33 35
0.598681796759879 2.1837998413250843 0.5129744892719114 25 25 27
0.574185637296784 2.1719637459423153 0.5163476004774398 23 23 25
0.4420951045758038 2.4246570615240772 0.5103455791981321 10 10 12
0.421086206435636 2.4168995025155464 0.5130555607423679 10 10 12
0.39148133757165304 2.395899810746412 0.5176438384408555 14 14 17
0.38293225618425997 2.4069578121792286 0.5176601935164937 28 29 34
0.37533747570864495 2.4195005731994743 0.5174669053188433 29 28 34
0.3700358259827097 2.43560990847055 0.5167699494003603 19 16 23
0.3711576506719467 2.4617202154281252 0.5146613378600567 16 15 18
0.3727353935085027 2.488662684308892 0.5124431823931611 29 29 31
0.37592365241336223 2.518246500053411 0.509860860368616 34 34 36
0.38163190069846764 2.551922774624712 0.5067118174577787 42 42 44
0.3873340432499244 2.585766596372411 0.5035505844946475 40 40 42
0.39241071977969977 2.618802763181451 0.5005141079211279 24 24 26
0.3988077018980871 2.654100103077867 0.49717176555987264 29 29 31
0.4066000371927534 2.691801253925673 0.493505093241522 67 66 69
0.41957288971234563 2.7379618400517423 0.4886698360727051 61 59 62
0.4916039468412261 2.9844157551653607 0.4625751691655465 45 45 47
0.611170986744719 3.34473313937425 0.4229878772699825 64 63 65
1.2021754806512293 2.2637218601877755 0.45998611663897565 93 93 91
1.105365237855131 2.1631369681922012 0.4772025052994152 75 74 75
1.1056005384384353 2.185765211642421 0.47547767135390695 60 57 64
0.5861937523717072 2.0975566412829405 0.5339035397861082 34 34 36
0.582672637896743 2.115191527139179 0.5329287241723951 31 31 33
0.4457545668213816 2.381527592495007 0.526556519765229 10 10 12
0.4513612891184964 2.4140127774822844 0.5235549412368892 10 10 12
0.4438717009647859 2.4268080740717783 0.5233397282691827 11 11 13
0.39580057531790924 2.37788424393504 0.5318117141927275 12 12 14
0.3929148989810014 2.3975503099594673 0.5306208144329313 16 16 19
0.3855157593148387 2.4103782385547046 0.5303941286872444 27 28 30
0.37164574641842385 2.4132854843469036 0.5315586140265225 29 28 31
0.37645133398693864 2.444971421967511 0.528697015938046 19 17 20
0.3767087126473754 2.469777011952246 0.5268062702836284 17 16 19
0.3768698645855999 2.4945473289090456 0.5249277721679659 29 29 31
0.3842391830223941 2.5306732590070027 0.5214766929232613 34 34 36
0.3861668331364212 2.5584769184605665 0.5191939743295888 44 44 46
0.39233916194998986 2.593082827482636 0.5159765424332143 38 38 40
0.3975071966093937 2.6262893963949727 0.5129644691342246 26 26 28
0.4052791357382186 2.66378855392262 0.5093699916802299 35 35 37
0.4127354422076659 2.7009908478600355 0.5058293087008363 73 71 74
0.42604804572971644 2.7477248972818233 0.5009879809207337 58 56 59
0.6158952427839779 3.35197507258798 0.4366246892773809 60 59 61
0.637192712541695 3.415616759869181 0.4297158850809281 39 40 42
0.6680589247259885 3.4956205989491766 0.42062267915874874 37 39 41
1.0999027023724652 2.1556099254523113 0.49200755464541657 74 73 76
1.0981548013901006 2.1756810045978963 0.4906958023192922 58 57 62
1.1143003485624394 2.218756902308817 0.4859174837365683 54 53 57
0.6082050999619606 2.082746252845997 0.5459079216611094 38 38 40
0.6046283251386546 2.100250052014323 0.5449664550485701 34 34 36
0.5921698684045752 2.105382595256592 0.5458161033166621 31 31 33
0.5852876441072055 2.118324562648848 0.5455380975973062 26 26 28
0.4003349881373428 2.3602576647744433 0.5458957156490932 11 11 13
0.3996544421549407 2.383209640903204 0.5442656200448861 12 12 14
0.3940773051893772 2.398786446720596 0.5436640111034237 16 17 19
0.38801888259894535 2.4136748720926513 0.543160791152096 27 28 32
0.37237565935138917 2.4138699530626693 0.5446897703081988 29 30 33
0.3805883229570546 2.450815577120691 0.5411474507113809 25 25 27
0.3796957542698467 2.473862146409803 0.5395312789468492 27 27 29
0.38085710086246993 2.500202164072382 0.5374689199360111 33 32 35
0.3836589323143993 2.5292255003718838 0.535046281440837 42 42 44
0.3909616875237394 2.565436717646043 0.5316480435064175 49 50 51
0.39842564061100005 2.602096128152133 0.528200758582346 29 29 31
0.40318142260213086 2.63468536453586 0.5253216485360542 16 15 20
0.4106138103637955 2.671677396954976 0.5218528813930622 46 45 48
0.4192460677162806 2.7107745276706536 0.5181100650435047 72 70 72
0.42801060944875746 2.7502978588831812 0.5143226806990077 58 57 60
0.6201193397907923 3.3583870659034067 0.4504020381176683 58 58 60
0.6418483311558856 3.42276798774265 0.443497388752175 40 40 42
0.669692838654087 3.4977518676092223 0.43520530341715147 39 38 42
1.0962574299829109 2.1503969878777074 0.5064385482365645 74 74 77
0.8435290706604939 2.08895890310548 0.5355739838334725 46 46 46
0.4048508744741638 2.3665660107926394 0.558208825314755 12 12 14
0.3932671775138389 2.37295384035484 0.5588750551768746 13 13 15
0.3961387847744051 2.4013948998510894 0.5565269022305193 19 19 22
0.38915571159193585 2.4148776292078153 0.5562282238582891 30 31 36
0.3706022602517818 2.4106054575965086 0.5583498167550496 32 33 36
0.3818142035127643 2.4521671760970642 0.5542336135555521 32 33 35
0.37979302862903186 2.4734721768850245 0.5528818785535741 45 48 49
0.3815124559312484 2.5006788621566667 0.5507359357448871 49 51 52
0.388021057488521 2.535484635936495 0.5475700225856482 52 50 53
0.3972546873438436 2.5747397122671165 0.5438146284766256 47 43 46
0.40350792443223016 2.609530945647932 0.540674698277879 28 28 31
0.4093425912104416 2.6438473475688 0.537610147641584 26 25 30
0.41667135545593137 2.6807082023197175 0.534214761106204 58 58 61
0.42604359966538596 2.7210119830348902 0.5303695890681384 70 68 70
0.43515877306927786 2.7611302791137886 0.5265629953575663 57 56 58
0.6144174314969839 3.32027457092319 0.46841219483806473 80 80 82
0.6230882666579838 3.362718372700388 0.4644798922209003 55 55 57
0.6467862720769462 3.430387489140667 0.45724675550947735 38 38 40
0.6713736664321317 3.4999610017623075 0.4497883441567675 38 37 41
1.1766897659498643 2.207195912697224 0.5083008925900329 155 155 153
1.1725406754974927 2.224382652275789 0.5074732366126796 108 108 106
1.1688084927316749 2.242155052061995 0.5065634715992047 73 73 76
0.842056517773156 2.0864520524934522 0.5492402466465429 48 48 48
0.39480904066777345 2.3269565338576723 0.5752359934877244 17 17 20
0.4085028375292007 2.3715636468693266 0.570725904900414 16 16 19
0.3974779629322456 2.4029001966639 0.5695509041928566 22 21 26
0.3930233264092693 2.420263528609754 0.5687401296333288 31 30 36
0.3780322707803898 2.4457925209167692 0.5683631238058253 41 41 43
0.38339491075724763 2.478508101123809 0.565507284809588 49 52 53
0.38445559806926544 2.504709929059544 0.5635323298272769 59 60 62
0.39239141328913263 2.5417555331858743 0.560118590087107 57 55 58
0.39988392532012074 2.5783083698749376 0.5567828693021967 38 34 37
0.40713682879507807 2.614682300029661 0.5534830694884508 32 31 34
0.4141123080474882 2.6508150872743164 0.5502272896976053 36 35 40
0.42043598161062734 2.6861113583653644 0.5470942270301482 72 72 75
0.4298801610760623 2.726548444717017 0.5432924724558392 68 67 69
0.4423293943536355 2.771996704936855 0.5388424383244542 56 55 58
0.6190669563027054 3.3273637687600175 0.4820877834805193 80 80 82
0.6260586090648605 3.3670512679396465 0.47857640085387954 54 54 56
0.6492871021594273 3.4339535596564037 0.47155234835831583 37 37 39
0.677292207917787 3.5092412138371385 0.4634678248169963 37 36 39
0.7122634222514741 3.596670623008465 0.45384297053081785 44 43 48
1.1554907177705132 2.1798201190238857 0.5260925559821908 167 167 165
1.1531031481864293 2.1991503217562887 0.52496310282033 119 119 118
1.1269041361436944 2.1882496158231435 0.5282306057175152 72 71 75
0.8416391934278407 2.085343852845084 0.5626999107385737 49 49 49
0.7563077509566735 1.994141288938598 0.5772537536613818 48 48 48
0.6367510600811319 2.1434289484184395 0.578187648862328 30 30 32
0.39849987385215824 2.308234446710645 0.5893670994666975 20 20 22
0.3978453737006673 2.3548705364388964 0.5861545797923813 23 23 27
0.38262186314789504 2.4523331567341904 0.5807640988549025 45 45 47
0.38263946634883483 2.4767975306473504 0.5790444045307701 55 54 56
0.3886032699480071 2.510611605604728 0.5761002656876191 56 56 58
0.3953884551732265 2.545884246877269 0.5729752571139677 39 39 41
0.40498323081931265 2.585741061789464 0.569260009220948 32 33 34
0.4129623406886289 2.623281779875887 0.5658617051838329 35 35 37
0.42100611313705927 2.661128651187237 0.5624357262428346 57 56 60
0.4280561816072457 2.6976105434043376 0.5592005016053073 75 74 77
0.4354505000229123 2.7348353985663243 0.5558802265257439 65 64 66
0.44531008394833016 2.7761883953001516 0.5520346199771301 55 54 57
0.6243030689942182 3.3354200377885945 0.4956687299769614 79 79 81
0.6290429169933258 3.3714065412584944 0.49268891959471706 53 53 55
0.6526908098163449 3.4390200898228436 0.4856823826831952 37 37 39
0.6790528052704345 3.511582045524575 0.4780691471789151 37 36 39
0.7117327066756596 3.5951796242035967 0.4690775753155388 42 41 46
1.1174256915897542 2.1756126438553527 0.5437680068108345 72 71 75
0.8437017667720524 2.065346551303328 0.5772264981619002 48 48 48
0.7550802050195181 1.970094909170339 0.5921672135879792 49 49 49
0.7561548107819117 1.9933915361791654 0.5904586277477037 49 49 49
0.6443549660642581 2.108259147388396 0.5930935525835809 35 35 37
0.6249989584339066 2.126494715220996 0.5936636710491603 29 29 31
0.4986670388005511 2.3386257291143995 0.5909614610824272 12 12 14
0.40029475221010435 2.3580454037878593 0.5989125988474225 30 30 31
0.37796241277415554 2.3961153913850746 0.5983955597573872 35 35 37
0.3778367472671853 2.4201123912176454 0.5967520191884754 44 44 46
0.3848936752478054 2.4552974098004587 0.593658323254952 42 42 44
0.3886018547691783 2.48548624434234 0.5912255571128537 44 44 46
0.3943977866220332 2.5190705745742616 0.5883613780254683 38 38 40
0.4006324106034853 2.553515071492325 0.5853964288577559 33 33 35
0.41110951596208967 2.5947791975815204 0.5815603526247405 32 32 34
0.4181445363124634 2.630869798441013 0.5784062550716023 42 42 44
0.42844127122288644 2.6722934851265623 0.5745762068228973 75 75 77
0.4367422798126168 2.7107932701381463 0.5711363476675976 70 70 72
0.44783376512607753 2.753932021947905 0.5671129270492024 62 62 64
0.45367187268783615 2.788948725502604 0.5641459538279392 55 55 57
0.627802012726729 3.340607766326298 0.5096445599933994 76 76 78
0.639177041535067 3.387604492935935 0.5053282215309369 49 49 51
0.66135180315951 3.4528257257657913 0.49873470140431064 36 36 38
0.6808148466241084 3.513924828765873 0.4926816508949328 36 36 38
0.7133915131210504 3.59735509431464 0.483849589445005 40 40 42
1.1104047801916948 2.166104480299685 0.558814355461187 70 70 71
0.7654060660526659 1.9614072746109437 0.6049006643720245 46 46 46
0.7524570742662151 1.9660740180431775 0.6057938376181953 49 49 49
0.7517379782163166 1.9869732709066494 0.6044452216718718 50 50 50
0.6186851537042827 2.1171467877283767 0.608052764714588 27 27 29
0.5008668112871416 2.3176762904844894 0.6054714466603976 12 12 14
0.4241515759547503 2.3457672199506097 0.6107329549297383 29 29 31
0.4074620496459128 2.3444565683080745 0.6123803832085056 32 32 34
0.4132064907853158 2.3770757450066786 0.6096341953673151 34 34 36
0.4148189388587127 2.403579667044933 0.6076881600052648 36 36 38
0.3843650222025743 2.429607633062534 0.6087690570881624 48 48 50
0.3939820596545367 2.4687750937444766 0.6052176073366619 42 42 44
0.39820128290712997 2.4998031548514152 0.6027216466940605 38 38 40
0.40267877692648435 2.53139046864694 0.6001636807392736 35 35 37
0.40826838475037075 2.564873386844767 0.5973734406262335 33 33 35
0.41665562516211585 2.6029082248083464 0.5940135690468883 41 41 43
0.4256204561886785 2.64205749662425 0.5905242612627117 73 73 75
0.435161414355949 2.6823299940432133 0.5869050583708415 77 77 79
0.4459865364561004 2.7248563648026205 0.5830132433758486 68 68 70
0.4587167276117581 2.770645044707701 0.5787225155125639 60 60 62
0.4636710338798027 2.8043143057833446 0.5759789830745106 55 55 57
0.6314110473800518 3.345976300528493 0.523620013791001 74 74 76
0.6434481558334539 3.3940887475918236 0.5192365948341218 46 46 48
0.6652975823331821 3.4587909660143126 0.512812963274978 35 35 37
0.6828566070598545 3.5167338191546156 0.5072479118604694 36 36 38
0.7571564354035388 1.9717546240128265 0.6180853490205545 49 49 49
0.7447915880862487 1.9771934082077849 0.6188653767756938 50 50 50
0.4378127265684747 2.365785986765533 0.6213684989054162 32 32 34
0.4239279240634348 2.3687840303054313 0.6224511849029145 35 35 37
0.4265337818585333 2.3967327202651827 0.620351947203122 37 37 40
0.4317759860588304 2.4288265032246508 0.6177336270790006 40 39 44
0.39941684988749127 2.476615648889961 0.6175434823353552 44 44 46
0.4032156838370655 2.507021277721763 0.6151707009547435 38 38 40
0.4081797658701378 2.539390391721086 0.6125597514972411 36 36 38
0.41493057036065495 2.574711974606044 0.6095874811155966 47 47 49
0.4255861515148942 2.6163299465557133 0.605835943186318 75 75 77
0.436176624955527 2.658078720622239 0.6020817184961441 77 77 79
0.4465912893375943 2.6997844230080172 0.5983465915421715 72 72 74
0.4553831923588394 2.739158129513215 0.5949163838170437 64 64 66
0.46585798063619066 2.807238406401899 0.5894217614562102 56 56 58
0.6118037298769936 3.257314490833816 0.5460151407898605 53 52 54
0.6356585016867531 3.3523974818672264 0.5374893553491913 72 72 74
0.6477271725286964 3.4005850092175733 0.5331704550518513 45 45 47
0.6672586338543158 3.46145618973784 0.52731899486149 33 33 35
0.7645137641576933 1.9809551678668302 0.629930244018241 50 50 50
0.4524323718038894 2.2686298627549357 0.6396435971704129 15 15 17
0.4387764903063309 2.2718792326182164 0.6406780589970611 18 18 20
0.41821081721863174 2.2648026875993006 0.643017116018559 22 22 24
0.4277467150887172 2.3025952444507434 0.639680343094776 27 27 29
0.4339136598693134 2.335541122967025 0.636967382592119 32 32 34
0.45340906851492924 2.3887133914320167 0.6317178253720996 36 36 38
0.44654474600717764 2.4023954338271176 0.6314515173520054 38 37 41
0.43040217196992026 2.402053459079283 0.6329473357336062 39 39 42
0.4428921042776177 2.4451874106881784 0.6289923392848257 43 43 46
0.4039748433693604 2.483102704688755 0.6300703820450797 51 50 55
0.40928035696789045 2.5158636024444543 0.62744812515087 51 50 53
0.4147307136450036 2.5490196597329957 0.6247868589133561 62 61 63
0.429231099313915 2.596454044097766 0.6203677023297414 78 77 80
0.4456600941177662 2.6471791607725867 0.6155577491650897 75 74 77
0.4590546938760549 2.6934387182127955 0.611316198088238 73 73 74
0.47463294328696404 2.7434037348592275 0.6066335052558958 69 69 70
0.48450815382503754 2.7846450755501437 0.603040693026188 62 62 62
0.6417901897379044 3.361926841114983 0.5510106687808957 67 67 69
0.6520145932341401 3.40709410553199 0.5471297773485378 42 42 44
0.6719107988204358 3.468593740130001 0.5413001935546979 33 33 35
0.9610490853327942 2.0837935517956634 0.6187520695735788 42 42 44
0.9233936132629417 2.057064188578024 0.6238607043408797 46 46 48
0.7695876915485044 1.9871294812048719 0.6422149628594469 49 49 49
0.7605216735085388 2.1302714408198007 0.6338692870635769 49 49 51
0.4521549120840562 2.2676816183959216 0.652895036333839 17 17 19
0.4307117866317022 2.259376297878238 0.6553614378162418 21 21 23
0.43063510775923797 2.306373121227413 0.6523597143132394 29 29 31
0.44036231548525473 2.3446705469246942 0.6490303504726521 33 33 35
0.4494913552889571 2.3822763415067163 0.6457992333189823 36 36 38
0.4262450474599285 2.3712029170500646 0.6486055358364754 38 37 42
0.44575041569192286 2.448989614368371 0.6418659113543871 45 45 47
0.42296630313018424 2.5364984005399327 0.6383194778229967 74 73 75
0.43344141099551425 2.5775311560203797 0.6347475241988593 80 78 81
0.4491102716870765 2.62688682524513 0.6301741467091244 75 73 76
0.46534889448170524 2.6774211276978552 0.625473908561604 74 72 75
0.4812869136522284 2.727779448880545 0.6208120584208632 71 71 71
0.4974115806666275 2.7787262890151494 0.616095692132828 66 66 66
0.4940136891296727 2.7991119325697413 0.6150972199882145 60 60 60
0.6448677502819162 3.2824589308528456 0.5705434725324986 48 48 50
0.646501273012178 3.3691106369009827 0.5648488200051436 65 65 67
0.6614535468527516 3.4221328978772036 0.5601053689404283 39 39 41
0.6765728381921907 3.4757465231046645 0.5553089907311111 34 34 36
0.7303855162242547 3.623393228310256 0.541001683388755 39 37 40
0.7961184321720269 3.823006193567913 0.5222920942668933 143 142 140
1.0915617360818377 2.139839956257439 0.6170704901649336 64 64 66
0.9493355129815244 2.0680798398006095 0.6342576142103995 44 44 46
0.7762016223517721 2.128473263592703 0.6459046924381926 51 51 53
0.6244841335533352 2.0780282547339834 0.6626000733129693 28 28 30
0.45008666753299764 2.2640858784875957 0.6664711188154957 21 21 23
0.4392133311253613 2.271452793947214 0.6669782276267862 24 24 26
0.4576815630762415 2.3700958170202373 0.6591389941295405 34 34 36
0.44288549638912267 2.3717959628819356 0.6603516301806567 36 36 38
0.4336067673082252 2.381777165894357 0.6605524332141642 39 38 42
0.4354453782928961 2.408611199098954 0.6587039489879777 45 45 48
0.4336580351338264 2.527786760406737 0.6513819518984095 79 79 79
0.44811639564498273 2.574869312043927 0.6471370426430192 74 72 74
0.46256607662372495 2.622209521823398 0.6428767325733438 73 71 74
0.4696192629667073 2.6582962595800423 0.6399824164108177 75 73 76
0.4866660329016954 2.7102048298097787 0.6352037402920004 71 70 72
0.5042078630613638 2.763195675762322 0.6303129786514873 66 66 68
0.5213835888477496 2.8159228496375577 0.6254714148190155 63 63 65
0.6429993415852207 3.278822275103345 0.5855679334403094 48 48 50
0.6215963912462992 3.2716038836032397 0.5879295757842788 50 49 51
0.6515397665086666 3.376833435537753 0.5786536278676373 59 59 62
0.6660839699938816 3.4292071409836633 0.5740689061116284 37 37 40
0.6812437499976234 3.4829128698112997 0.5693456742232684 34 34 37
0.7967846614338514 3.8235176229323873 0.5376610660963417 140 140 138
0.8987605138379455 2.0239785129116172 0.6548721976245501 47 47 48
0.8636068511898037 2.0001650746170614 0.6594350815826713 48 48 48
0.782312401573833 1.9374729074924035 0.6704560022872479 43 43 43
0.7901817877112473 1.9695394688438161 0.6677894110359159 46 46 46
0.46063530508595874 2.2556941787761295 0.6792189882523026 18 18 20
0.4526701484333324 2.2673673034322044 0.6792025398765624 23 23 25
0.4621657846786875 2.376275967950823 0.6716642494442965 40 40 42
0.43604476190570873 2.3609638064397775 0.6749081091473323 44 44 46
0.44099279827043936 2.3923863438676514 0.6725385605580307 48 47 52
0.4442909039189503 2.4214694905900576 0.6704583468927174 53 53 56
0.4503667788225659 2.4549192372449107 0.6678646770516692 57 56 58
0.4373760231802506 2.4594549941283574 0.668730247717112 60 60 61
0.4482135062939536 2.5250063508086744 0.6637416702491951 76 76 77
0.45970132043864664 2.5673943239907175 0.6601211251217628 69 69 71
0.47220070733705 2.611585094886313 0.6563005123854935 69 68 70
0.486980285371559 2.6595667325707435 0.6520457144931782 75 73 76
0.49860255093612316 2.7029056602477537 0.6483548061995351 71 70 72
0.5214549565217306 2.8154728364368973 0.6394144677603864 61 60 65
0.6402565350267708 3.32953907477821 0.5973137671301267 65 63 66
0.656627416444544 3.3846360606674883 0.5924809164022938 54 53 58
0.6859240345874689 3.490093608310564 0.5834102333451378 35 34 39
0.7417513178775448 3.6412074580292337 0.5691923984166078 38 36 39
0.9155127077391738 2.0232159905648537 0.6667977712722042 43 43 44
0.8699411665066318 1.986025328497736 0.6730074719103187 45 45 45
0.8514458402875047 1.9837778070783227 0.6747531621233053 46 46 46
0.8278581079776511 1.9748037927514512 0.6773477439874517 43 43 43
0.8025288122688435 1.9634276499531935 0.6802387730980095 42 42 42
0.7801075746693601 1.9557410666584192 0.6826541796750435 47 47 47
0.7763970909305578 2.08288619652928 0.675311403340684 59 57 58
0.4654663941018513 2.238903830314419 0.6929741122042999 16 16 18
0.4566802903594399 2.2493300830620444 0.6931104035035855 20 19 24
0.45401651315701175 2.268819408266526 0.6921672628337532 24 23 28
0.4306295071168784 2.3522775229243003 0.6891714714862078 49 50 52
0.4340616676966189 2.3813817686168037 0.6871179243202687 52 53 55
0.43922148453271914 2.4132470413079536 0.6847475020153054 58 58 60
0.44657977158410966 2.4486176271170565 0.6819743416764911 66 65 65
0.4537980436977386 2.483962573780283 0.679214916716896 73 71 72
0.45995704758113176 2.5178736418113625 0.6766341616102819 76 76 76
0.46472613043234534 2.5498269786151053 0.6742924466414777 73 73 73
0.4833649218328111 2.6033268529914526 0.669444170575453 72 72 72
0.499150515081211 2.6527283791476535 0.6650913875963919 75 75 76
0.5103201817441074 2.6952500311380327 0.6615552621073276 72 72 74
0.5205673575395793 2.736572431260331 0.6581717527149186 63 63 65
0.5414914563102589 2.794819215109292 0.652838320603586 63 63 65
0.5259724203268741 2.822024332157212 0.6525491460077291 57 57 59
0.626678865580331 3.278757776239487 0.6162444762557148 51 51 53
0.6405166138860068 3.3293781203033967 0.6119877858450209 65 65 67
0.6529240942126044 3.3779354311292833 0.607979996980132 50 50 52
0.6934869768310032 3.5020629177597877 0.5969647682753899 34 33 39
0.845552101967702 1.9538268964708019 0.6902684808454591 41 41 41
0.8408776668350636 1.9694669602996848 0.6897469608419649 42 42 42
0.7818697906775345 1.9358006517040116 0.6968098023628474 42 42 42
0.7707497800632797 1.9428871330428308 0.6973477063930216 50 50 50
0.7590931745885949 1.9492557493284093 0.6979741487991808 53 53 53
0.7653749675907856 2.11218268380992 0.6878131567727969 63 61 63
0.7513976022152822 2.115690328251306 0.6888081306285829 61 59 60
0.6752724001098204 2.0345994323792618 0.7001435103868829 58 56 57
0.6710103847179162 2.0510119521918884 0.6995409079034162 54 52 54
0.6637126238007086 2.0633194528948313 0.6994417881661126 42 42 44
0.47708881833248484 2.232101295078776 0.7055255661962493 15 15 17
0.46552069119397177 2.238445653828559 0.7061458315752661 18 18 20
0.4575961907035161 2.250141440351841 0.7061367348023555 22 21 26
0.43648194245897476 2.3605404411582267 0.7014336329678835 51 52 54
0.4443865199459902 2.396424944764474 0.6986348555991754 55 56 58
0.45365505365138437 2.434566938777401 0.6955854701764764 63 63 65
0.4609820999247788 2.469965155282522 0.6928650773020163 69 68 69
0.4663627173240744 2.502582297153396 0.6904763043285678 74 73 73
0.4727433568340358 2.5368985367453565 0.6879011955521717 74 74 74
0.481330515935781 2.5747845775206315 0.684925524411167 75 75 75
