ply
format ascii 1.0
element vertex 730
property float x
property float y
property float z
property uchar diffuse_red
property uchar diffuse_green
property uchar diffuse_blue
end_header
1.0002793601546334 1.8623658223581778 0.8915868909337776 66 66 66
0.9748271194568869 1.864021803862637 0.8946704700571749 58 56 59
0.963927763925928 1.8699687797020754 0.8959974840070026 51 49 52
0.8962802327373915 1.8242632675459243 0.9041305270946871 48 46 49
0.7949752620994772 1.676273445704032 0.9162107784011225 69 68 68
0.7776184698497663 1.6618503710568229 0.9182941629159557 73 72 71
0.7095016762616572 1.681549856867859 0.9265656827341995 84 83 81
0.7038547353050423 1.7024042851036925 0.9272753981060177 80 79 77
0.6822214738735508 1.7513294656495837 0.9299556311866523 55 55 53
0.6394587899440396 1.9368591236916355 0.9353645714739565 33 33 35
0.6134084568199227 1.9343568462576362 0.9385153699590603 37 37 39
0.5831783477417857 1.9175162064314903 0.942154312847536 51 53 52
0.5502046908099931 2.154083951077333 0.9464418171007596 61 62 64
0.5509733649955557 2.2023990062407726 0.9464090783686028 68 69 71
0.5354394426071101 2.1930085669973476 0.948278051021344 78 78 78
0.9916761070769774 1.798320737360446 0.904827431593786 68 68 68
0.9912859978914794 1.833314658106063 0.9049710805187767 60 60 60
0.9808371573774197 1.840409038729318 0.906249152566921 55 54 56
0.9686718338619418 1.8426892757034339 0.907720662521289 46 44 47
0.946919863988551 1.8545193997788472 0.9103731832972827 36 34 37
0.7555034893941602 1.6290235992331756 0.9328047954701799 76 75 73
0.7080346310438513 1.6729777712189022 0.9386434360506155 76 75 73
0.7011370035921423 1.6899222048137905 0.9395210030012353 80 79 77
0.6748700943577373 1.7240971726469667 0.9427790334429609 71 71 69
0.6218469158524886 1.8746324141484645 0.9495810537259802 34 34 36
0.6277471098995347 1.935575882793899 0.9490387686564826 35 35 37
0.58541508081722 1.9205942854667684 0.954095923201838 48 50 49
0.5386391095767593 2.06377568005322 0.9601252062274683 68 69 71
0.5492039403845558 2.1458303244394554 0.9590794200534979 69 70 72
0.5562225776380408 2.216252394915753 0.9584286105701597 71 72 74
0.9884994130143743 1.7855970010283253 0.917435173481886 58 59 57
0.9824116167385147 1.8046261663367023 0.9182459443799652 51 53 52
0.9632633537747952 1.7871936442702716 0.9204656032126319 44 44 46
0.944705415437208 1.8075429166951336 0.922776101492587 34 33 35
0.9033241617217065 1.7628111785265446 0.927542815554553 49 47 48
0.8809041685604602 1.7350463762928956 0.9301102850533937 57 55 57
0.8509708494308029 1.6852152150304731 0.9334835835863945 63 61 63
0.758728946796891 1.6346774795313506 0.9443192240001563 65 65 65
0.7402382224627736 1.6164073180059098 0.9464565192813263 57 56 56
0.7027986908940728 1.6528532421580333 0.9510981081676321 57 57 58
0.6961732629674677 1.67052575161282 0.9519674926740092 61 60 60
0.6829106920156975 1.667758886290152 0.9535446858577524 71 69 69
0.6781783652755 1.6915144245793112 0.9542132657948909 75 73 74
0.675664555970128 1.722442364769167 0.9546467106752259 77 76 76
0.6089172989133357 1.8278469486224354 0.9630946298812963 36 36 38
0.6178817163736983 1.8986064139077174 0.9623231699391662 36 36 38
0.6106301412200088 1.9162966807022066 0.9632676508101702 42 42 44
0.5988625137705051 1.9190575075732799 0.9646893689868467 41 42 43
0.5867460102648571 1.9206240350022605 0.9661477797343716 46 47 48
0.5395579406685738 2.0180624582479942 0.972218192658338 75 75 76
0.539706193539311 2.062866062077865 0.9723920256007397 74 74 74
0.5481232661196112 2.137303874828152 0.9717018744313743 72 72 73
1.0443284369018762 1.792640129045117 0.9230849610854823 156 156 158
0.9979110975857886 1.7720029687953482 0.9284976505834166 60 60 58
0.978336600274606 1.7535133548541946 0.9307235448617903 49 49 49
0.9577922205922463 1.7320838570451762 0.9330480093494317 42 42 43
0.9410859612236205 1.721139245055106 0.9349757471697462 35 35 37
0.9218046501035376 1.7027831132947662 0.9371674713703316 36 36 38
0.9057607366427687 1.6933527886632436 0.9390250371144674 41 41 43
0.8962822771546867 1.7024565382542367 0.9402074328360432 45 45 47
0.8865111648686926 1.7107702833593292 0.9414201333308577 51 49 50
0.8612576958674021 1.6746121369565117 0.9442205554379451 52 50 51
0.810406182124424 1.6362957816925925 0.9500593513929702 59 61 60
0.7071477855826918 1.6243562648126633 0.962296937813283 31 31 33
0.7031541656664474 1.6498924274892302 0.96292078508996 31 31 33
0.693959131417991 1.6596265875555531 0.9640730516502287 35 34 35
0.6836055499267157 1.6658273603944427 0.9653429374019313 41 39 40
0.683556778086829 1.7041657246834214 0.9655707567068463 44 42 43
0.6685494687105417 1.695997221118838 0.9673120829152002 61 59 60
0.6196361607535384 1.7772777097168388 0.9736124272904372 48 48 50
0.6082908484114964 1.8625863061375683 0.9754586020232927 38 38 40
0.6066998164383443 1.8988487328331836 0.9758582125412715 41 41 43
0.52841495383207 1.9311583359836033 0.9853755930825938 74 74 74
0.5321455338968835 1.9876694093771436 0.9852582079446071 81 81 81
0.538996970418665 2.055737355446871 0.9848357899172016 79 79 79
1.0309657582222576 1.7524835021105434 0.936687150791574 148 148 150
0.9933566476996348 1.7555613481861712 0.941168370245671 50 49 49
0.9743664922014601 1.7386267940494669 0.9432960273990189 41 40 42
0.9568141855145553 1.725476988375223 0.9452808700484483 37 35 39
0.9442368163909359 1.726074178968392 0.9467763382280128 36 36 39
0.9259157564338131 1.7104652007695615 0.9488343548779873 45 45 47
0.9057587184817141 1.6894533430412182 0.9510705649811092 52 52 54
0.8901584958883465 1.6811332080835204 0.9528592617348332 50 50 52
0.8814788236252481 1.6924600342045013 0.953971024266991 46 44 45
0.8557641548348266 1.6549105358119915 0.9567453030266984 49 47 48
0.7086769521124933 1.5875868987980533 0.9736913464203782 29 28 32
0.7036152441466272 1.6095717564109415 0.9744520438012954 20 20 23
0.6995065610553584 1.6346686247416933 0.9751224901794184 17 17 21
0.6923421774773413 1.6505785680412204 0.9760880897629449 20 19 22
0.6825302091914036 1.658412891879708 0.9773085770769213 25 23 26
0.6891277053634352 1.7174002900073069 0.9769573404848397 30 28 32
0.6745613664545803 1.710701386788358 0.978635309295638 34 33 35
0.6119735858125698 1.7481871808262044 0.9863292301705715 49 49 51
0.6061969602525089 1.7696732025872293 0.9871710401479263 50 50 52
0.6090772837810403 1.8197318174720167 0.9871952631858971 48 48 50
0.600527949337868 1.8326354864727707 0.9883030930501275 47 47 49
0.6016114855452126 1.877580493115614 0.9885029765506967 45 45 47
0.5464182784462921 1.9025364205711903 0.9952287006034053 61 61 61
0.5362109599944332 1.9103969629523407 0.9964962500508363 71 71 71
0.5275860705457351 1.9237662150499635 0.9976164385873396 79 79 79
0.5327474247974839 1.9851828898069481 0.9974532101464011 86 86 86
0.5405943842331287 2.056686184055648 0.9970452776528895 86 86 86
1.0377839680232852 1.7671521690833307 0.9482572362047392 121 121 123
1.0289644333811432 1.77843718510784 0.9493968218722353 68 68 70
1.0158301911979815 1.7779579997328576 0.9509414556876941 49 49 51
0.9940308120942261 1.7535461362773426 0.9532968324269953 39 37 39
0.975960150296092 1.7391666424781111 0.9553009886297487 38 36 39
0.9630380002637133 1.738926666579683 0.9568227213300537 40 38 43
0.9481183985491127 1.7330470626006935 0.9585302603042243 44 43 47
0.927117211667041 1.709953147196265 0.9608031347995977 49 49 51
0.9048814675634105 1.6830823275158846 0.963188280985015 51 50 53
0.8809197723320598 1.650979890343905 0.9657308154698551 49 48 51
0.8699399182083315 1.655581344002936 0.9670662057044731 46 45 46
0.8500089040235654 1.6344782453279914 0.9692304395498037 55 53 55
0.7069230817304646 1.5782893583939688 0.9856082784893383 25 25 29
0.7020106112745375 1.6006743339279208 0.9863850286029379 14 13 17
0.6992984760070103 1.6299933835644458 0.9869634649043303 13 12 17
0.6912979049876554 1.6433030122040544 0.9880243319405332 13 11 16
0.6914013971321354 1.681800206234092 0.9883516895364745 13 12 16
0.6952850526900648 1.732443384898791 0.9883404027949894 20 19 23
0.6840616411564019 1.7363072566312419 0.9896980088361227 25 23 27
0.6126678153853645 1.7063139026383143 0.997852598142722 38 37 40
0.6078131950006966 1.7304721573712836 0.9986381673564891 48 48 50
0.6020887761498002 1.752023142984146 0.9995033106364916 55 55 58
0.6043145047422176 1.7998147901286656 0.9996623838099821 50 50 52
0.5253429199035227 1.9114963707293424 1.00996021755972 80 81 80
0.5233747594431697 1.948033315525939 1.01051458531819 90 90 90
0.529817718753016 2.0143670891446153 1.0103398895731714 91 91 91
1.0441275296857069 1.7454182559552454 0.9595624171929124 163 163 164
1.040377332444797 1.7703409747007006 0.96025989602513 95 95 97
1.0298639440982955 1.777026059481278 0.9615621697531822 55 55 57
1.0220380504596596 1.791096567104402 0.9626255452857211 42 42 44
0.9933367100800148 1.7477630066380725 0.9655442107941149 35 35 37
0.9774640449222037 1.7394559993866592 0.9673201511339273 36 36 38
0.9734449455808114 1.7639997657911393 0.9680452543317792 41 41 43
0.9579339051271143 1.7566068228977754 0.9697882251187555 44 43 45
0.9382759907633482 1.737432252922313 0.9718958352011778 42 40 43
0.9127066956884147 1.7013077698262717 0.9745216358494714 42 40 43
0.8926957943141518 1.6805485669581588 0.9766542714678896 38 36 39
0.8687691443441945 1.6483453286741696 0.9791279255862111 37 37 39
0.8470655680701324 1.6221380162630432 0.9814027946873479 43 43 45
0.8253086207443869 1.5954539324514947 0.9836789961928749 42 42 44
0.7756574081833383 1.595522010136836 0.9895035872776489 26 26 28
0.7687294895140535 1.611667561265089 0.9904830811566622 25 25 27
0.7554798740370177 1.609109441058497 0.9920107675662204 26 26 28
0.7387235451089412 1.5959741695696097 0.9938404542244279 28 28 30
0.7116791598055265 1.5887073965373744 0.9969375440189912 24 24 26
0.7074184094569194 1.6131290327082628 0.9976897295961826 14 14 16
0.7002425149008646 1.6288480412312212 0.9986939013975704 12 12 14
0.6820358072032879 1.6487306616421802 1.0010349773795406 12 12 14
0.7010601073959366 1.7462777757722552 0.9998117292146477 15 15 17
0.6056039388355132 1.7190919860694935 1.010727367300073 37 36 41
0.5996040444159103 1.7396775805635945 1.0116438989886865 50 50 54
0.6001640780792409 1.7819253250461786 1.0120148727669367 50 50 52
0.6127523311309298 1.8642185917482037 1.0113888865941127 53 53 55
0.5405184054761436 1.8734656696836172 1.0199572112020945 49 50 52
0.5271246073707166 1.9131350452602673 1.0219382638411814 79 81 77
0.5231614244551595 1.9427404083367157 1.0227091238266375 93 95 94
0.5302711879672324 2.0113405201255157 1.0225842129697054 98 98 98
1.0479354187283787 1.7518679564120543 0.9714421847717236 149 149 150
1.0123161429442042 1.7605876163785257 0.9757010996070411 36 36 38
0.9898976937833335 1.7344284562862762 0.978006556173249 33 32 36
0.981171483001765 1.7458405777556152 0.9791598623905797 35 34 39
0.9715209141911809 1.7547511853650795 0.980391363589141 36 35 40
0.9380326036227102 1.697073070256646 0.9836147559944163 34 34 37
0.9235688459947342 1.6922057111309166 0.985244505842086 33 33 35
0.9188508376726374 1.714763804181364 0.9860622853301052 31 31 33
0.8989186019601039 1.6943183590335915 0.9881454000598542 26 25 28
0.8767094667453469 1.6671149398324425 0.9904140607219867 28 28 30
0.8549343976520185 1.640824423282028 0.9926428996596354 33 33 35
0.831861162655702 1.610466965771035 0.9949749918229545 33 33 35
0.8085397121632145 1.5790224359702596 0.9973231590157876 28 28 30
0.7746687041771869 1.5886827083392594 1.0013892572939112 21 21 23
0.7697265950018386 1.6106711210781264 1.0022264302900477 21 21 23
0.757841539450711 1.6121801980722497 1.0036309021928076 23 23 25
0.699287086871529 1.6218930590941374 1.010577353378467 12 12 14
0.6816589238690166 1.7204984931578482 1.0138025863831202 14 14 16
0.6250559340904501 1.6588946137450082 1.0196761601459907 20 20 22
0.5983407698682216 1.6518374317204978 1.0227092854203144 18 18 20
0.5938734158651306 1.6769268997743332 1.023527822439894 22 22 24
0.5906775632629637 1.7063894626760456 1.0242498454556666 33 33 35
0.5991507859287449 1.7743206718845632 1.0240663884428896 43 43 45
0.6150509697181339 1.8674288008543494 1.0233148374546313 51 51 53
0.5804897507767112 1.9196503279707173 1.0279658730210477 40 41 43
0.544260016131001 1.8817666874567154 1.0317436909611628 45 46 48
0.5249574499991904 1.9011463461303306 1.0342253298413513 74 76 74
0.5208558538797565 1.9301906262614061 1.035048065470798 96 97 95
0.5288265328471029 2.001687930787218 1.0349655018644774 102 102 102
1.0432856100428218 1.7355020431212196 0.9840253530414612 123 123 125
0.9896665141546006 1.6947212956385154 0.9897020050326144 35 35 37
0.9828893481574608 1.711286730340603 0.9907098432130292 31 30 35
0.9686545133573294 1.7073506029142387 0.992308991489257 28 27 33
0.9608193268183698 1.7211146346477544 0.9934021513286425 28 27 32
0.9560847094365783 1.7436343742434417 0.9942525726666139 27 27 30
0.9087537543394846 1.682361686173905 0.9989256439908303 23 23 25
0.9085106122556958 1.7176303180874546 0.999425309284048 19 19 21
0.8834813882635244 1.682529826499338 1.001860415387605 20 20 22
0.8589793313042663 1.648525902703222 1.0042490090514404 24 24 26
0.839555729327473 1.6287527579934016 1.0062385444980748 25 25 27
0.8230701612837887 1.6172350329287337 1.007997513925564 23 23 25
0.8179265498777318 1.6385790465422159 1.0088796771451651 22 22 24
0.7900848376403335 1.5936464935790886 1.0115097056631712 20 20 22
0.7724798466889122 1.5783173522103886 1.0133476203735847 16 16 18
0.7679411924175237 1.6014406849488323 1.0141833712892565 17 17 19
0.7741662547505561 1.656785972114892 1.0142008608165705 18 18 20
0.706243074747379 1.601537351809247 1.0213439139121232 11 11 13
0.6862679320493109 1.730763396475076 1.0253891884098314 12 12 14
0.62675224081369 1.660143066418763 1.0313511829981112 14 14 16
0.6149705359606752 1.6617153664488402 1.032739311652544 15 15 17
0.6003653448063698 1.6541788643004642 1.034333307035539 16 16 18
0.5934775510875285 1.6714519003424286 1.035363440929191 20 20 22
0.5910348513808925 1.703323525895768 1.0360729264578672 26 26 28
0.6048434464133952 1.788651904095371 1.0356112449655717 32 32 34
0.6017015721279448 1.8191686160746456 1.0363837487086434 39 39 41
0.5790652644242467 1.9104049379970616 1.04022999027282 39 40 42
0.567610562935395 1.9141260878241837 1.0416088991665542 38 39 41
0.5501417942033293 1.8973470598906665 1.0434116257960584 40 42 43
0.5262719401674324 1.858373279434998 1.0456604263350602 51 52 55
0.5220343392372706 1.8865647097911755 1.0465289915625173 69 70 70
0.5185574585941972 1.9176799895332786 1.047348369690019 97 98 95
0.5282970726007493 1.9952397980062826 1.0472549936118536 108 108 106
1.048628111866334 1.7460833672740093 0.9958035627947394 101 100 102
1.0408222751783862 1.7600098439464988 0.9969116893661889 55 54 56
0.9860208731141531 1.6809207541800781 1.0020590082779217 34 33 36
0.9631482107147877 1.6882780215941398 1.0048081768391166 28 26 31
0.9456568906695205 1.675122159804941 1.0066309880722044 25 25 28
0.9449659978075389 1.7086934935436011 1.0072103903080398 24 24 26
0.9433870318248937 1.7400703205341477 1.0078596198112435 23 24 26
0.9097717450626773 1.6813497453599 1.0108650739204892 19 19 21
0.8923728767829192 1.6679558688049398 1.012673673015998 16 17 19
0.8827641699682107 1.676579462586114 1.0139109364126386 17 17 19
0.8641642884360923 1.6594836974853446 1.0158030427062201 19 19 21
0.8482680967707157 1.6499479486636233 1.017495645979764 22 22 24
0.8270764529014998 1.6249314790883516 1.0195689696724417 22 22 24
0.8240874338359968 1.6525843612092286 1.0203255027451132 19 19 21
0.7952204407832366 1.6047607885405835 1.0229451592782508 15 15 17
0.7747250031397049 1.581005925174125 1.0249569133925394 13 13 15
0.7765810726456459 1.6599809323052845 1.0259181567658597 15 15 17
0.6283634154280673 1.7003366815391323 1.0436241532351185 14 14 16
0.6045214491339499 1.6633630914039617 1.0458253754351976 14 14 16
0.5765055233503098 1.7320271561543659 1.0500805893833305 31 31 33
0.5787506051908318 1.7801392851155826 1.050537581697053 35 35 37
0.5828214094267419 1.8348321922804696 1.0508818197887873 38 38 40
0.5714752222244368 1.8385457127546108 1.0522465200710307 40 40 42
0.562616408710768 1.8506178591004712 1.0534485680577805 38 38 40
0.5540206806570389 1.8636690235432147 1.0546348256405862 37 37 39
0.551683336926864 1.8981290094853867 1.0554174662829725 38 38 42
0.5324832744017504 1.8751893468166052 1.0572918583520763 44 47 49
0.5233756752778893 1.886693912403723 1.0585141701837946 62 64 65
0.5164153101420808 1.905725192862919 1.0596007022300453 92 92 92
0.5292270043096382 1.9938879644159728 1.0594343388610616 112 112 110
1.0637585761138875 1.7480761835142387 1.0063589422414574 160 160 160
1.0562771206776844 1.762864747848986 1.0074601803095662 84 83 85
1.040805483531154 1.7561239320212876 1.0091254165267254 51 49 52
1.004027157003105 1.69129798301068 1.0122835498821348 51 49 52
0.9849792386930678 1.6742546318868947 1.014190294981039 51 49 52
0.9291439741318287 1.6606650972357868 1.020376026398125 23 23 26
0.9226735697165809 1.6780665068092355 1.0214040708286913 23 23 25
0.9140336161176102 1.6894833200603614 1.0225829796946018 20 20 22
0.893880819384244 1.668343481409398 1.0245493552856835 16 16 18
0.7741551083945075 1.6487860944732733 1.0379703668358706 14 14 16
0.7364956994918875 1.5734822123424657 1.041057785568683 18 18 20
0.7124116082232789 1.5750020234327826 1.043847011521674 14 14 16
0.6648991688936468 1.6944516565322805 1.0512593737337568 12 12 14
0.6474821524627904 1.7176631361863621 1.05363912541093 12 12 14
0.6168196522241312 1.6986737863719974 1.0568470424724543 12 12 14
0.5797455646095642 1.6981044870740232 1.0610929592719711 21 21 23
0.5758219114588877 1.7255112888154567 1.061992787925873 22 22 24
0.5747852524649157 1.7627230626156387 1.0627220617589659 25 25 27
0.5747924900030233 1.8037860350248824 1.0633946815756397 27 27 29
0.5609516528511335 1.798985912268443 1.064904567624125 32 32 34
0.5562999206562564 1.8249739511024592 1.0658646947003971 33 33 35
0.548010381563792 1.8389109598762028 1.0670447163283652 34 34 36
0.5479616977936723 1.8809997926057156 1.0677405791797918 36 35 40
0.5311376049529435 1.866115330325883 1.0694274869142255 40 43 45
0.5249355515096475 1.8875739337699486 1.0704912705534968 56 57 59
0.5144105180503529 1.894259748377204 1.071808952856035 88 87 88
0.5254135320010251 1.9760037422325434 1.0718866965054108 114 114 112
1.0674612154868712 1.7541822004850691 1.0183202196674372 152 152 152
1.0596949055729579 1.7682351062847372 1.0194585119479969 69 68 70
1.046212120969296 1.766914946870624 1.0209738768655179 57 55 58
1.0080561456159038 1.6984414780443169 1.0241023978705592 60 58 61
0.9839830622902677 1.667718705282221 1.0262997944055972 59 58 60
0.9303014848436496 1.6955815639814493 1.0329266130820736 22 22 24
0.923475027574661 1.7122013977098158 1.0340036167501276 21 21 23
0.911746203809223 1.715060131058455 1.0353936473226253 15 15 17
0.8954557228620822 1.7049130289913503 1.0370713462624603 15 15 17
0.8660908158321051 1.7299538734808428 1.040871927961392 18 18 20
0.8397168416090164 1.6901594443609158 1.0431694235863402 15 15 17
0.7665180666960779 1.549061164229992 1.0489967247637613 13 13 15
0.7753708769547795 1.6115741746962786 1.0491062747344049 14 14 16
0.7608344850345271 1.6052472007961112 1.0506521965643307 14 14 16
0.7404703811690494 1.5814027365893484 1.0525494658800851 16 16 18
0.7207006861496341 1.559035998696127 1.0544053622673026 20 20 22
0.5743092593490151 1.6761266921903792 1.0732134593354092 17 17 19
0.5683831077295778 1.696825374253926 1.074260778258492 18 18 20
0.5611385799112171 1.7133591504719925 1.0753839614773881 20 20 22
0.5558275044625126 1.7364548552098986 1.0764040197701135 22 22 24
0.5486477477598308 1.75352571426177 1.0775294326972438 22 22 24
0.5477570673028628 1.7918786284836365 1.0783182860643277 26 26 28
0.5383659918070054 1.8018975156748123 1.0795697612149966 29 29 31
0.5352109229869011 1.833186806465886 1.0804905257692652 34 32 37
0.529863381584308 1.857295517654908 1.0815328969918845 36 39 41
0.5225631308703219 1.8749187233926614 1.0826819605653546 49 50 52
0.5187406934999662 1.9047398568810743 1.0836525976278473 82 81 82
0.5223918883315765 1.960898626015761 1.0842420445901786 112 112 110
1.0661076481072227 1.7467427480863347 1.0306180445891466 141 141 141
1.0683492089125615 1.7876883201492888 1.0311593554143137 58 56 58
1.0460960419282346 1.7627582474619843 1.0332009535385855 51 49 52
1.0194938776694005 1.725711078679724 1.0355007433528447 54 52 55
0.9849567025067332 1.6665690995181517 1.0382718834056477 42 41 44
0.9610616681636133 1.635997553491277 1.040390220536479 31 31 34
0.9392462280118774 1.6108068875975359 1.0423770647832198 38 39 40
0.9232999108113433 1.6720868348421447 1.045378196999154 22 22 25
0.9183869592915371 1.6939741601904736 1.0463612731564043 20 19 22
0.9113080329128448 1.7099090204033667 1.0474745392582177 15 15 17
0.8987825216979849 1.7104632507942572 1.0489071657657254 14 14 16
0.7988780301315299 1.603698638650937 1.058173058197669 13 13 15
0.7810283890241307 1.5877759397459532 1.0598898381576933 12 12 14
0.7708585411207285 1.5943080292517053 1.0611712354306522 13 13 15
0.7566272177415978 1.5888067794541403 1.06267981364569 14 14 16
0.740911301073332 1.5787675290665375 1.0642687233053982 16 16 18
0.7176130067357164 1.5458220063517865 1.0662731828972847 17 17 19
0.5742984508873428 1.6718720973770778 1.0849915315732601 13 13 15
0.5662675048382868 1.6856377643083735 1.0861707101923728 14 14 16
0.5593667473126014 1.7032406731209975 1.0872961691950305 19 19 21
0.5530774838614653 1.7230261889456175 1.0883946317278823 25 25 27
0.5477947872757398 1.7463514679993826 1.0894476263592139 21 21 23
0.5419273373485448 1.7679344841589553 1.0905331399016882 24 24 26
0.5324884007092711 1.7776538300249625 1.0917935099279774 27 27 29
0.5302127870277032 1.8117783110922854 1.0927150297186958 30 29 34
0.5238860284721295 1.8324066284800478 1.09383412818126 31 34 36
0.5206561887348359 1.8638787280841922 1.0948124203266287 43 44 46
0.5173925186065279 1.8955582099747998 1.0957985832032076 72 72 73
0.5173251709923601 1.9386922249187393 1.0966445255472075 108 108 105
1.0710470349767365 1.7561495521785688 1.0425368048733665 129 127 130
1.0710086312937062 1.790997074866274 1.0432712774320212 45 44 47
1.045992808257344 1.7586394267398073 1.0454172548674645 40 40 42
1.0181266999411975 1.7181675842431055 1.0477149793302436 42 42 44
0.9866935879947589 1.6675030250596623 1.0502018086538272 36 36 38
0.9618447117072951 1.6343447742927484 1.0523121655705148 31 32 34
0.9477011426800767 1.6303252426452497 1.053824563449983 24 25 27
0.9289384666077247 1.61341504493344 1.0555883059846418 37 38 40
0.8997900762549593 1.6023899045664227 1.0586477600930626 25 26 30
0.9134465776491529 1.6761815965959843 1.0586522358728354 18 17 22
0.911370363599157 1.7061783173897365 1.0595151138203782 14 13 18
0.9069635123024833 1.7298107591923653 1.0605077424332854 14 14 16
0.8746665869753033 1.673910912394897 1.062982392983252 14 14 16
0.77781252478875 1.5744195469525157 1.071831321334463 12 12 14
0.7666344453080118 1.5779107875547782 1.0731663240842333 12 12 14
0.7585355959785319 1.590525537247664 1.0743448825558046 14 14 16
0.7391512947512946 1.569569920483377 1.0760940370977834 15 15 17
0.7212781005207788 1.552870207199856 1.0777617793779481 17 17 19
0.6347538378162196 1.7040042253170098 1.0906958033383327 10 10 12
0.6230551539927145 1.706093180301947 1.0920601940630008 10 10 12
0.571722878281856 1.659260033989847 1.0968736452909515 13 13 15
0.564250270401969 1.6747848560959886 1.0980424824642674 19 19 21
0.5582984982373463 1.695453462110388 1.0991474123125449 31 31 33
0.5508626901216791 1.7113879706473936 1.1003206791845102 39 39 41
0.5441597316035389 1.7299016755390921 1.1014652575197195 39 39 41
0.5374160864771548 1.748443681256234 1.1026150217880257 34 34 36
0.5349912418253231 1.7817325836766176 1.1035862343107818 31 31 33
0.5300614899285219 1.8068560890028016 1.1046691325631774 29 30 32
0.5233045202771001 1.8259825227381332 1.105832646126312 32 33 35
0.5176199854675368 1.8918348053065404 1.107854112477013 65 66 67
0.5365746208482236 2.0011022078704563 1.108003800334997 107 108 105
1.0746791540811047 1.7620484852306806 1.0545609184536804 119 117 120
1.0693806074303074 1.7827770215117693 1.0556214880881991 38 37 39
1.0514915012892652 1.7696558853568094 1.0573348101053317 27 27 29
1.0205065756927738 1.7208034736441111 1.059715322733525 29 29 31
0.9888203972952408 1.669498448226194 1.0621194441645752 31 31 33
0.9498795888973143 1.6325215660091579 1.0656598983869288 25 26 28
0.9337272026789611 1.6228718551832775 1.0672562673007038 23 24 26
0.919440290440231 1.618270872899903 1.0687566721856359 41 42 45
0.9081743066920878 1.6220303845314328 1.070105822809132 31 32 36
0.8962723647057975 1.6239926341994675 1.071485978485953 21 20 25
0.9104881374484397 1.699779529350966 1.0715931283391207 14 13 18
0.7390301105846904 1.5652663256246924 1.0878177530603874 16 16 18
0.6992515986277836 1.5563917545353323 1.0920837118563294 12 12 14
0.6436650893409562 1.6888989305067765 1.1013011022395605 10 10 12
0.6193456522305054 1.690020593528676 1.1040563069037332 12 12 14
0.6027164484592251 1.676117574939726 1.105610628299221 12 12 14
0.5645056354478706 1.631539135084204 1.1088983269343706 20 20 22
0.5604712031851025 1.6581703975937259 1.1099496282938963 38 38 40
0.5531176809962646 1.6741196129664109 1.1111334882979649 43 43 45
0.545018495504008 1.6877305278477346 1.1123485110986313 41 41 43
0.5426678369879762 1.720617222566485 1.1133513603493623 41 41 43
0.5364853462214805 1.740985349167954 1.114503059421423 45 45 47
0.530672933230587 1.762789607371144 1.1156454853855622 43 43 45
0.5268046287421126 1.7913977296022907 1.1167225585540455 34 35 37
0.5167429185130902 1.8842976710653088 1.119939534671768 55 56 57
1.0655506091170903 1.7686492981325916 1.068051421099885 37 36 38
1.049084563232265 1.7593155667524725 1.0696655452858304 28 28 30
1.0204460426303676 1.7168135101665225 1.0718427643534163 26 26 28
0.990017265712104 1.6689543833887281 1.0740913127754415 23 24 26
0.9528173852220251 1.6368058413266202 1.0774725623026966 26 27 29
0.9376493504409756 1.6299175032887243 1.0790004571441063 27 28 30
0.9245335690991774 1.628623018533813 1.0804334572167587 34 35 38
0.9116874978562771 1.6280227451683624 1.0818530039692484 32 33 37
0.8956284932475972 1.6183360075646782 1.0834132239340568 21 21 25
0.9085805082387253 1.690488668372484 1.0836982916676399 14 13 18
0.7234881439720265 1.5516028692114276 1.1010276072599756 16 16 18
0.6386829807864814 1.6689787083082372 1.1133096886388676 11 11 13
0.6130378110431081 1.626539611471122 1.1151542843563715 11 11 13
0.6012681706276641 1.62797830814476 1.116502586207771 14 14 16
0.5701661585895221 1.6457810741863106 1.1204014205573314 40 40 42
0.5690812453498926 1.682147506998307 1.1213949035593642 38 38 40
0.5610377094290866 1.6959632264715914 1.1226241851629526 32 32 34
0.5523813843516082 1.707857253969428 1.1238757708652165 31 31 33
0.5469599995172978 1.7306182817738258 1.1250269393708572 34 34 36
0.5387109280805177 1.744115216351291 1.1262715167381572 39 39 41
0.5348236923607332 1.7724262187243203 1.1273845714336233 40 40 42
0.5264204133867663 1.785701186669175 1.1286410375970686 37 38 40
0.5188073039948293 1.88692658092518 1.1319191070777441 50 51 53
1.0712611626501825 1.7801507640873466 1.0800310480656117 41 40 42
1.0422856927810895 1.7371344626014946 1.0821499418254712 32 31 33
1.0219203990369565 1.716988888383936 1.0838965211392024 29 28 29
0.9554021794412482 1.6401121484971584 1.0893187703140137 26 27 29
0.9395718669537089 1.6314206908337898 1.0908541538499854 29 30 32
0.9275646783520825 1.633226794856727 1.0922329548579965 32 32 35
0.9145730407709165 1.6322524248972201 1.093650102236631 33 34 36
0.8985046709588749 1.6225754810683415 1.0951867718485335 22 22 25
0.8914096765483127 1.7099778479203314 1.0982036666280919 14 14 16
0.7287198424374101 1.563320610125383 1.112520535095003 16 16 18
0.7165012847028142 1.5635224230572486 1.1138818759580107 10 10 12
0.7061283445173798 1.5692623014788352 1.1151796238642837 11 11 13
0.6302005763046756 1.59940519322946 1.1243760520784503 9 9 11
0.636250750006807 1.6571456486626384 1.1251773128494882 11 11 13
0.6186595403759719 1.6402920393735065 1.1266999527650878 13 13 15
0.6063364306688322 1.6400471644197667 1.1280615045714213 14 14 16
0.5786731947608266 1.6296327309075687 1.130866329706269 41 41 42
0.5777872714638195 1.6663841127565868 1.131902086988818 37 36 40
0.5747031156087974 1.6963139581438211 1.1330078378250446 29 29 32
0.5676691909161912 1.7135368612099569 1.1342278729862822 30 29 33
0.5577801296309127 1.721454313683976 1.1355274567814522 32 32 35
0.5487024610040983 1.7321137657356362 1.1368069211384382 32 32 34
0.5421942823106822 1.751453333787878 1.1380225915498374 36 36 38
0.5347136529432487 1.7676908911541054 1.1392670750863234 35 35 37
0.5269827676976011 1.7832189902790616 1.1405212393694588 30 31 33
0.5145634879129191 1.8677793425572455 1.1440566089311943 48 48 50
1.067719381334727 1.7668105039106528 1.0924052168686302 43 41 46
1.0395259964333023 1.7258691234917205 1.0944102546172818 38 36 40
1.0211814254205833 1.7111638277338999 1.0960374011763583 45 43 47
0.9973105304876982 1.6812101263483747 1.097862347607363 39 38 40
0.9578912050802713 1.643149912735265 1.1011841879096302 40 40 42
0.9419511178378257 1.634183992577906 1.1027010799800696 36 36 38
0.9301227996926709 1.6365092946910862 1.1040693402564405 32 32 34
0.9168176317525575 1.634685195044846 1.1054884487914636 34 34 36
0.9037493530728615 1.6334604962394785 1.1068976128486776 23 22 25
0.9039839849603368 1.669728555650863 1.1078519033324525 17 16 21
0.8916557333450654 1.706753287184373 1.110213129407015 15 15 17
0.7041017705629096 1.5591573835794899 1.126923323023383 11 11 13
0.6656943866319065 1.668076364730048 1.134105760704278 8 8 10
0.6322704069796771 1.6404317846713936 1.1370474270433635 11 11 13
0.6207809533045888 1.6428997045695084 1.1383821434070467 20 20 22
0.6114241407525018 1.6521622147637498 1.1396651251990424 25 25 27
0.6012755642502532 1.6589334030837957 1.1409681581594135 31 33 32
0.5852254688607371 1.6466480217313686 1.142407478938206 43 45 45
0.5814787394821523 1.6741810706010214 1.1435650934442458 27 26 31
0.5770448249296485 1.6997326218565099 1.144744996000362 27 26 31
0.5677302815912563 1.7094717806028754 1.1460361947737592 28 27 32
0.5607513286721363 1.727000300925204 1.1472801455691382 23 22 26
0.5539953037658003 1.7454230842132001 1.1485236616832808 23 23 25
0.5446934875967606 1.7554859087329326 1.1498222032733265 25 25 27
0.5372105584611964 1.7717395860457232 1.1510873206493502 22 22 24
0.5259581965064869 1.7753621558262078 1.15242707642419 21 22 24
0.5212112819541532 1.8011442101715116 1.153647752409208 18 19 21
0.5206095914702493 1.8841454932537571 1.155957360694608 47 47 49
1.0720472811496264 1.7745894680149186 1.1044763329224068 47 44 49
1.0437242752320164 1.733368831424606 1.10640763137392 49 47 53
1.0175779213780618 1.697584185524654 1.1082552525787983 53 51 55
1.0028570467321796 1.692498234342455 1.1097254323048993 52 50 54
0.9780204944415061 1.6596353600114018 1.1115127286677864 43 42 44
0.9620496531503913 1.650774018603673 1.1130123005123442 36 35 38
0.9452836923817239 1.6395779281155345 1.1145324765712163 28 27 29
0.9260859840255051 1.621464713332322 1.1161220426355685 35 35 37
0.9179906960263423 1.6341217001264932 1.1173716585081566 36 36 38
0.90235249258533 1.625690420644663 1.1188470054156368 25 25 28
0.90818241243221 1.6776930109859487 1.1196917074461161 16 15 20
0.8908827605056524 1.7006260063163154 1.1222446750407644 15 15 17
0.8704328900648948 1.6783860875224397 1.1238538457444458 15 15 17
0.731281554241783 1.5630863941740014 1.1358320118147396 15 15 17
0.7167523355548869 1.5563591323823827 1.1372343087713361 11 11 13
0.7065472397559515 1.562579082385591 1.138531691638625 11 11 13
0.6550870405945997 1.630829619977547 1.1461267928317231 8 8 10
0.6360238968989655 1.648167968199713 1.1487135715996541 21 21 23
0.623103236781573 1.6461409259670394 1.1500735268226745 15 15 17
0.6169234343916993 1.6655762045544886 1.1513064404430087 14 14 16
0.605738475732046 1.669099410397434 1.1526343666086576 26 28 27
0.5872815442436276 1.6491116281621805 1.1540891350166267 37 38 38
0.5814663750875142 1.6699291921017307 1.1553214943554269 19 18 23
0.5774814614563822 1.6969181542512013 1.1565291799462882 21 20 25
0.5709239203058093 1.7157095310189079 1.1577851634009375 15 14 19
0.556932813396402 1.7100842728437882 1.159159869067539 13 12 16
0.5461324075861097 1.7149535195767542 1.1604840205075055 11 11 13
0.5477036233666024 1.7612215176945385 1.1616323451163724 12 12 14
0.5410753647922857 1.780385686921602 1.1629067300871767 10 10 12
0.5294213863664072 1.7827077466890087 1.1642518358345422 10 11 13
0.5266262788729102 1.8151753383683682 1.1654853505144893 18 19 21
0.5198509020336264 1.877033903322626 1.1679946075098508 46 47 49
1.0763860044964837 1.7823875843305543 1.1165786008949832 46 44 48
1.0480458676860165 1.7411911578248729 1.1184319813731687 48 46 49
1.021765670682643 1.7051118266542982 1.1202144647953007 45 43 45
1.007886618311444 1.7023659693242412 1.1216461355611407 44 42 44
0.9856239581753712 1.6766187546055127 1.1233009347517084 43 41 44
0.9626730232589986 1.6486719010645594 1.1249646936211661 28 26 29
0.9477665110951614 1.6426170186477342 1.1264089759663751 29 27 30
0.9254881879870831 1.6159844458139423 1.1280388657322116 40 39 41
0.9138518247315219 1.6187324438609612 1.1293910285097857 36 36 38
0.9061284482643771 1.632438646756035 1.1306457369602465 29 29 32
0.9063409796941838 1.6686163890831285 1.1317102327281199 17 16 21
0.8939006663498182 1.7053047889253665 1.1341705252865761 14 14 16
0.8719029192905223 1.6786779088623927 1.1357699749479755 14 14 16
0.8632860494762562 1.6902469217288265 1.1370579102452758 14 14 16
0.7332867494402067 1.5651317892890577 1.1474794396111483 17 17 19
0.7193883408249728 1.5603238326005644 1.1488512251865413 11 11 13
0.7190401473963968 1.5963449934411762 1.1499721892370547 11 11 13
0.6598171417480886 1.641509446441831 1.1577913743909833 8 8 10
0.6459225343172745 1.6365217453585548 1.1591573412391727 11 11 13
0.6389123883209549 1.6531625132047814 1.1604224628509732 10 10 12
0.6255702406628657 1.6498362858146618 1.161778107710146 10 10 12
0.6210921792480268 1.6747241466181504 1.1630149239097065 13 13 15
0.60992378279544 1.678360234375716 1.164342731227552 24 25 25
0.5942327533878429 1.6673799775901872 1.1657245242486285 32 34 33
0.5820667713008667 1.6676713255033015 1.1670606100678298 24 23 27
0.5807304799686166 1.7032933783043043 1.1682773778685889 25 24 28
0.5724425666382866 1.7164343878658017 1.1695766855881922 17 17 21
0.5578927041813746 1.7089800687878067 1.170939982887118 15 15 18
0.5456124811587557 1.7089304242204042 1.1722782806259728 13 13 15
0.5526834277274406 1.7735348371067599 1.173449160672217 13 13 15
0.5457344063406788 1.791691038351604 1.1747531749811224 13 13 15
0.5381472829890603 1.8078494684929751 1.1760667441911434 12 13 15
0.5267120254006339 1.811047916218748 1.1774105088087001 21 22 24
0.5233667804031373 1.8846544987765497 1.1799884606878543 47 47 49
1.1010920376383746 1.8095950048434462 1.1271165034557564 99 99 101
1.0757446194874554 1.7768339819357661 1.1288311884356235 50 50 52
1.0481291667793002 1.7375923916403238 1.1305871994176508 36 36 38
1.020397897651408 1.6975972468074536 1.132331972080014 39 39 39
1.0129177196546737 1.71222564957864 1.1336053848969865 41 41 41
0.9884876833998157 1.6806273555123914 1.1352572859859733 37 37 39
0.9685300095413505 1.6609477783427316 1.1368005206827052 36 36 38
0.9510518167554847 1.6478670556195336 1.1382832298236605 37 37 39
0.9246878084193538 1.6099466974276648 1.139945227412358 38 38 40
0.915800855347432 1.6203401288783255 1.1412374722031065 35 35 37
0.909329173285331 1.6375651956352657 1.1424835086748621 27 27 29
0.9077383696275175 1.6686760235203322 1.1436386958536717 16 16 18
0.8935435801446857 1.664357921344428 1.145042020200253 14 14 16
0.9001425986448788 1.719157275760117 1.146057055787826 14 14 16
0.8775397375757645 1.690894843500482 1.1476161257473954 14 14 16
0.8680964912335262 1.7001526788264751 1.1489328440698403 14 14 16
0.7296392699003864 1.5871467319884078 1.160382040204203 11 11 13
0.7260204154898887 1.6134282252167738 1.1616046763254466 11 11 13
0.6684602921018113 1.6643845244007778 1.1694576821978595 8 8 10
0.6544436617913171 1.659154514372565 1.1708128790694532 8 8 10
0.6419104417093325 1.6584953311912678 1.1721515393032176 8 8 10
0.6359187565849769 1.6785345022183975 1.1734343936339862 8 8 9
0.6058673962323975 1.6611586693168323 1.1761452557221745 19 20 23
0.59279685822106 1.6585543497931925 1.177480761981029 30 32 30
0.5856006836114536 1.67493740063913 1.178778789290287 28 30 29
0.5726125741304092 1.6725474208513817 1.180112124412224 42 44 43
0.5727713525787181 1.7132495519937543 1.1813804744993037 33 35 35
0.556345955644293 1.6995963877136235 1.182730906188591 24 25 26
0.5451192732035084 1.7030020016241851 1.1840562322834514 21 22 25
0.5545851038402239 1.7755448971673347 1.1853207322837211 21 22 25
0.5460809378836283 1.788484159928664 1.1866518659240517 20 21 24
0.5328200327464632 1.7854379346212188 1.1879940637860018 22 22 24
0.5274021190094342 1.8089798645294868 1.1893253153338224 23 23 25
0.5286202481007528 1.8982457208121701 1.1920126379657938 52 52 53
1.08195032970829 1.7896185954745467 1.1409374476439034 57 57 60
1.0543406709286915 1.7504867249941705 1.1426193719957998 38 38 41
1.0243629745059282 1.704511693328246 1.1443301186773247 36 36 38
1.008700835068979 1.6969371352544598 1.1457683471115345 37 37 38
0.9875636804453225 1.6742831971713013 1.1472977891714784 37 37 39
0.9697598434470158 1.660504689095074 1.1487615928871455 41 41 43
0.9572335473817979 1.6611025792672534 1.150132206036583 44 44 46
0.9433310757451114 1.6578427016559063 1.1515235122507241 35 35 37
0.9280613691048819 1.6506907919093798 1.1529334130636726 35 35 37
0.918964149549498 1.6607141262483083 1.1542462696511513 25 25 27
0.9127743405549464 1.6789825223654942 1.1555185487405648 16 16 18
0.8974354589582181 1.671490144635785 1.1569246380508753 15 15 17
0.9039864538507917 1.7261681048355093 1.1580283089229015 15 15 17
0.8816206275349582 1.6986454666095774 1.1595290703524028 14 14 16
0.7708454763706691 1.5589794505436296 1.1668512585167732 22 22 24
0.6692757267430385 1.6628217121651019 1.1812421249708334 8 8 10
0.651125882597511 1.6446348350637312 1.1825973019580438 8 8 10
0.6313194248127153 1.6597944171246848 1.1852350654688035 8 8 9
0.6211801444707842 1.666673527399548 1.1865562065747701 8 8 12
0.6110341592257676 1.6735580116106865 1.1878782486339423 20 21 24
0.5987416727782194 1.6735456376709523 1.1892034451675895 32 34 32
0.5879160203071069 1.6782398702755343 1.1905262730802109 36 38 37
0.5754958099234075 1.6777332194034371 1.1918488800913045 52 54 53
0.54797086932533 1.7081849123864286 1.1958252425840548 34 35 36
0.5439615958989121 1.7357200356927824 1.19716915183711 31 33 33
0.5413012397420428 1.7680583808587194 1.1985266069216511 29 31 31
0.5373230506389274 1.7962729075886688 1.199889655830312 28 28 30
0.5320604965691956 1.8204030495844594 1.2012559948770078 25 25 27
0.5275036642686832 1.8471807232487867 1.2026338767046236 31 31 33
0.5299919251702223 1.89846329775885 1.2040632629266352 59 59 60
1.088226351002197 1.8025760596698914 1.1530915316196835 62 61 66
1.058478198474192 1.7577877258139327 1.154729918508349 42 41 46
1.0312479146341549 1.7193093561298551 1.156316858872204 33 33 36
1.0052953329715122 1.6838681501730506 1.1578719843821779 34 34 36
0.9895159858483288 1.6757975569637833 1.1592841933729252 36 36 38
0.9709825204658977 1.6600410743760032 1.1607255341371758 38 38 40
0.9594531260390589 1.663394582086961 1.1620776854432218 37 37 39
0.9478794792610956 1.6666126964546906 1.163429892826672 32 32 34
0.9334952092239054 1.6619856228953684 1.1648117738978834 26 26 28
0.9221891036378383 1.6658842631059805 1.1661588626444572 17 17 19
0.91251573297533 1.6743718795868707 1.1674898071062971 14 14 16
0.9033780141525611 1.6844155052420773 1.1688172037876396 15 15 17
0.9028745447829856 1.7190740341271853 1.1700712557577146 15 15 17
0.7768211801521359 1.5726150293840815 1.1785138314621686 15 15 17
0.6761802959073413 1.6802358941622404 1.1930297050836807 9 9 11
0.6657569767158422 1.6863809840805013 1.1943599377373408 9 9 11
0.6349145635477603 1.6670459636679387 1.1969969764597963 7 7 8
0.6245290111834844 1.6731867577882296 1.1983230114938797 11 10 14
0.6137328363886694 1.6780297476846397 1.199648130791714 20 21 24
0.5987498690318135 1.6693793379619852 1.200954885602167 34 36 34
0.5855610326026702 1.6663945917746954 1.2022654743893686 42 44 43
0.5756349871342966 1.673963035224115 1.203591680374736 52 54 53
0.5657743201356926 1.6817813232233823 1.2049195283666065 55 57 56
0.5585931012030664 1.698477323773494 1.206267517497752 47 48 47
0.5630787570734778 1.7540286897117052 1.207710128976866 43 43 43
0.5551127668246636 1.7686197801595291 1.2090693671926727 33 33 33
0.5438816862330775 1.7723671393900065 1.210403174509712 30 30 30
0.5398328401655557 1.8003611851609402 1.2118065537527383 26 26 28
0.5327564163544378 1.818348434083934 1.2131880184979498 28 28 30
0.5324070896343039 1.8594873757399613 1.2146499342164143 33 33 35
0.5378739625231197 1.921063276533987 1.2161959560452344 65 65 66
1.0943242933717556 1.815041727289844 1.165296825750867 76 75 79
1.060753001636098 1.7600723900697497 1.1668877460504707 48 47 52
1.0075459386177623 1.6861685393522632 1.1698869391118483 32 32 34
0.9962697101500932 1.6904105160264322 1.1712420414622933 33 33 35
0.9763337510067963 1.670899201516489 1.1726614574782788 33 33 35
0.9600966303112337 1.6613383102071468 1.1740463422198293 33 33 35
0.9527921559695095 1.6763807949170606 1.1753685548727197 30 30 32
0.9379318314702252 1.6704895704232845 1.1767393529665438 22 22 24
0.9210984198039363 1.6589678388677873 1.178116909951483 16 16 18
0.9153233072438308 1.750535223290359 1.1820422464148044 15 15 17
0.7800172114836347 1.5780787472434525 1.1902288377041415 15 15 17
0.7542328285469502 1.5750076123357148 1.192865809057085 17 17 19
0.729836401820916 1.5758349917603904 1.1954957764421899 14 14 16
0.6747604644391779 1.710450141836693 1.2062314021251461 9 9 11
0.630363265127761 1.6484843930741238 1.2087232019032277 10 10 12
0.6246535528031995 1.6694201328344187 1.2100884732930781 18 18 21
0.6164657887282843 1.6826044156603424 1.2114376552442636 19 19 22
0.6010664348199127 1.6726536246760124 1.2127191610502552 39 40 40
0.5876908171943251 1.669094031082103 1.2140160063943108 49 51 50
0.5782368079104552 1.678221565324643 1.2153535012743775 53 55 54
0.5678128783639147 1.6842233103404116 1.2166813791470363 57 59 58
0.5598147684755708 1.6982399728867124 1.2180404363269295 55 55 54
0.5583962371201391 1.7341865345039031 1.2194909635577262 50 49 49
0.5558179925777792 1.7666336672390124 1.22093859523991 33 32 33
0.5463728455725787 1.7763694422599865 1.2222971314650544 32 31 33
0.5439899344408381 1.810002773639747 1.2237668224671978 26 26 28
0.5363683030277664 1.8261953057905702 1.2251644066055516 28 28 30
0.5350137838969061 1.8639324079196875 1.2266728336862724 42 42 44
0.5409215212163848 1.9270215577820975 1.2283236732016192 71 71 72
1.101332194493993 1.8299249300935008 1.1775450818375772 91 91 92
1.07140471380183 1.7848579243167126 1.179018130555017 60 59 64
1.006523261010602 1.67958289973763 1.1819264233744509 33 33 35
0.989754340374585 1.6688185356622973 1.1832975131489347 31 31 33
0.9812838362006452 1.6806444319745502 1.1846403650388275 30 30 32
0.9703756192442048 1.6858279033800487 1.1859912712227565 28 28 30
0.9550414894179268 1.6787619788998005 1.1873496663092198 25 25 27
0.9405215732393805 1.67384256505795 1.1887026550814468 22 22 24
0.9243978730805266 1.6643388133654495 1.190052872412966 17 17 19
0.8994897192799833 1.7016070934182443 1.1940955481437208 16 16 18
0.7976916096877451 1.5895619589948615 1.2006599097880484 14 14 16
0.781657966836468 1.5789746424291988 1.2019597705701413 15 15 17
0.7397123641128305 1.5645750437217645 1.2058612377377074 15 15 17
0.7303980620630341 1.5735559912296138 1.2071863215424143 14 14 16
0.6924648389750493 1.722703356009708 1.216823164138672 9 9 11
0.6654787256198437 1.6772532391623516 1.2179701627844286 10 10 12
0.6327547238430634 1.6519208530273302 1.220482845636765 10 10 12
0.6255200601117725 1.668018549882337 1.2218556776312899 9 9 11
0.6191527682809548 1.6870249096093544 1.2232461801650294 12 12 14
0.6048126010787531 1.6805255268013024 1.224520611655975 27 27 29
0.5910259149053698 1.6756918702844597 1.2257991496805885 45 46 46
0.5805295511932369 1.6814667690943947 1.2271287004358686 60 61 60
0.5711451306950026 1.6908987205623547 1.2284782011895028 63 63 63
0.561548592209282 1.6996888963081225 1.2298260001830512 63 62 62
0.5569702800514027 1.7251598869801408 1.2312704804417136 43 41 42
0.5521497929966327 1.7500693974851824 1.2327194678385038 26 24 27
0.5481887625775821 1.7781010221475306 1.2341950045959549 27 25 29
0.5444031413545154 1.8070024214148503 1.2356847204020258 28 28 29
0.5370837229461265 1.8242027041247815 1.2371080636454754 33 33 35
0.5386504358269281 1.8718859947852637 1.2387382071492434 55 55 57
0.5454444633261749 1.938037128918034 1.2405101938595933 75 75 76
1.09766439802089 1.816267849544069 1.1898559621762956 81 81 84
1.0623426122278596 1.7566823359472656 1.1912406370913533 78 78 80
1.0351489248469519 1.7183870339424392 1.192603679176257 50 50 52
1.00364964877971 1.6679833136142082 1.193945628259085 37 37 39
0.9894249757457103 1.664110129939009 1.1952918642182213 34 34 36
0.9824615063496892 1.6800430531518582 1.196649600290925 30 30 32
0.9698078333854112 1.6804235798835943 1.1979970920002088 28 28 30
0.9582301340229673 1.6837386093304585 1.1993462725554827 26 26 28
0.9445664380890816 1.6812379846451346 1.200687220854553 24 24 26
0.9309981835363399 1.6789311509928508 1.2020257126188092 21 21 23
0.7995897988960274 1.5911860106372744 1.212425866358252 14 14 16
0.7853967297008176 1.5860160800634289 1.213717955335092 15 15 17
0.7354135590088421 1.5846123729933534 1.2189267547517395 15 15 17
0.7244167747551974 1.5886415886374148 1.2202427467091939 16 16 18
0.7172492586280853 1.7179879216360319 1.2260665745136134 13 13 15
0.6947324762544101 1.6869786784075682 1.2272226203018342 11 11 13
0.6721161916169384 1.6552638827263808 1.228361494661226 14 14 16
0.6350594944618652 1.6550774899876775 1.2322566917210354 10 10 12
0.6278217805592406 1.6711833256235074 1.2336500852671757 11 11 13
0.6219121242648495 1.6916701747074514 1.2350753081628776 12 12 14
0.609677644447723 1.691986836224421 1.236376151113594 14 14 15
0.5921880910974451 1.6752479308270203 1.237562017097658 22 22 24
0.583806530432742 1.6879101976353073 1.2389409196374612 34 33 35
0.5742944234560852 1.6969655066930232 1.2402975273651604 55 54 56
0.565377100187141 1.7080320126819206 1.241670315039737 58 56 58
0.5605207928348246 1.7326252660999735 1.2431455355402923 35 33 35
0.5546425664418575 1.7540493538576671 1.2446041783206663 33 31 32
0.5496573815823704 1.7786650811452378 1.2460938518607214 31 29 30
0.5461821944251228 1.808608491078139 1.247633293735806 39 39 39
0.5402736339518159 1.8306021036441038 1.2491174503823177 50 50 50
0.5463651521860324 1.8937395232481804 1.250950260040535 65 65 65
0.5500240575865071 1.9492316894317454 1.2527396392764099 82 82 81
1.0959123248349503 1.8077397670980007 1.2021315910777053 60 60 64
1.0734249784804462 1.7825956087789878 1.2034619050798296 91 90 92
1.0406585176792744 1.7294299152676416 1.2047274394024037 73 73 73
0.9874706387103162 1.6549787779133867 1.2072641205382229 37 37 39
0.9818827442606174 1.6746318897590295 1.2086491620397268 34 34 36
0.9683336697782419 1.6725296158538032 1.2099818865373595 32 32 34
0.9584134347525645 1.6803958842510933 1.2113405779372033 31 31 33
0.938465539774715 1.6604182315091505 1.2126153984144048 29 29 31
0.84720264068748 1.6166404243284807 1.2203865053116323 17 17 19
