ply
format ascii 1.0
element vertex 734
property float x
property float y
property float z
property uchar diffuse_red
property uchar diffuse_green
property uchar diffuse_blue
end_header
0.3781847524625671 3.7058856219990424 2.222454029932272 27 29 30
0.3715437355953458 3.7219761589105023 2.2178527677438136 43 44 44
0.3761569504914759 3.734183917267011 2.2155837902614226 28 30 29
0.34555286829453047 3.758354036476506 2.2060604075892596 15 17 16
0.36443961023579696 3.765678473255696 2.2067398093301045 15 17 18
0.37508483631463985 3.775825436696095 2.205716142270929 13 14 16
0.41019273296583536 3.7778213436289154 2.2096945526978784 12 13 15
0.4160134245251398 3.7896629607329477 2.207664018665979 12 13 15
0.42001487078145616 3.80211158472807 2.2052612956783904 17 18 20
0.6801393610836113 3.829574120335975 2.2317764122450954 15 15 17
0.6320117224167092 3.9704210392420185 2.1927662659515232 29 29 32
0.904137670607615 4.102650100676578 2.1963161742773627 43 43 49
0.8994444709541879 4.118055431716254 2.1921216546545708 43 44 49
1.0158731143515478 2.5095387580037207 2.598130617527895 76 76 79
0.9874083436628445 2.5388088353127434 2.587623798411132 64 64 69
0.9765028867214964 2.5598593254830475 2.5812940773471973 53 52 61
0.9559892319315173 2.617092422586881 2.565256070363753 44 43 49
0.9782503516643298 2.622903207602504 2.5667492511427636 42 41 47
0.4040219611600866 3.643868455789284 2.253943557205818 47 48 52
0.39210057789483677 3.6619643965573525 2.2481757125429405 41 43 46
0.3885223238036649 3.6770934406606863 2.2441727037487222 32 33 37
0.387033653122385 3.6914693571553636 2.2406140627336755 26 27 30
0.38237971883048416 3.7069155610803426 2.236398825564545 38 39 41
0.3715835737848835 3.7244356736719735 2.2309101604793353 51 52 53
0.3764689232423861 3.736551189573023 2.228698359485128 37 38 39
0.38387041289190527 3.747815319104017 2.227008640071815 17 18 19
0.3766878404325289 3.7640128107289756 2.2222931682544345 14 15 18
0.40907685328629484 3.766886220097323 2.225773120948331 13 14 17
0.41169954229496086 3.7797992001331595 2.2230843728933287 12 13 15
0.4205502070488846 3.7906384849632544 2.2216799999831784 12 13 15
0.41490550164751094 3.806280763105278 2.2172917878920186 13 14 16
0.428670982514211 3.815513230048728 2.21689403751927 15 16 18
0.6452905393108488 3.8431356031589177 2.238199207592973 13 14 16
0.6097638267977603 3.9796204434643796 2.201670338625967 29 29 32
0.9038931562872566 4.105323970270391 2.2099373589901496 43 43 51
0.8991992931156807 4.12072649681785 2.205727233957215 44 44 51
1.0044781464503965 2.5175846814796783 2.6101125768884135 86 86 88
0.9815095394911584 2.544280797629488 2.6008614195272624 73 73 78
0.9706218895204395 2.5653066839176586 2.59451040046751 58 59 66
0.9584120999554447 2.586877082480521 2.587859845535797 49 48 55
0.9409056138961451 2.626676783909961 2.5762409241527253 43 44 49
1.0358017261291768 2.647625224296881 2.5836435768404633 40 41 45
0.41187694820979215 3.657527128247704 2.265484255495663 48 49 51
0.3941797604338987 3.677605749651903 2.2584714898154017 46 47 48
0.3976533926054471 3.690272100049327 2.2559482023923954 45 46 48
0.38982397907623456 3.706829117040252 2.2510436627601718 45 47 48
0.3823766600310917 3.7232108961285175 2.2462298856447047 37 41 42
0.38777918438414594 3.735170523004059 2.244123008399422 24 28 29
0.3964674990500755 3.746020563940094 2.2427033281085746 19 22 23
0.40884533152398717 3.755642899995343 2.242051003512696 18 20 23
0.40600713562752544 3.770397230503233 2.238217856274949 15 16 19
0.4046294582708393 3.784638616237323 2.2346948000125852 13 14 16
0.4214058161176517 3.7928381107565214 2.2349477142750898 14 15 17
0.42337310569193587 3.805968164302989 2.2321199488065235 16 17 19
0.4257066885902606 3.818969744150909 2.2293699129520466 19 20 22
0.609567355598171 3.8569502359521946 2.244324684736533 13 14 16
0.6273052250426747 3.8653673197907232 2.2446513519398543 14 15 17
0.5689429060954314 3.9943637111289347 2.2067822804684534 19 18 21
0.8984284854797633 4.10942154996128 2.2225463549204183 46 46 53
0.8948939830872045 4.1244977749950325 2.218547208319787 46 47 54
0.8971720072636804 2.6176590539563906 2.5877822174011316 59 57 63
0.9087560556334415 2.6281862387861525 2.586827249947659 51 50 56
0.3981503939308355 3.692584192902963 2.269164829892689 44 46 46
0.39299665325576927 3.70821773819129 2.264807504079487 48 50 51
0.39524483735251703 3.7212830327053945 2.2620277819685306 47 51 53
0.3980293779565649 3.734158358147914 2.2593632865000495 40 44 46
0.4025039800732638 3.7464559676705527 2.257056956572509 37 41 43
0.41004545540357273 3.757721389094364 2.2553967674814546 34 36 39
0.40639539375194034 3.772747952803304 2.251379992907128 29 30 33
0.4128413244475083 3.784381956673157 2.2494890218491057 28 29 31
0.3910908624978592 3.805366988367064 2.2416901859637868 21 22 24
0.4237953593368732 3.8083125021765305 2.2452963765739034 20 21 23
0.42088576347362294 3.8230329166952157 2.2414490081000245 25 26 28
0.4434859761472292 3.8294135079633347 2.242918297407165 22 23 25
0.4572246905333016 3.838732572330658 2.242530957970672 19 20 22
0.5430640560161782 3.82484899807934 2.257083721064773 15 15 17
0.5679018035162132 3.830810013059136 2.258945926979237 12 14 16
0.8997462067576195 4.111668136974795 2.2364641186899608 56 57 62
0.8950717833640363 4.127053020742582 2.2322283357506 56 57 62
0.933661217265845 2.635414234399542 2.6035555937360595 51 50 56
0.407495331901807 3.664039325048852 2.290841820081161 39 40 44
0.4085026478616123 3.677596729281636 2.287777213269631 42 43 46
0.4016358283653936 3.693863813227297 2.2830253639072393 40 41 45
0.3955678933272424 3.7098153687536426 2.278454278782608 39 40 44
0.3752019533976708 3.7306186887596935 2.2708356336346323 39 39 44
0.3876960954266868 3.740154526922614 2.270248586482846 40 41 45
0.4046214246668941 3.7482213705404934 2.2705978538953433 41 42 46
0.41065718686344155 3.759998799715162 2.2686224194277806 44 45 49
0.4203974106151217 3.770542949929219 2.2674309692271635 44 45 48
0.41519247194303877 3.7860815553144276 2.2630721659073902 42 43 45
0.40678893346845557 3.802644532235748 2.258045989823071 40 41 43
0.4032179925770032 3.8175705425131747 2.254049180751734 37 38 40
0.39470100607469905 3.834087460276261 2.2490187733323372 35 36 38
0.49706091371835714 3.842178862810067 2.2607323611841 27 27 30
0.5492924717844816 3.83929369392943 2.2683643433332668 25 26 29
0.6164062901702658 3.845865131447351 2.2757457961053253 24 25 28
0.5830434594263726 3.870371122180113 2.2655238619496565 26 27 30
0.6059987925711078 3.8771172701422385 2.2669872345567708 28 29 31
0.5686376924349845 3.902697280179697 2.255979789458885 29 29 32
0.5464958533576786 3.9234195358549435 2.248143923565276 30 30 32
0.7819651198816842 4.020417066824083 2.2565963874785995 43 44 48
0.8044788705006498 4.028025425576512 2.2577975660988283 45 46 51
0.9902363665267396 2.5484854959169896 2.6468940564083003 90 92 90
0.3928924259917409 3.69936870747025 2.2942527806764246 30 31 33
0.39519788697806746 3.7124251029151596 2.2914756036012935 36 37 40
0.3883930766927468 3.7285868753941407 2.286736814795476 40 41 45
0.4066219428886071 3.736201185393273 2.2873916373353045 38 40 44
0.3919415173924976 3.7549897033187976 2.28097074584938 35 39 42
0.4049072856269793 3.7919846757071607 2.2739682918141333 42 43 45
0.41659322251615527 3.801881585625187 2.2732019210651613 45 46 48
0.4126317750249756 3.816951683559629 2.2691043247217557 45 46 50
0.41011046416457453 3.8315209274301627 2.2653191724659427 45 46 50
0.4892662437746995 3.8471897567739965 2.272276420568001 40 41 46
0.5277628218855162 3.848699331710828 2.277105161128376 42 43 47
0.5847429460222144 3.8723647416224156 2.2791840715739027 38 39 44
0.5568313192690282 3.9088880928088576 2.2667866970697457 38 39 43
0.7210011467911301 4.026571350588968 2.2610702653292565 47 48 52
0.7438745902053115 4.033950237478707 2.2624064188880237 51 52 55
0.7767538798347413 4.038534419491369 2.265751352446871 51 52 56
0.7780381852123034 4.052195088511856 2.2626937128716147 52 53 59
0.4018285758510246 3.7126324145344576 2.3060202610252896 17 18 20
0.4018900298825413 3.781696411010801 2.289657026070569 38 39 41
0.45648251724822553 3.8464479507126548 2.281750165765614 46 47 51
0.46577260203567317 3.857239826569615 2.2804584515351003 46 47 50
0.5199588780168676 3.853705726886112 2.2886833166372686 47 48 50
0.5753761295079807 3.8499608288722467 2.297125967901971 47 48 48
0.6008845567979526 3.8698235653550297 2.2958950214992955 45 46 50
0.6058171851311942 3.882243005216202 2.2936234500327832 45 46 50
0.5967014757994029 3.899026427639906 2.2884022150608825 45 46 50
0.5724894592904539 3.920421652349112 2.2800297033474037 46 47 51
0.5471872583198548 3.9420490749946357 2.271453526460516 46 47 51
0.7296765254708188 4.040594520656553 2.2729717378515426 64 65 64
0.7510325350821564 4.048453461369121 2.274020199094451 58 60 59
0.9558367643110445 4.075784807852546 2.295461859323972 71 72 74
0.42349004286048775 3.6937888840672484 2.327189870604538 24 25 27
0.428955326918637 3.7058176456202463 2.325085680969747 19 20 22
0.4010921980449984 3.7844426442485024 2.3025600731853277 19 20 22
0.4111243226201142 3.7948813196440963 2.3014636949169045 24 25 27
0.41659377732759373 3.806846926249969 2.2993750867151963 31 32 34
0.41407792905704877 3.8214379472806352 2.295561089006885 35 36 40
0.4415944340878729 3.8399812254868166 2.294950963196629 34 35 39
0.5972142420611664 3.887461435446708 2.305137032747458 46 47 51
0.591920602268269 3.9030399449262716 2.300705204449221 50 51 55
0.5677464629598278 3.9244059908095497 2.292293652041347 51 52 56
0.7279116372555243 4.029693673556006 2.289371261713881 58 60 62
0.7698557831978672 4.031624799487936 2.2946985994545335 55 56 57
0.7636595222150384 4.047418806549968 2.2900910508612866 57 58 59
0.8255669571505004 4.057966381378309 2.2961249875764973 58 59 62
0.9184694673866316 4.074478444102684 2.3050174823011513 59 60 62
0.9527166848740419 4.079268475616295 2.308603732488597 60 61 63
0.9350716941831048 2.582116076441854 2.6771076087629924 90 91 92
0.8806332559382918 2.6387714098392077 2.656016184677217 85 83 85
0.4960288374335221 3.6713047669955 2.3564224611538958 28 29 31
0.4545049923589297 3.6995610064738518 2.343897234282069 28 29 31
0.45335259041987375 3.713896138085363 2.3403222592573307 27 28 30
0.4474996437109289 3.729804056805785 2.335716636027196 25 26 28
0.43273078450340097 3.76253538563389 2.325859846734392 20 22 23
0.42295227088042453 3.7796353035858994 2.320422431050826 19 20 22
0.43053914852240216 3.7909267819877983 2.318792108193585 19 20 22
0.44316554097977856 3.800568749996954 2.3182580171233163 19 20 22
0.4395466348704187 3.815567936216036 2.3141806321847778 19 20 23
0.4280523746901984 3.8331065059494036 2.3083992745319675 23 24 27
0.423339260736159 3.848388998521309 2.3041016949728337 36 37 40
0.41427336902310485 3.8650425897772713 2.2988700409693803 37 38 43
0.557177869575938 3.9301818903477863 2.3033015930765273 35 36 40
0.7556394399094539 4.024257686815822 2.3085956894725603 44 45 50
0.7703724652670078 4.034050604370408 2.308319674572352 47 48 52
0.7870028764225752 4.043339609666363 2.3084284961926187 50 51 55
0.8076076521710551 4.051546683847528 2.309349706646048 49 50 54
0.8324566021720721 4.058616897152449 2.3111340461934056 50 51 55
0.9125593198523552 4.064526389160188 2.3209067123348053 54 55 58
0.9164012077177448 4.077665309573715 2.3183136967789104 55 56 59
0.9529726832190624 4.081824198840121 2.3224275500897438 55 56 59
0.9683378424624913 2.553545692791978 2.7038322591643023 104 104 106
0.9385428304872971 2.5832481595725483 2.6925346886139376 84 84 86
0.9085234159367191 2.6129174971166833 2.681213342321834 73 72 75
0.9026235111075231 2.6314519916691803 2.675955690651251 64 62 66
0.4225260434356707 3.7130057883029703 2.3499763365299233 23 24 26
0.47488549721024087 3.7230320371386703 2.3549757165189167 34 35 37
0.470640074673664 3.7384087873768697 2.350705496263181 33 34 36
0.41308494987067534 3.771605277184081 2.334654239022858 30 31 33
0.430901107820411 3.7932955907362302 2.331991803057553 24 25 27
0.45939358472362335 3.7977152468912827 2.3349597159043833 23 24 26
0.45745259596141075 3.8121921010795576 2.331229695751277 22 23 25
0.44869727343621113 3.8288661858013215 2.3260129973413926 21 22 24
0.4433118695598772 3.844401356369671 2.3215439990895668 19 20 22
0.3862398791733641 3.917445751927845 2.2960483333787765 27 28 32
0.7446205512842565 4.030002662245006 2.319779839272007 38 39 43
0.7785235348430972 4.0342909713838 2.3235430427929944 38 39 43
0.8041433007371603 4.041040795136998 2.3255490786030886 40 41 46
0.8209616449474569 4.050354580411343 2.3257003225547215 40 41 46
0.8494445848324088 4.056434164486804 2.3282706253142647 41 42 47
0.8781666687533252 4.0625318535438995 2.3308703718722774 47 48 53
0.9164430740166484 4.066063830325004 2.335431633705946 50 51 55
0.914384875076106 4.080836664384091 2.331614406793695 54 55 59
0.9485501743747564 4.085662054758396 2.3352864340995265 59 60 64
1.017678497744003 2.533513291943955 2.730953487430944 96 96 98
0.923857353427101 2.5927272781549986 2.7033853485371258 80 80 82
0.9151810193150973 2.6125894834925187 2.697393556565584 73 72 76
0.8975482267358063 2.636480104206523 2.6891586976921333 56 53 60
0.43364983567160353 3.711695460048316 2.365626675513109 16 17 19
0.4603402562323209 3.7165228378301967 2.3682834415314904 19 20 22
0.44465177379268195 3.735763843336813 2.361438831357555 30 31 33
0.4766954191115683 3.738877083959153 2.365270294482234 30 31 33
0.44519283658274333 3.7633494938348933 2.354915371015158 29 30 32
0.42128581098597984 3.785164290404699 2.3462811459781974 29 30 32
0.4110171222749165 3.802363761922818 2.3406990801259164 30 31 33
0.43314984557499814 3.808848328851803 2.342308391147643 31 32 34
0.46261590739175973 3.812998096407805 2.345523707757535 31 32 34
0.4673968405082889 3.825272602816061 2.343269448852137 31 32 34
0.4709558562060149 3.8379443674439777 2.340745621844071 36 37 39
0.46357096565268674 3.854135319380577 2.335816733778999 40 41 43
0.8022216466400545 4.030090314585775 2.342079326021988 39 40 44
0.8205583358872088 4.038959434245152 2.342575916536357 41 42 46
0.9335301753351127 4.063944318000471 2.3527318905154924 55 56 60
1.0303487079688924 2.498133030201191 2.7566455636813902 202 202 202
1.0196089916168858 2.519264193403463 2.7500262134816476 134 134 135
1.0096258345001168 2.539985182782413 2.743614517663018 92 92 93
0.8850668027616774 2.644877107204518 2.7004658001406296 62 59 67
0.42092153019896017 3.690735305967143 2.382585750967626 14 15 17
0.4327779660692578 3.7005738258940495 2.3819386430186187 14 15 17
0.44786316219042144 3.7093374829743495 2.3820156962636627 13 14 16
0.44968127835655614 3.722647263823147 2.3790860939332625 14 15 17
0.48271204413748864 3.739362513306663 2.379848121922219 20 21 23
0.4215562516559497 3.7737445591181333 2.3627685190310648 25 26 28
0.4245705115868149 3.7865594873471693 2.3601303745929583 26 27 29
0.44391898602390023 3.8077969916973466 2.357831498028502 30 31 33
0.441525310518313 3.8223904337988026 2.353985665991779 29 30 32
0.50804229118549 3.814556800099094 2.365472283642565 31 32 34
0.4966799424369551 3.832126310010097 2.3596172253409105 31 32 34
0.8339810024885157 4.009450480210413 2.365808070318873 40 41 45
0.8562641064345868 4.0172365503040135 2.3671592631242504 44 45 49
0.8848552778345806 4.02329488624698 2.369835980807241 48 49 53
1.0346456715047592 2.4827173352797463 2.776399818818281 208 208 208
1.0202363986683498 2.505598050932872 2.7687946448335636 196 196 196
1.0146527958288476 2.5243179827667137 2.7634788390592138 118 117 117
1.011989274870636 2.5416512241844744 2.7589229135128934 91 89 90
0.9216746823790667 2.5991792633329642 2.7319014593307362 79 77 79
0.3937818591896073 3.6748243686347277 2.3962116544110836 16 17 19
0.3651273179408364 3.6986484483847053 2.3862989585933603 21 22 24
0.42508900568718666 3.691792143271861 2.396705520978226 19 20 22
0.42431391772161764 3.7059740141547604 2.3931830132704803 14 15 17
0.4412446474382804 3.714096444235786 2.3937033883738015 15 16 18
0.4720788795201681 3.717547063638891 2.3973776764939805 14 15 17
0.49258265195238987 3.7245815691686426 2.3986814839889212 14 15 17
0.4586849044000718 3.7499375411687828 2.387634673914936 14 15 17
0.43579719561880104 3.7714781358068676 2.3791132574162983 13 14 18
0.4272102434680787 3.7881711422855315 2.373846035550713 16 17 21
0.46451507324203123 3.8173729775003755 2.372274910871711 23 24 26
0.4628288473210942 3.8317524123651996 2.368571823556965 22 23 25
1.0209245766503003 2.4918850362001312 2.787604653800988 207 207 207
1.011370278015218 2.512477567980173 2.781231676645116 192 192 192
1.012126018197881 2.5282449507742983 2.7775440366986506 113 113 113
1.0089872968949822 2.5457900320863422 2.772852877024481 88 87 88
0.9164722618337594 2.604289634533709 2.745093501364966 78 78 79
0.3560733711222567 3.6766064966186276 2.403946578042455 22 23 27
0.31718069890140943 3.7039840176828416 2.391605739681552 23 24 28
0.3649251937417375 3.7011952286189196 2.3993290831398033 23 24 26
0.4070003378318079 3.700519593291363 2.405705943999719 28 29 31
0.4227922720695112 3.708989710344255 2.405997318181569 26 27 29
0.4383728050732353 3.7175741318434694 2.4062299281847728 26 27 29
0.43786224368335813 3.73165518382053 2.402761601177274 21 22 24
0.4525124295662757 3.740606610661378 2.4027683762083334 19 20 22
0.4568975731505126 3.75303847054023 2.400420477729748 19 20 22
0.4351155728224133 3.774198481623506 2.3921048580667073 20 21 24
0.43212786379445334 3.7890290590590032 2.3880900789591935 22 23 26
1.022631797700252 2.4938521045687767 2.802801407267902 207 207 207
1.0078025955019627 2.516891993031195 2.795022708759089 189 189 189
0.9970223209331053 2.537983134964569 2.788319225502444 117 117 117
1.0041458730387722 2.5507735021729396 2.7862938052662134 87 88 88
0.9993601341764067 2.569030413687827 2.781169902448546 77 78 79
0.3458852822930325 3.6688143041967494 2.4179820841863453 33 34 39
0.34574853902793956 3.682693136219358 2.414609716439619 36 37 42
0.3239755434278049 3.704082418895653 2.4061928561252355 42 43 48
0.3676785572920883 3.7165435573922587 2.4097087899301277 40 41 44
0.36985920596965527 3.7296056205813 2.4068797043179395 38 39 43
0.4152563448830091 3.7279438522593353 2.4140594931843937 36 37 40
0.4155633915087902 3.7417044808276776 2.410781937598045 32 33 35
0.4302855229930703 3.750594693051242 2.410833041685114 31 32 34
0.4353352739990487 3.7627637082006586 2.408648039104896 33 34 36
0.43885351761558766 3.775445871888439 2.4061104272090983 37 38 40
0.441551156557889 3.7883972186466397 2.4033852753964107 39 40 42
0.451135756281725 3.7990731051408018 2.4022380044041123 33 34 36
0.5289098317588781 3.80138160170967 2.413293256392874 32 33 35
1.0010217988114554 2.5227944539099862 2.8079560140672157 191 191 191
1.0026011260228895 2.5381593009349235 2.804474965445517 122 123 122
0.9984665324679897 2.556139200512005 2.7994984234175444 86 88 87
0.9938996014770187 2.574281996806071 2.794417191474142 77 78 78
0.9121727815459478 2.6434125440205642 2.765346662744719 63 63 67
0.9050016938812828 2.6624801139706338 2.7596484966869714 57 57 62
0.3683091775259377 3.64952513274753 2.4397023028228912 44 44 50
0.32058506036834855 3.680174087744201 2.425079525418049 44 45 51
0.31820909535726993 3.6947875769413905 2.4211833508611487 43 44 50
0.3169788422255253 3.708978552720478 2.417562389151344 43 44 50
0.33355400725201345 3.71699410794906 2.4181238794877826 43 44 48
0.35437062184961166 3.7235965675772955 2.419667646366298 42 43 47
0.3738514779072796 3.7307167685002605 2.420884462628247 43 44 48
0.4150469218439974 3.730505648336101 2.4271535930265364 42 43 47
0.4205776904969979 3.742497470670237 2.425085495322641 43 43 47
0.43469361274822194 3.751604699780639 2.4250115225668103 41 41 45
0.4348553965137948 3.7654184645093367 2.4216919873726077 40 40 44
0.44189333863559466 3.7769282544597567 2.419968069382654 40 41 44
0.45620213161121403 3.786041029818765 2.419921865852899 41 42 45
0.4786347785089654 3.792515646739434 2.421740503403597 40 41 44
1.0027324864665306 2.524756915494906 2.8231161579482 195 195 195
0.9905240075409523 2.5464876302388637 2.815980978439977 128 128 128
0.9787628263436234 2.567945856675245 2.8089801556847247 96 96 96
0.9701874266570294 2.5878813260332576 2.8028348436215915 77 77 77
0.983428877059183 2.597824692447577 2.8024424387707914 71 71 71
0.9610454508805144 2.639882944441298 2.788822783235515 53 53 60
0.9526698016908413 2.6595519323359933 2.782772603368842 50 50 56
0.9543376801536912 2.6746725622129444 2.7793582986071397 49 49 52
0.41726294530981745 3.5786751789879516 2.478078434919189 46 46 54
0.43385653122565965 3.5867697801612395 2.4786460209599994 47 47 54
0.3418727049849499 3.6336110029883524 2.4532472582497538 47 47 54
0.3411141803516705 3.6477486212660013 2.449701279902362 46 47 53
0.3360316617935071 3.663392978664367 2.4451300257238304 46 47 54
0.33522739372824395 3.6775016821128714 2.4415840842138143 46 47 54
0.30064506656665824 3.703382069566645 2.430028585793553 45 45 53
0.31960753442741163 3.7105281812170334 2.4311877157599877 44 45 52
0.3341385706628338 3.719259019540286 2.431286256279059 43 44 49
0.3436960999949351 3.729736290740818 2.430202270243163 45 46 50
0.37463714822854643 3.7329263797656784 2.4341487768944527 46 47 51
0.43930735403981047 3.7525486066480167 2.439254199609678 43 46 50
0.4360416451223653 3.767515930632308 2.435124398093313 44 46 50
0.44994258458969083 3.790610385206075 2.4316417193059747 45 46 50
0.4561305600514969 3.8024230197746354 2.429719653220981 45 46 50
0.979151634716221 2.5705130307044035 2.8237336630595093 103 103 103
0.9634271527686487 2.5937139854116964 2.8156667941390334 83 83 84
0.9576699526060506 2.6122967147219747 2.81025990937772 71 71 72
0.8943509343129494 2.656930723811639 2.7896420271484477 60 60 63
0.8956489218503073 2.672133893139659 2.7861448733145857 53 51 58
0.9431238368502335 2.6665729545744306 2.794817467317395 49 48 55
0.9559729491845659 2.67667165414684 2.794342763232428 47 47 50
0.962614588446286 2.689567326770375 2.792230719006043 46 45 50
0.9090708202256161 2.729163443211673 2.77434527112502 46 45 50
0.9366257107796447 2.732722190603145 2.777728534912902 46 45 50
0.3319430303900587 3.6257577160026933 2.467312475703073 49 48 56
0.34626278953370426 3.6345233415136975 2.4673887257194607 49 48 55
0.33802958331825106 3.6513157940804044 2.4620354437935568 48 48 55
0.3509944978081809 3.660591668800767 2.461778699973981 47 47 54
0.363990583599065 3.6698887941387226 2.461521594512273 47 48 53
0.37701610109104633 3.679207894497376 2.4612636830081493 46 47 52
0.39007286019196974 3.688548449945561 2.461005370976791 46 47 52
0.4031591192931794 3.697911179044326 2.460746215128917 46 47 51
0.3894065687836036 3.716517524258346 2.454100773992045 47 48 52
0.35638004896509157 3.741637280517516 2.4428994444235914 48 49 53
0.36457568374059046 3.752623902280947 2.441491279004542 48 49 53
0.40059583057012926 3.781851295191022 2.439937397018461 45 49 51
0.4406546643674182 3.7961763600806946 2.442630375192013 48 48 52
0.4411443185303897 3.837460704171184 2.4326658451852827 46 46 50
0.7266735387723158 3.8869839323824795 2.4646482936735437 47 51 54
0.741015595924515 3.896751342880781 2.4644843555546108 47 51 54
0.7641785951394118 3.9038789087836556 2.4663225192481772 45 49 52
0.871396045508809 4.0001213806633915 2.4594490950679693 11 12 13
0.896156658756719 4.007279895478687 2.4615260703537962 13 14 16
0.9215331993763891 4.014335553077457 2.4637230303319035 14 15 19
0.8554295822995583 2.645796318462808 2.8014262191746155 91 91 94
0.8881698745183749 2.6624445296963795 2.802469711421712 61 59 63
0.8759001779486524 2.68375389348894 2.7953636865494587 51 48 55
0.9429211241697273 2.669392227143657 2.809307415552555 49 46 53
0.9498541783709531 2.6821387026560712 2.8072807362907444 47 45 49
0.9609233934217358 2.6930526969094117 2.806345214217668 45 44 49
0.9734278402644552 2.7033554025569724 2.805782329198659 43 42 47
1.011020197456749 2.7185240874868626 2.807942495904935 42 43 47
0.35685691417188625 3.6053954226770233 2.4898360721240262 24 23 28
0.3644578574421349 3.6166030226895582 2.488288564975244 33 32 36
0.342059858568596 3.652362921675933 2.4760820319277657 41 40 44
0.3484536020213548 3.6639631015903698 2.4742507297163323 41 41 45
0.3548524371710503 3.675569415125023 2.472418725802672 35 36 41
0.8884650690129474 3.9978339752842635 2.477012578109097 14 15 19
0.9219195943010596 4.0025504838658295 2.481075730500029 17 18 23
0.8866772963046778 2.6658322225205686 2.8165326638306274 70 70 74
0.939679672938507 2.6894136739246606 2.8191163981415674 46 45 50
0.963717530145944 2.6945420548773273 2.821648110308218 44 43 48
0.9789514273841251 2.7036445943179572 2.821822756186048 42 41 46
1.0149089076353444 2.7354558732628256 2.8197122268599157 40 40 45
1.0108991566500394 2.753074927559482 2.814776386616372 45 44 49
0.3684272775560905 3.6037228288312053 2.5058001132943115 9 10 11
0.37501404462088894 3.6153157438215935 2.504004889194097 12 13 16
0.38099753901938094 3.627131665702063 2.5020602000482266 16 17 21
0.3874403156426163 3.6387915159364885 2.500225952419308 17 18 22
0.39388732468338106 3.6504578929651204 2.498390776594995 22 22 25
0.4003367945037327 3.6621314265115883 2.49655423979209 17 17 19
0.8207742034530141 3.920459965610939 2.499637379004336 8 7 12
0.8869196632274262 3.9866242229475284 2.493886978673582 23 24 28
0.9303075334309401 3.9884572805018017 2.5002703296886004 26 27 31
0.9790379389862933 3.988906478207885 2.5078329261778056 31 32 36
0.9950571108637061 3.998772097271818 2.5079447806781237 40 41 45
0.8713653142816735 2.6439329921599946 2.8345846458234494 101 101 102
0.9423569697968153 2.6909447997093427 2.8343656247871896 49 48 53
0.9500893550668859 2.7033324297100982 2.8325622660687455 45 44 49
0.961531374961847 2.7140902943935736 2.8317480874522762 42 41 46
0.9613341384732629 2.7300020763357846 2.8278203878343318 39 38 43
0.9854537309604727 2.7352291714137853 2.830377177187087 37 36 41
0.44126226431051957 3.6363006270779263 2.5231658337560834 8 8 11
0.4449995290172272 3.649010805397995 2.520647980917325 8 8 10
0.4529905015534056 3.660239745825002 2.5191694849866466 27 27 29
0.614135028152454 3.788892638203221 2.5132997687450422 8 8 10
0.6326136364331905 3.811147729945548 2.510789582998319 9 9 11
0.6904979437825294 3.8068069213724796 2.5210602876707964 9 9 11
0.8257775699494831 3.9215667678834034 2.5144781876208877 38 38 38
0.8533783091769669 3.9276243972653386 2.5173853564476545 49 49 50
0.8748723557655496 3.935567222577908 2.518859493102296 51 50 53
1.0126104584319195 3.9819990606964084 2.5293999762194423 45 46 50
1.0326692613409603 3.990786037271574 2.530439098199046 45 46 50
0.9297542691914404 2.6041142798899894 2.8688569303016425 134 134 134
0.902124432287516 2.6326196684513206 2.8574207432595617 112 112 113
0.9250288855844823 2.701401728947208 2.844220291705394 59 58 63
0.9268212570049486 2.716395055493786 2.8408285111793403 48 47 52
0.9473335415258267 2.7230996766702193 2.842479312682536 42 41 46
0.40589156070523147 3.5108482982640097 2.562132516219196 9 7 10
0.5362389473790257 3.6479866024266494 2.5494214279657723 8 8 10
0.5126802277914466 3.6702270542816455 2.540177072378847 8 8 10
0.5192517821022498 3.6820638333174838 2.538328016863323 8 8 10
0.6727911992499189 3.7440090300713122 2.5477985343472236 10 10 12
0.7918033807259032 3.9201006712049873 2.5237055598252702 59 61 60
0.8186189142975904 3.926306453190752 2.526491721590819 64 65 64
0.85381943052772 3.930104849228219 2.5312161924133063 61 63 62
0.8944159073644493 3.9324219290957356 2.5371713519865002 58 60 60
0.9372898509023946 3.9342003059543145 2.543624713674409 58 59 60
0.931288098297034 2.6061425319259177 2.8838447664323126 100 100 100
0.3881779366323088 3.51989599337147 2.5709086764571993 19 17 20
0.6467235805387511 3.6696613768060167 2.5760370501548215 9 9 11
0.655897035712715 3.780488017294719 2.550263914998662 12 14 16
0.8220411332567784 3.9278874535468074 2.5409749443842977 56 57 59
0.8591799000694673 3.9311280613774566 2.5462064432128404 52 53 56
0.892747625872302 3.935537073378263 2.550570846950785 52 52 56
0.9298967211825654 3.939001342168242 2.5557490040286313 50 50 55
0.9116716748313798 3.9586941116552126 2.547946347747943 47 47 52
0.97099090800005 3.955880864882928 2.558267541341482 46 47 51
1.0192108228104588 3.956452480285822 2.565954364384787 44 45 49
0.6803362454406293 3.7751572442531964 2.5697221735826266 25 29 30
0.7443096294345294 3.7974313777748834 2.5747193343233516 31 35 36
0.705966622967324 3.8238177542046214 2.5619271917053448 32 36 37
0.7173299804010467 3.8344452200851324 2.5611700858654602 34 38 39
0.8681949926970586 3.9310731902985685 2.5620817518218635 37 37 42
0.8979449422204794 3.9366313834192286 2.5655890749872987 36 35 41
0.9341120863482554 3.940403108683084 2.570588992052989 36 36 41
0.9688827610769251 3.9446934718662887 2.57523207882161 38 39 43
1.0097560807552861 3.9473285913659875 2.5812838337369515 40 41 45
0.937341344506089 2.6565465221738602 2.902881959233567 96 98 100
0.6669084594572622 3.8245730747235225 2.5694710483702727 30 31 33
0.6802273098547361 3.8345112505017207 2.569220632434653 29 30 32
0.680773156904718 3.8484873637240566 2.5658573779721148 28 29 31
1.008065877091015 3.935964106847482 2.5984359001787745 36 37 41
1.0460580725991684 3.9395124387017937 2.603850025957751 39 40 44
0.9235564759924665 2.6337574064580602 2.921453793373656 76 74 77
0.5825818732400112 3.769614402705904 2.5831196246706294 23 24 26
1.0575688231532552 3.968011826995143 2.6134073418616866 52 53 57
1.079903979249273 3.9908146964345104 2.6114945167161596 60 61 65
0.9247332165088056 2.635950372452974 2.9363350717294505 73 71 76
0.9129399615426308 2.6571591305132056 2.929079175339471 72 70 75
0.9330394004154875 3.9630152720283296 2.6083191219836954 48 49 51
0.9637295710201279 3.968555066266207 2.6121258481163965 51 52 54
0.9982140268359804 3.973102246895883 2.6168196166255875 56 57 59
1.0143859925474512 3.9974341812357563 2.613510231966237 59 61 66
1.0319912015132076 4.006946013306079 2.6141216489923145 61 64 69
0.929105698721856 2.604872037788544 2.9600441039700014 75 75 76
0.8612712101977776 2.6674805992518174 2.93290354675043 71 70 74
0.9563691602765468 3.958900007918507 2.627821337245664 54 55 58
0.9682947586055396 3.969886224122766 2.6271210778454908 56 57 60
1.0568992649056699 4.034300619679653 2.640867205340511 64 65 69
0.8408577055175012 2.69785257015123 2.9519993849084947 67 67 69
0.8604730826083453 2.704729509018366 2.953688662771603 63 63 65
1.0352902999942046 4.028482131659718 2.653237890074568 40 41 44
1.0552087695611687 4.0374358617246875 2.654460809188985 35 36 40
0.8991466720209906 2.8158305886916444 2.94774295300213 32 33 36
0.8983572015025123 2.8318086346441946 2.943602419732455 32 33 36
0.36184305082317936 3.605533723010468 2.6557167592765927 38 37 42
0.37548248337389445 3.6564592249610937 2.6453531710052123 35 36 40
0.42339667265917147 3.681570591414415 2.647466062707271 34 35 39
0.9982148714299779 4.012612511390492 2.6653536333686523 35 36 37
1.014837499211673 4.022389014414908 2.665819957671593 30 33 34
1.0317870646149816 4.032117464176883 2.666355652604258 30 33 37
1.0477095853207528 4.04217317865716 2.666629265019612 39 40 44
1.0686575248297434 4.05089102636616 2.668119278073282 42 43 47
1.0637642460583574 4.066706980621679 2.663299666155028 38 39 43
0.9176650356707519 3.9806202166606037 2.673722362397555 33 32 37
0.9317419152832893 3.9909331449993375 2.67362506830957 31 31 36
0.9507748361340066 3.9998701647989408 2.6747503969949955 29 29 36
0.9699433142001584 4.008820396709982 2.675896402659232 30 32 36
0.9909301230074345 4.0173117088302615 2.6774794586213466 33 35 35
1.0080701190543304 4.026935234584021 2.678097401699972 36 38 39
1.0281716580967843 4.03578178756725 2.6794345865999682 43 45 48
1.035986948191361 4.048069946498325 2.6777331362444965 48 49 53
1.0534411451845875 4.057729741536598 2.678397588155218 50 51 55
1.0421375740317187 4.075260624495281 2.6719959833701954 42 43 47
1.0550094182938987 4.0861996306057256 2.671528229992232 48 49 53
0.33014528177434727 3.326411269828123 2.7478538737243636 51 52 53
0.8710060658036759 3.968110371281011 2.683020137238889 27 28 30
0.8959089633277195 3.975191639557753 2.6856869901200304 27 27 29
0.9189688740342389 3.9828758330284435 2.6878729312088576 31 30 33
0.9379047995280847 3.9918052298026714 2.689008904412552 33 34 38
0.9635089041347354 3.9988910445757178 2.6917998720141085 36 37 41
0.9881622358974768 4.006320160570096 2.6943346270011865 39 42 45
1.0243136151392984 4.039511142163277 2.692441716334028 49 49 53
0.8325337652293507 3.9534321411186197 2.694205915151575 26 25 29
0.8534690420400073 3.9615564257983387 2.6959312239824946 28 28 32
0.8740799100999719 3.9698338435130114 2.6975594393470765 36 35 39
0.8986952538725151 3.9770108020253647 2.7001870136868016 39 39 42
0.9248311533798572 3.983822412906919 2.7031808173137035 42 43 46
0.9526256388738904 3.9902372360956235 2.7065736602033805 46 47 51
0.9676261777611984 4.100811922686413 2.681395459247149 48 48 53
1.0497559675150383 4.092946321241256 2.698184013987301 47 48 52
1.0492608064511424 4.107493390323602 2.6944265947578976 49 50 54
1.0659568236107748 4.117446464861445 2.694926566787523 54 55 59
0.7346511583898543 3.8858554983379485 2.7078480607670947 21 22 27
0.8649566357239451 3.9751041836165077 2.7089956022613393 50 51 55
1.0006155836791586 4.094504734094614 2.703496969392783 49 48 53
0.9767360178807699 4.115280490711252 2.6939028627498356 48 49 53
1.0169966901861396 4.118790493264503 2.7003391896656135 49 50 54
1.0371544522300091 4.127770908927439 2.701736338602809 51 52 56
0.3891985552581221 3.5379534575553757 2.7468140603280284 18 18 20
0.40901709128157265 3.5447997968080567 2.7487173586073355 18 18 20
0.7341911498963765 3.9027649272446445 2.717731542348567 32 31 36
0.7553423610721898 3.91052986207182 2.7196467669336086 34 33 38
0.776381933924684 3.918388452875992 2.7215177809405797 38 38 41
0.895910675629215 3.9687345659169107 2.7307034762775215 58 60 64
1.0329033692787233 4.13155713677809 2.7146061966206223 48 49 53
1.0561385618278636 2.4254002310250007 3.166608630971491 170 170 170
0.7940626830329556 3.887129346220665 2.7470309587241735 48 47 52
1.0371370765740329 3.9741070514982604 2.769961554114738 50 51 55
1.0169363679844354 3.9943543355056 2.761081420366 48 49 53
1.0439491941596963 4.1456527647102375 2.72767722565806 48 49 53
0.983905372941368 2.4946515689433357 3.1511019850719184 86 86 88
0.3015393159865614 3.2362812624060617 2.834960685893862 61 57 61
0.3330667195588762 3.2376671234694383 2.840497474773833 79 77 80
0.37325387262475734 3.2356257345994446 2.848523826093987 60 58 61
0.956583523275066 4.042798610708604 2.7521415706090346 46 47 51
1.083382070593076 4.152355964848504 2.7479557401246573 48 47 52
1.06076196925487 4.172634749869799 2.7385712480214437 52 51 56
0.9956501658583552 2.4757259959713434 3.1735920812251504 101 102 104
0.283340811994971 3.246265151996581 2.842904828327922 104 100 98
0.3302455413794095 3.2413303204573762 2.8530016003772443 113 110 110
0.37499812849507835 3.237435657070039 2.862427621869301 54 52 55
1.3898481017349005 4.194075861466854 2.8097500843424053 69 70 74
0.2641386242650964 3.2424033481128918 2.854129066175043 64 63 69
0.31381238996800703 3.2362348985090135 2.865146862367055 104 99 101
0.35847793818014695 3.2322891417879953 2.8746447743694343 67 65 67
0.9841125843497986 2.5028351689905737 3.1954126967394076 82 82 84
0.34006682598953886 3.213566053674743 2.889931684583123 55 55 61
0.9909358958810591 2.4862326723834616 3.2164524384635076 98 98 100
1.0067776627156393 2.44910187852447 3.2445759002017476 171 171 169
0.9845688801112356 2.4919799987403746 3.2292166160045355 97 97 99
1.3038340388850993 4.24092456119481 2.8416077361447254 66 67 71
1.0828372923120455 2.38311044887389 3.292076673019553 203 203 203
1.0554526332710719 2.4125300434231502 3.2791085716792496 200 200 200
1.0006969010531566 2.45474503599967 3.2574604342611924 172 172 170
0.9622320479420934 2.505200162887962 3.236891222484488 99 99 100
0.9659478053388051 2.519585887724519 3.233913445730799 86 86 88
0.9473999507202373 2.5443027716504742 3.2238950818907504 73 73 75
0.9407289775990655 2.5634372179613405 3.2176509643571536 66 65 69
0.928190744720762 2.58522693625658 3.2095687635411574 59 58 64
0.9399635770015802 2.5958067489490833 3.2091562386436663 53 50 57
1.0821051897086045 2.3862590907730308 3.306818677985451 203 203 203
1.0533690425607367 2.416307135844711 3.2933588727068406 200 200 200
0.9879837486574793 2.479719756903133 3.264013665742018 118 118 117
0.9882315734925966 2.4957908830151303 3.259910925861591 99 99 101
0.9518957416776459 2.577063005166807 3.2317110330209555 58 58 62
0.9303743924407688 2.6029396881231577 3.220759242317756 51 51 54
1.2263044501621847 4.250748175155994 2.853728103837402 54 57 61
1.2746963494818941 4.25348510473497 2.8626149726720214 68 69 73
0.9838369310457992 2.4844315008855147 3.2774597461510773 120 120 119
0.9719144373987629 2.5384341851622425 3.261094860971803 77 78 78
0.968375277059871 2.572236051462003 3.2516358744949865 56 55 60
0.9384275623742531 2.6019929016199725 3.2379452855663544 51 50 54
1.0258198185475786 4.245713559859026 2.82984392219191 44 45 49
1.0153417047831343 2.472414134121441 3.302416596803549 126 126 125
0.875794453296317 2.6650556702502053 3.2243087169446696 45 44 50
1.0197164579884208 2.664082056742409 3.2535661391430684 41 40 45
1.0881482268471925 4.218329916404587 2.8640763373257307 46 46 50
1.0182823748109986 2.4738098925888514 3.3182030610768636 136 136 135
0.9897709218549975 2.680174007863751 3.2587487646605187 40 39 44
0.38432330630940603 3.7096436894809734 2.868043076750697 79 78 80
1.0881346068965405 4.221003707164237 2.8780657233939513 46 46 50
0.3650497261870529 3.718767298564198 2.875542328427049 72 72 74
0.34234397040619 3.729057898900508 2.8819583583002935 62 64 68
0.36218296518947357 3.7360968054569046 2.8842158120832284 64 66 70
0.34794857103403054 3.7823620261483466 2.8691944566708876 57 57 65
0.9007557258825309 2.5531237833871603 3.319680951193824 119 119 119
1.0454910993835203 3.044171825347294 3.2212792281470315 48 47 54
0.923630790467139 2.5452109398055613 3.341888693714003 131 131 130
1.0622744093816652 3.008880339558505 3.249350913522089 37 37 42
1.0494012294259183 3.0297128338884183 3.241186887011102 35 36 41
1.0095828748346785 2.491753253807424 3.389488700478347 197 197 195
1.0224062571008523 2.4885409249087638 3.408622413645095 192 192 190
1.05698594832404 4.259141466168913 2.9495805626941394 69 69 71
1.0217481144730323 2.4916259013509245 3.423249690076843 170 170 169
1.1116123291044995 3.0761265097528794 3.2882415401415748 35 36 41
1.0509057443387575 4.191741488461625 2.980707954039516 54 55 59
1.0587841497812325 4.204071836631015 2.979144089954097 57 58 60
1.0948626260356775 4.209246992734999 2.9855223253673877 60 61 64
1.0872521469777146 4.225559253717289 2.9795825571681793 64 65 68
1.0680339540134631 4.259051669301495 2.96661589013922 70 70 72
1.0094311467752937 2.500144870343604 3.4339160910980935 146 146 146
0.9551102025536518 2.541573537963996 3.4112068486110423 96 96 96
0.9879538153062033 4.210603600091655 2.976773808164338 59 58 62
1.0481520703122824 4.209454259487668 2.9900985129547193 60 61 63
1.0590877672748826 4.2210032123132555 2.98940862052817 62 63 67
1.0838137267105399 4.2721164806971945 2.9812348854767845 71 71 73
1.0295876454213633 2.4935305252600144 3.45562572996326 124 124 124
1.0030068465145519 4.223639101698272 2.9911603853843043 61 62 66
1.0232803350712485 4.2327446347182045 2.9931647803687467 63 64 68
1.0221767508899684 2.49976069668058 3.4679473610361065 112 112 112
0.9913337756206022 4.229262193713077 3.001686247170978 62 63 68
1.0157416977116862 4.237306147463735 3.004908693072589 64 65 69
0.9909747702636851 4.189238067297456 3.026827365430217 59 59 64
0.9716811433990564 4.236909392035439 3.009867014818121 63 64 67
1.0082480592307992 4.241851541636711 3.016640739607453 65 66 68
1.0159876432044652 2.5081944035104806 3.4955069525938427 111 111 111
0.9528259606356008 4.187568563579207 3.0333608798317786 58 59 63
0.971404368044059 4.2396173342931345 3.0236144473874793 65 66 68
1.0150654099129022 2.5113995075656192 3.510028681989044 113 113 112
0.6581393912146354 4.156960208093173 2.9899158251140316 46 47 52
0.7497306825310477 4.159719833478825 3.009741487037837 52 52 56
0.8998089124131565 4.2181615596362025 3.027810400292953 60 61 65
0.9544507909551737 4.21820168784708 3.04006752784817 63 64 68
0.9906626170731749 4.22312976979917 3.046879948510369 65 66 70
0.9715040761947668 4.242229640523064 3.0374718070500206 68 68 70
1.0158671740005187 2.5138040974878173 3.5251522172597283 116 116 116
0.7800595838777984 4.168076058840041 3.0285794884856236 56 55 60
0.9244359554397417 4.2144041472236236 3.0488183840064 62 63 67
0.9729552097490899 4.216078313348852 3.0593428595499175 65 66 70
1.0156739210533037 2.5166708185207365 3.5399289978508 115 115 113
0.7607048640094936 4.161899886658524 3.040095439625244 55 54 59
0.7855011495021667 4.169196936083826 3.0437848431108785 56 55 60
0.5749839807316897 3.9691107717853615 3.0776469054290243 41 42 46
0.7783398568879549 4.1762935256187745 3.068777665353429 59 58 63
0.8052377989160158 4.183103483657436 3.073157455071151 60 60 64
1.1448307117513519 2.3991486946790546 3.6485342316590046 186 186 186
1.1055208106399899 2.4341246570410524 3.6299345788366426 185 185 185
0.701560208048771 4.129999784692519 3.077686893322601 55 54 59
0.7903680809762459 4.161635032365802 3.089808328495739 59 58 63
0.8103238155819594 4.170303335379601 3.0921106777322063 60 59 64
0.8159244996184536 4.1828498428008505 3.090024101205267 62 61 66
0.8381692840360435 4.19099668598117 3.093000108592728 62 63 67
1.2376844930193887 2.324771051590433 3.7063214744495445 186 186 186
1.1059914436950302 2.4367159735020225 3.645142894087211 184 184 184
0.7563724171532551 4.159415469213799 3.096743379686164 59 58 63
0.7977494643400439 4.176266118407852 3.1018790910417278 61 60 65
0.8150502422189236 4.185678774261433 3.1033855574814515 62 62 67
0.8207043718400661 4.198214549992188 3.101316532747891 62 63 67
0.829838795100682 4.209841068075547 3.10030944962424 62 63 67
1.1064620333041002 2.4393078003492175 3.660353814578732 184 184 184
0.6735829705534688 4.156732633784447 3.092181263376408 59 58 63
0.7030751288353534 4.162545171243316 3.0975653496193964 59 58 63
0.7330136398058668 4.168325622880258 3.103063497458315 59 58 63
0.7536504157342939 4.1767006012617 3.1056621093554098 60 59 64
0.7687505445777236 4.18661373314459 3.1065365149500255 61 60 65
0.7862775718164109 4.195919776839041 3.108148481703576 62 62 66
0.9561163189861543 4.236220505857973 3.1373016581809727 47 46 51
0.9677217501876721 4.247462107934858 3.1369907267726846 45 44 49
1.0303435890722996 4.274435064061809 3.144453072646562 40 40 42
1.05580865470913 4.25647079604481 3.1700315396481544 36 36 38
1.0290568419103696 4.277409823154221 3.157979696184425 40 40 42
1.0530934653035833 4.285739952802569 3.1614278543637586 46 45 48
1.1069904016438057 2.444685837647464 3.6906321571414584 184 182 183
0.9898834487207331 2.580318783435405 3.625648956012947 91 89 92
0.4363749495282433 3.8998253344504414 3.13365261025433 45 44 49
0.4590783355906357 3.9064719210516112 3.1372752908416093 45 44 49
0.5254747691301622 3.982850041631897 3.1323555215251093 49 48 53
1.0386819103290974 4.277682841364669 3.174850236228349 49 49 51
1.0522573269215854 4.288607762626667 3.1751225842835016 52 52 54
0.4427426866891664 3.914123107566958 3.1451653913821502 47 46 51
0.45887765668667213 3.9228691495441512 3.1466656434736366 48 47 52
0.4579317701235618 3.936973099981384 3.142586828150623 48 47 52
0.4690846789846138 3.9473153083517194 3.1424506862511294 48 47 52
0.48633232187356656 3.9558079799363153 3.1442882509249466 49 48 53
0.4919828679812431 3.9678931183623263 3.1423502603427003 49 48 53
0.5137904404381034 3.975072552994314 3.1456452434360638 49 48 53
0.5239500227024891 3.985834292771133 3.145155181404137 50 49 54
1.068822384304066 4.272890631377682 3.1980828598584563 53 53 55
1.05110796804319 4.291552066566956 3.188718785915232 61 61 63
0.36937585691420516 3.774548040075643 3.179440499635557 49 48 53
0.3738092763604818 3.7869131035343067 3.177133074301941 48 48 53
0.36504428234342357 3.8036702602898522 3.1704216233092066 48 49 53
0.42021516634953615 3.9099412791237302 3.1547317838909352 49 48 53
0.44226976851219235 3.916775448717199 3.158213061810855 48 47 52
0.4403617825453895 3.9311660018954364 3.1538128388935043 48 47 52
0.45156749641561955 3.941457929400512 3.1537157941262723 48 47 52
0.4613877873682668 3.9522030749191206 3.153158601889022 48 47 52
0.463492355726815 3.9653386249045766 3.150075319158238 48 47 52
0.513433710531949 3.963856672190008 3.162598086575469 48 47 52
0.5033764789728981 3.980755145245867 3.1555344347350576 48 47 52
0.5424797687884888 3.9827652985783426 3.1644721078041895 47 46 51
0.5706454864630905 3.988182041747153 3.1698239404672863 48 47 52
1.0301924745104356 4.285096578206039 3.2000876388913024 59 59 61
1.0499586609302065 4.2944957623874895 3.202311883430083 62 62 64
0.3502122788672535 3.783480151908846 3.186160191386173 49 50 54
0.3546340570306389 3.795814300143638 3.183858698010161 49 49 54
0.35905601899919337 3.808148982926497 3.1815571029773815 50 49 54
0.4112162775628241 3.90151417577031 3.168700940748699 48 47 52
0.415814100878383 3.9138291536436145 3.166447707643159 50 49 54
0.43335743919691305 3.922078715738119 3.168471420099677 51 50 55
0.4287791798361674 3.937285421812868 3.1631838283227363 48 47 52
0.4388303002681534 3.9479175307477363 3.1627241188786615 47 46 51
1.044428893296907 4.284242801945254 3.218449757233647 59 59 61
1.0137705769167833 4.306017112602218 3.2049906878016197 60 60 62
1.0339970591612573 4.315299864059542 3.207386570250818 64 64 66
0.32715697292447876 3.7937063457935327 3.1914975135870414 49 50 54
0.3303084658633124 3.8064226833979267 3.1887789153352317 48 48 52
0.3908979964045708 3.9241892300394063 3.171324909795368 49 48 53
0.4142877646268325 3.9305636588422668 3.175325870131895 51 50 55
0.428887880101847 3.939749811127463 3.1763927055998016 44 43 48
0.42969736503207656 3.953250938125659 3.1728825263513714 42 41 46
1.0159977583591833 4.3081227095935875 3.21957517336041 63 63 65
1.045334731862185 4.3152031724627316 3.2248447575478063 66 66 68
1.0622153856890966 4.325372106989706 3.2262024398437017 66 66 69
0.3809167701454099 3.9298241977463113 3.1811101694311934 40 39 44
0.3935941105945605 3.939545252513786 3.1815725854844006 38 37 42
0.41232757134973774 3.947409453811808 3.18404557935228 37 36 41
0.41211649001459494 3.9611960316290955 3.1801978158684143 38 37 42
0.4119512387948797 3.974952285178045 3.1763697474344044 37 36 41
1.0198610076409496 4.3098304176995725 3.2346830522565755 65 65 67
1.0330416296957619 4.32084291224848 3.2349145321947046 67 67 69
1.060315792372528 4.32849320567726 3.239560928222415 66 65 69
0.39528862445877455 3.955207343975775 3.1914812840943925 34 34 38
0.4150354750875499 3.962784650956165 3.1943124551061755 37 36 41
0.4229154650507072 3.9740695627421485 3.193163206466484 37 37 41
1.0825641753024902 4.282861126614898 3.2723815229297784 64 64 66
1.0196477379536484 4.312534834646015 3.2485146213674776 65 65 67
1.0392852764160878 4.321986881967463 3.2508013601055015 66 66 68
1.0589941839324373 4.331474289763573 3.2530961312978834 65 65 68
1.017965879565511 4.3155968994041665 3.261878940676796 66 64 67
1.0333679934481632 4.326075399635245 3.262846392460884 67 65 68
1.0619975818073488 4.333416445335869 3.2679997073003357 66 64 67
0.48750699659179 4.000649786487259 3.2297945848631597 48 47 52
0.5090485066694541 4.007967799915153 3.2332074143658804 55 54 58
0.5261958577202566 4.016657484724202 3.2351306033971876 51 50 52
0.6160238882746476 4.073513486687662 3.242065734765888 27 27 30
0.6182929828367225 4.086749004623332 3.2389724193299467 26 27 29
1.0360011728571614 4.328095615689764 3.277603301181145 66 65 68
0.4117361111035226 3.984983249632139 3.228821702304231 32 31 36
