ply
format ascii 1.0
element vertex 729
property float x
property float y
property float z
property uchar diffuse_red
property uchar diffuse_green
property uchar diffuse_blue
end_header
0.6608017776121808 2.1875979619953547 0.7139111036247643 18 18 20
0.5368510037001515 2.3419551387497703 0.7149527088339703 23 23 25
0.43720806338037943 2.312442408156471 0.7269424103538166 35 35 35
0.45100119788113024 2.3383442023783085 0.7236987006466542 38 38 38
0.4537688294743385 2.355877671544613 0.7221521470862616 40 40 40
0.48284047877054703 2.3937473611373945 0.7165296380644319 42 42 42
0.4925749339513401 2.4168397039658984 0.7138909991441361 43 43 43
0.43447518880621605 2.3873500060998807 0.721773664503375 44 44 44
0.4249485753147999 2.395433585958954 0.7221281752753627 46 46 46
0.4382959163840814 2.421382495735983 0.7189250986584453 48 48 48
0.44887500607978703 2.445266052385351 0.7161455439996252 50 50 50
0.4553100050460932 2.4659801909796615 0.7140056367016122 50 51 50
0.4746691671045029 2.5127592852469203 0.7086960461598507 51 53 52
0.4813784912231971 2.5339194684531847 0.706496643676869 52 52 53
0.4793455524732366 2.548180406869847 0.7056620985233231 52 52 54
0.47575216942190757 2.561218925683426 0.7050705150962315 53 53 55
0.47157452790340737 2.57380630658802 0.7045694247600801 55 54 58
0.46667821010706145 2.5858296720684253 0.704180306587125 55 55 58
0.4923788348010807 2.6872052818039185 0.6942799558433856 45 45 47
0.552691996376472 2.9868778167207353 0.6665614033202798 36 36 38
0.4942791599733698 3.0553696080730264 0.6673608709872255 29 29 31
0.5215748818632802 3.096589555134905 0.6616706098992139 27 27 29
0.5367019613587007 3.127230372502713 0.6579509915976056 29 29 31
0.6164730761082995 3.2330326432597656 0.6423859036747196 28 28 30
0.6181980716639093 3.252217996749093 0.6408224467503729 29 29 31
0.6242088467129954 3.2753007186028897 0.6385524863014492 33 33 35
0.6320705996603475 3.3001269228687335 0.6359730203540751 37 37 39
0.5947816442739093 3.2842764723021567 0.6408088265147647 37 37 39
0.5955007918708968 3.302679518442045 0.6394015700229703 35 35 38
0.5960412083767399 3.320967536751944 0.6380203278392533 29 28 31
0.7540031192319059 3.630855166349029 0.5999102855266145 23 22 26
0.7423688627941814 3.6386506212388174 0.6004939967638285 31 29 33
0.7543038535197988 3.6686061103887235 0.5971395852872725 35 33 36
0.753866610608642 3.6869975000346216 0.5958474514651076 37 36 40
0.7257551071006638 3.679219336269175 0.599190223222654 43 43 45
0.7115852530978279 3.684566080816646 0.6002022996041857 55 55 55
0.7485261877546405 3.7385951352200992 0.5926288531174915 71 71 68
0.7897314005676201 3.7969725485561554 0.5843182828489661 78 79 75
1.0736584782053487 2.0421268815812947 0.6963839624942455 168 166 167
1.0053078049520718 2.012918696561584 0.7051409956903836 121 119 120
0.9507795425524558 1.9924565898303108 0.7119235179432823 76 74 75
0.6624470281084116 2.1736648693413203 0.7270361763168909 18 18 20
0.4845378036146163 2.241477250094288 0.7395159659719432 12 12 14
0.4600096774299529 2.3608081977699564 0.7333503830996674 39 39 39
0.4710183372839385 2.3847651874181683 0.7305594640747475 42 42 42
0.4684618279185214 2.39831740022798 0.729836916315746 44 44 44
0.46522744944397987 2.4113656906092364 0.7292165792109246 45 45 45
0.4653370912935437 2.4270381236499956 0.7280821117638479 47 47 47
0.4590039881835952 2.437710939251855 0.7279341635437679 48 48 48
0.46652239460652956 2.4592502358576294 0.7256568260514783 50 50 50
0.49059242263986125 2.5096880312310925 0.7196939259311623 51 51 50
0.5027227800660115 2.535132245905646 0.7166870258103054 51 51 52
0.5023623126711982 2.550749253659852 0.7156023578707268 51 51 53
0.5110839786640147 2.5736440324347365 0.7131105353076208 52 52 54
0.5029074065480743 2.583101364398572 0.713229439966933 52 52 54
0.498445538562607 2.595534521420902 0.7127728636742621 52 52 54
0.5010315385947615 2.6136579402975473 0.7112212598786816 51 51 53
0.5250495184978363 2.6978262809991245 0.7028448104316665 44 44 46
0.5342839036632825 2.937454251273021 0.6847623218648717 35 35 37
0.55722618449627 2.973997902119504 0.6799056211886711 34 34 36
0.5518586011896653 2.9863593673273257 0.6795424727646188 34 34 36
0.5366471225412852 2.990236450920648 0.6807472530355474 33 33 35
0.528061794251113 3.1025294679258115 0.6735322485144263 27 27 29
0.5499775698247131 3.1392036259412164 0.6687662515380173 28 28 30
0.6211782883333845 3.2374498207090174 0.6547810842909595 28 28 30
0.6393764609305201 3.271381770296526 0.6505740995388223 30 30 32
0.6506887720910848 3.2992840521347526 0.6474706870613748 34 34 36
0.6231016669397849 3.292284911450527 0.6506616892037403 37 37 39
0.5952958711350869 3.2849716423316733 0.6538965331984674 36 36 38
0.5985813350643587 3.3057029700899347 0.6520897489990816 35 35 37
0.6048544198680745 3.3470813739474137 0.6485112549277563 19 19 21
0.5998707794216935 3.3604368312104698 0.6480394071076909 17 17 19
0.7513705276240361 3.6286546854660076 0.6140391685860764 22 21 25
0.7528026695352155 3.667459487992578 0.6111170977553833 35 34 35
0.748131083362481 3.6818504227949336 0.6105405834056995 37 36 39
0.7262152687526664 3.6799250482609343 0.6128149493306742 42 42 43
0.7326687225933466 3.7237538532428704 0.6090431691250937 64 64 62
0.7781942556703341 3.7862190525103365 0.6001264148433126 77 77 74
0.8272649591772709 3.852408947490652 0.5905970082094669 98 97 95
1.0859766897566674 2.034896770731759 0.7084237293601661 170 168 169
1.0254662599256377 2.0109294495541628 0.7159377615558375 150 148 149
0.9655897173341529 1.987127119703103 0.7233791739864219 92 90 91
0.9145682710811106 1.9688647528437757 0.7295770731727621 74 72 73
0.46667277312464306 2.3506136240288678 0.7456067540739337 39 39 39
0.47949262452055375 2.375918102236706 0.7425827385252067 39 39 39
0.4623968790138473 2.378251126326389 0.7440610407878451 42 42 42
0.4452954431896927 2.396027743809208 0.7444464628814401 45 45 45
0.45990042385092944 2.438553731468018 0.7400315295472624 48 48 48
0.4744559036889786 2.465616561943691 0.7367161672734949 48 48 48
0.477493773624998 2.483728293902966 0.7351417894830375 49 49 48
0.5228734046985946 2.551245826526685 0.7259989288801982 50 50 52
0.5308822121979955 2.573570189412467 0.7236484147145245 50 50 53
0.5353543682360935 2.593153545067092 0.7218319602320442 51 51 53
0.5227563410602158 2.5991390526562506 0.7226192777998076 50 50 52
0.522636993949309 2.61511297633786 0.7214997758219747 49 49 51
0.514542988795778 2.624700210797314 0.7215990963330476 47 47 49
0.5310599471192243 2.6541713167246614 0.7179246600151703 46 46 48
0.5562043526145832 2.707074183312781 0.711761831931914 42 42 44
0.5438027626948612 2.7133000014913424 0.7125132508745 41 41 43
0.5706141747595572 2.96869583317312 0.6918533921488955 34 34 36
0.5857320000248525 2.9986349833013364 0.6882803220198013 33 33 35
0.5313065319973045 2.968879244314599 0.695619209875493 31 31 33
0.5211112518358294 2.9770291139932015 0.6960223018561208 30 30 32
0.6418023876724763 3.256057359263889 0.6646641969719375 30 30 32
0.6414927922797 3.2735005094895495 0.6634589611175995 31 31 33
0.646772225651661 3.295999020986593 0.6613585028254487 35 35 37
0.6206347305673683 3.290294387974436 0.6642751021723362 37 37 39
0.5965415617635978 3.286327373383621 0.666872146400382 36 36 38
0.5974158657656674 3.3048804373716676 0.665474514096184 33 33 35
0.5984512366674308 3.3236281943730903 0.6640476132487467 27 27 29
0.6115896583068428 3.353459600543661 0.6606724596536309 18 18 20
0.6059805235428117 3.3662646770233096 0.6603050719264016 16 16 18
0.6185320285444884 3.395743953335218 0.657011272281488 15 15 17
0.7435544478964611 3.64029017480708 0.6276781572111639 31 29 33
0.7486452310733238 3.6638124866107846 0.6255233481891707 35 35 35
0.7631697719377621 3.6963198248485054 0.6218254817257557 38 37 40
0.7279265206743397 3.6818160147837693 0.6262404480093524 41 41 44
0.7660974473457522 3.774929348408091 0.6159783722958202 82 82 80
0.8145958874292973 3.8405380633717536 0.6066708347650341 96 95 93
1.094191164980771 2.0249968331724366 0.721061432917247 171 169 170
1.0381550487012856 2.004048654180141 0.7278373357326612 164 162 163
0.9789122701596158 1.9807938217963033 0.7350784290556966 110 108 109
0.9216917477088032 1.9586134905993 0.7420527270172047 81 79 80
0.47978448164723897 2.34534079670122 0.7569095147493883 37 37 37
0.4834536622619403 2.363601996309115 0.7552852865177553 39 39 39
0.46163439319444177 2.3623242690550175 0.7574428449374327 39 39 39
0.45137755644783684 2.369887224229079 0.7578864522989006 42 42 42
0.440176321772491 2.4388739470009 0.7541261622598673 47 47 47
0.5374446731463436 2.578939144235005 0.7351157809937178 49 48 52
0.5479357919529482 2.603342071159628 0.7324156052825801 48 48 50
0.5367989084696001 2.6105316462682344 0.7329687308628491 47 47 49
0.5236413517743983 2.6321884301678473 0.7327021626824358 44 44 46
0.5420819484833694 2.695750808703419 0.7265112773130509 39 39 41
0.5446032471245656 2.71412088192564 0.7249882466777494 39 39 41
0.5488560451794393 2.8997806218286124 0.7116078242612367 34 34 36
0.5568490684373479 2.92336566908338 0.7092016113034428 35 35 37
0.5648826685343022 2.947069592742789 0.7067832428106394 35 35 37
0.5729562045896452 2.970892484822309 0.7043527731001479 32 32 34
0.5815907592741851 2.9952817685428514 0.7018295346490311 30 30 32
0.5822414531568474 3.012892020738951 0.7005369287450426 29 29 31
0.6467079542476373 3.260654496732897 0.6771079767553712 30 30 32
0.6530776911864014 3.2840872614882044 0.6748662793167841 32 32 34
0.6442523664450364 3.293966845324424 0.6750122653231255 36 36 38
0.6215998263978482 3.2913928515870152 0.6773394162800519 39 39 41
0.5998210029862254 3.2895196947075123 0.6795347603755804 36 36 38
0.6005629626645721 3.3079645858157267 0.6781751635515276 33 33 35
0.5991156464809697 3.324467432180822 0.6771588337033652 25 25 27
0.6165943100360849 3.376212699446229 0.6718851259004899 16 16 18
0.6292854279950366 3.405853928027396 0.6686102640040507 15 15 17
0.7881872863587955 3.7013009842288698 0.63289671805431 34 33 33
0.729309438662312 3.7022252435315517 0.6384131422352132 48 48 50
0.7725308133759967 3.7813611140780568 0.6287847275269545 86 86 85
0.8022329020340644 3.8289597804813327 0.6226422021944704 84 83 81
1.0886792813586412 2.0062797037444042 0.7355966240201022 169 168 168
1.0414921184287498 1.9911158501996777 0.7410522881076216 167 167 167
0.9834468619262356 1.9687480937785533 0.7480196271639504 129 128 129
0.9391616975332906 1.955070840368641 0.7531015441538029 90 88 90
0.8948502052151024 1.941203533452914 0.7581990341309542 81 80 80
0.5015758884314374 2.331200981966389 0.7680408791284543 32 32 34
0.4796996431715318 2.3299903915235 0.7701686427453741 35 35 37
0.49746303286182203 2.358970346673364 0.766509257583022 37 37 37
0.528386776867773 2.3981599990326026 0.7609156762718677 38 38 38
0.4769001731289604 2.374193250241869 0.7673804607194012 39 39 39
0.46476706767948817 2.380349985001791 0.7680894615506342 41 41 41
0.4725290017370114 2.401876550812849 0.7658789156532085 43 43 43
0.4352516371920374 2.4195689490018 0.7681416326863348 45 45 45
0.5030598771425807 2.504140533269298 0.7559702271547206 46 46 47
0.5255158035588219 2.5536405777018127 0.7504565597020547 45 45 48
0.5391182815180777 2.5804223037622176 0.7473376604368558 44 44 47
0.5459055147169674 2.601877682654224 0.7452231075919105 43 43 45
0.5468511276294621 2.651044457392911 0.7417424782210631 41 41 43
0.5441641356147939 2.665085594141954 0.7410247963149436 39 39 41
0.5587424187439061 2.925164063703 0.721718382733924 34 34 36
0.5557137443870805 2.9394517777419438 0.7210156169165092 32 32 34
0.5608673574962106 2.960755833878599 0.7190641592048337 29 29 31
0.5711016906518758 2.986485376955652 0.7163325937038689 27 27 29
0.5812441591023891 3.0122335857176097 0.7136083247146228 26 26 28
0.6106205517113461 3.2111163116573698 0.6971412987305171 27 27 29
0.6489898777216516 3.262913152376866 0.6899821264711927 30 30 32
0.6540294222651191 3.2851652014261097 0.6879759211093288 33 33 35
0.6440896696954617 3.294049447992479 0.6882917778487094 36 36 38
0.6238938027485459 3.293687592122396 0.6902039589917006 38 38 40
0.6060957435716008 3.2954171381230917 0.6917477790950803 35 35 37
0.6054290232470116 3.312606285368398 0.6906241144277998 32 32 34
0.6036910953164378 3.3288612983545995 0.6896650000723874 22 22 24
0.6250468198590335 3.384184697268939 0.6838523587801056 16 16 18
0.6418667309306394 3.4176421450908485 0.6799722125354103 15 15 17
0.7514127759057521 3.592192319600607 0.6576925119959292 16 16 18
0.7659865163943704 3.661867474220115 0.6515234165950752 30 28 33
0.7923432710969558 3.70548130458708 0.6460513537745621 34 33 35
0.7274200420741141 3.7007020596370106 0.6524478881693121 48 48 50
0.8023634297114557 3.82936791646555 0.6365674462282223 76 76 76
0.8459244578058396 3.890539015147501 0.6282763544988476 111 110 109
1.0308065388582621 1.9691977615152514 0.7561584298650371 168 168 168
0.9861140355753611 1.9555082952207459 0.7612067935848479 135 135 135
0.9461534497022451 1.9447037377664316 0.7656229045585432 92 91 93
0.8985124617090754 1.928764088750839 0.771096045489616 85 83 85
0.45124858684207836 2.2626427250589014 0.789555127397563 25 25 27
0.4934449357485804 2.309778899641522 0.7824592181561796 30 30 32
0.5309319573527006 2.353594114248184 0.7760231725605332 32 32 34
0.4903472092428617 2.338222461941224 0.7808077508402225 34 34 36
0.49990550167712655 2.3609664932962997 0.7783787423270891 35 35 36
0.5355973654041131 2.4038180185689875 0.7721736518375619 37 37 37
0.48275209566765065 2.3788259687342723 0.7787425058720695 38 38 38
0.4727079457525293 2.3866105907378743 0.7791375138756385 40 40 40
0.47072706673615106 2.400619264176846 0.7783660801735902 42 42 42
0.5100636217536467 2.446738226208316 0.7716028245720021 42 42 42
0.5124316391802235 2.495836849408551 0.7680415181580216 42 42 42
0.5252496734899796 2.5217508580444967 0.7650964349438677 42 42 44
0.527423012460781 2.555302382743839 0.7626116872661803 40 40 42
0.5333132972994246 2.5759606435006805 0.7606625296406284 40 40 42
0.5426206229969162 2.5994125694386323 0.7582084336572981 39 39 41
0.5326011909977604 2.607485272788177 0.7585815491620638 39 39 41
0.5614447897388886 2.877257395184578 0.7375557773279784 32 32 34
0.5353095999865831 2.9054574093633 0.7380426671221538 31 31 33
0.5432363795899995 2.929014934296014 0.7357085304034526 29 29 31
0.5478040713831975 2.94978560240902 0.7338735309155235 29 29 31
0.571059796496884 2.9866466217138994 0.7292217251272699 25 25 27
0.5877279579347876 3.0180109668461075 0.7255509185596086 25 25 27
0.6443314006787357 3.188476464517214 0.7087303959539921 22 22 24
0.6289730011549992 3.1924798336583193 0.7098723236888558 23 23 25
0.6131481124017926 3.19602454028953 0.7110884466687404 24 24 26
0.6106480581936442 3.21136177924962 0.7102743652137211 28 28 30
0.6042517781237582 3.223253601731854 0.7100537344023068 31 31 33
0.6344205356697306 3.2678542347198594 0.7042382277883235 34 34 36
0.6296179709938152 3.281293086259545 0.7037654743215294 36 36 38
0.6178822221573526 3.2885062162278693 0.704355194159322 36 36 38
0.6050874185565522 3.2947380505535335 0.7051092721111399 35 35 37
0.5962882297793357 3.3045586334722774 0.7052509858661116 32 32 34
0.6511209292346358 3.426378226461826 0.6919059337446237 15 15 17
0.7456622128981283 3.5871044637396845 0.6722544608691647 15 15 17
0.7803647877079083 3.6380689514083886 0.6655880593305118 18 17 21
0.8016859399592431 3.6956334346901007 0.6597046952040293 31 29 34
0.7421516542641418 3.7149761333222164 0.6638707851121606 47 47 49
0.736552241882281 3.728556612007531 0.6634617784835702 62 62 64
0.7998261787613139 3.8272162848899747 0.6509162786793823 71 71 71
0.8446665451424913 3.889615521884945 0.6425375646237459 107 107 105
1.0464448585938482 1.9641927578307223 0.767673065140041 169 169 169
0.9698538310125083 1.930138009668916 0.7769122502349644 141 141 141
0.9343499516463059 1.9222275452073472 0.7806659361106187 99 99 99
0.8979084303791834 1.9135792334092114 0.7845542933985225 88 86 88
0.8921475170566978 1.9246983442931271 0.784330058932927 82 80 82
0.8551239099356104 1.9154688441096315 0.7883102930971861 69 68 67
0.8197011171680897 1.936720081356456 0.7900972980127733 57 57 58
0.46781404899714574 2.275246002112883 0.7992882779505425 27 27 29
0.49699638241399036 2.3125895126008844 0.7941307583907605 30 30 32
0.509449866895803 2.3528897179596426 0.7902928301241832 34 34 36
0.4976472004497652 2.4372359449840197 0.7856969249019325 41 40 42
0.49735470273417404 2.4526881807517302 0.7846852631768784 41 40 43
0.5261815558363008 2.506767613348002 0.7784355493943578 39 39 42
0.552019467842499 2.5749411780990688 0.7715101412795845 37 37 39
0.5455950777599394 2.5858768347462444 0.771358447381137 37 37 39
0.5491064696151047 2.604740488796897 0.7697723521996123 37 37 39
0.5534986194810139 2.904275821810028 0.749248501703219 29 29 31
0.5162192579050069 2.889436784414794 0.7536288417942445 29 29 31
0.5331641395195363 2.9206263586477696 0.7499954183080908 24 24 26
0.5502451574900804 2.9520665340934764 0.7463328021666549 21 21 23
0.5708352353210566 2.986651264647654 0.7421404402368035 23 23 25
0.5672006992964531 3.000550836653849 0.7415364097712437 24 24 26
0.5919137562069354 3.038938007257844 0.7367143829998208 23 23 25
0.5530655309294097 3.0224653254613156 0.7413468687563832 23 23 25
0.6549857287352794 3.1980691936236014 0.7202984765170412 21 21 23
0.6244890277026709 3.2062893749626005 0.7225139412269275 25 25 27
0.6012610183015683 3.2032409166630904 0.7248268467835748 28 28 30
0.6176768101456569 3.23544547425951 0.7211732465671772 32 32 34
0.6367485845884067 3.2701626565055752 0.7171097808489117 35 35 37
0.6037101886428298 3.2582740486889548 0.7209069931292593 36 36 38
0.6258985002109223 3.295952292034489 0.7163617341123741 36 36 38
0.6591361281623833 3.4339780510679487 0.7040715138668286 15 15 17
0.753152826066765 3.594324220076188 0.6847655501440839 15 15 17
0.7895585412039219 3.6469028859521195 0.677928841663799 17 16 20
0.7358075328590656 3.7281218259604576 0.6773501240370381 58 58 60
0.7614410912851974 3.77159095741224 0.6721031083406329 64 64 66
0.7962178955795165 3.824036740683767 0.6654231617110629 68 68 68
0.8502026970827714 3.8952321587872527 0.6557402168591371 108 107 105
0.9997464481108441 1.9194235402658717 0.7874323218012732 168 168 168
0.9675684323423122 1.9138089065285406 0.7906815565936125 138 137 138
0.9356380931503643 1.9082374593253415 0.7939057837543845 98 97 98
0.9039527830201993 1.902708831390434 0.7971052643448174 88 87 88
0.8467982428028503 1.8953411681000212 0.8027038762261364 67 66 67
0.48021416528120164 2.315381682386911 0.807638387757323 32 32 34
0.4208760759119857 2.2856089264195596 0.8149173433651936 34 34 36
0.4926300975435529 2.3556730743770755 0.8038575711683035 35 35 36
0.4732430855712084 2.371783783396399 0.8045230949719906 38 38 40
0.47176876607822216 2.3861574169101294 0.803702166485616 38 38 41
0.4701773499452957 2.400468406049338 0.8028958600886977 38 37 41
0.4745389972608356 2.4194299678916424 0.8012490229139881 38 38 41
0.5108184700504173 2.4633205221749144 0.7950959723754027 38 38 42
0.5161629795816867 2.483251400560098 0.7932970057577766 38 37 41
0.5344771621165527 2.5293079790199373 0.7886066776888702 36 36 39
0.5413979083850602 2.550697473648329 0.7865700943798114 36 36 38
0.55650839996451 2.578649384350734 0.7833662705490335 35 35 37
0.5385214313906128 2.5804065483819247 0.7848580323883508 34 34 36
0.5587970442289378 2.612624953140116 0.7809095870125278 34 34 36
0.5387428335352542 2.8919750285208883 0.7641860778952416 28 28 30
0.5084529965806648 2.883031325636604 0.7674871542111898 28 28 30
0.5257646513139032 2.914514290350858 0.7638524678470373 22 22 24
0.6466580344879178 3.2261469677151933 0.7323868440466318 26 26 28
0.6141255832063732 3.2148944494768084 0.7360414736212255 29 29 31
0.6239970346488002 3.2413039078842525 0.7334083187768324 34 34 36
0.6387947090437771 3.2722191284050774 0.7300360427848438 37 37 39
0.5955732542277086 3.2511996561375334 0.735293785470085 37 37 39
0.6226657726063098 3.2932722601011473 0.7300826525051212 36 36 38
0.5549288568861666 3.2675518674325934 0.7378439475324301 27 27 29
0.6272500030841339 3.350982719828245 0.7258474628823806 19 19 21
0.706767742755875 3.441441863144674 0.7127416562264914 17 17 19
0.7897748567469216 3.6473658100123707 0.691670334847918 19 18 22
0.7962379350064936 3.7099529471984267 0.6869439072946129 33 32 34
0.7655141171913615 3.718781583745619 0.6891057558093072 40 40 42
0.7283303501579881 3.721267231985708 0.6922656372237435 54 54 56
0.7660173804501986 3.776247438338392 0.6852516634638153 56 56 58
0.7997258417900828 3.8276858781434266 0.6788281821119594 68 68 68
1.0221837890505525 1.9187940167513124 0.7980128807038855 164 164 164
0.9363356199023019 1.8938930053084895 0.8072012107363643 95 93 96
0.9148923471418761 1.8949817195327667 0.8090184484596229 87 85 88
0.7922204276684759 1.9040304109418709 0.8192300375868876 53 53 55
0.7617514910048828 1.8987214016432206 0.8222604146903852 54 54 56
0.7520250743777315 1.9070007639414164 0.8225756691762551 55 55 57
0.5380806263628257 2.2822425894118923 0.8168833041615264 17 17 19
0.44648930670601594 2.3205682274888395 0.8224436105636697 35 35 37
0.48330049065884617 2.364147093411493 0.8163525908728547 36 36 38
0.4900009776577361 2.4472407640234533 0.8103297900849538 36 36 38
0.5202730325890466 2.486608380683034 0.8050899780577898 36 36 38
0.5105269928274776 2.52646760315267 0.8033422492750596 34 34 36
0.5209498972534103 2.5506259537984874 0.8008448596909978 32 32 34
0.5256015597311134 2.570288169960958 0.799149679173455 32 32 34
0.5430122379514861 2.600189403758513 0.795661432473316 33 33 35
0.5127260330618442 2.592048040068652 0.7988608982966858 33 33 35
0.5068132159729306 2.603354025158331 0.7986424226344 33 33 35
0.57404376310515 2.9052059318721954 0.7729864418834236 28 28 30
0.5048157732122058 2.8801318964150333 0.7807224152770743 25 25 27
0.5180176040996349 2.908105670161088 0.7777308425698143 22 22 24
0.5458553107133879 2.9487033742577182 0.7726249894263852 23 23 25
0.5728010707053284 2.988731649170516 0.7676349159015684 23 23 25
0.5736156844840994 3.0578277630729858 0.7630456283164528 21 21 23
0.6332446456347021 3.2321075625292974 0.7463998328887028 31 31 33
0.6368645550863881 3.2530004888685005 0.7447150498906141 38 38 40
0.6389762102703571 3.2726079090958367 0.7432471396912101 38 38 40
0.5935295567212651 3.249592648193895 0.7487541871436879 37 37 39
0.5869463345812309 3.2613451178309445 0.7485655597811095 36 36 38
0.592780050637588 3.284316999324381 0.746549892762713 32 32 34
0.5525245025315229 3.2656051620426005 0.7513184208819546 27 27 29
0.7996343511307922 3.6568218657855494 0.7039785016259577 19 18 23
0.7408754500396013 3.676877812588761 0.7078418795246919 36 35 40
0.7014313045502218 3.677088038004264 0.7113018143141373 49 49 51
0.7306421845202544 3.7237468612219526 0.7056787517541661 52 52 54
0.7693840021933769 3.779747176714265 0.6986055870042556 53 53 55
0.805052943221426 3.833081187686616 0.6919773622243808 70 70 70
1.0037348151759438 1.8922244534306265 0.8138731168743862 157 157 157
0.9708903197855828 1.8862813508643896 0.8171045900773917 116 116 116
0.9190146797199843 1.868092479202894 0.8227760142412097 90 89 90
0.9076620950584942 1.8756133084616562 0.8232755952809148 85 83 86
0.8935652464598206 1.881352472587197 0.8241280352542195 75 73 76
0.7258992146713822 1.8751951046088933 0.8390650775447218 56 56 58
0.6097877426615023 2.0470407482913817 0.8380542641060286 27 27 29
0.5682978861830503 2.289493654937422 0.826019729647709 17 17 19
0.5504814242701601 2.2916113914380363 0.8274282327408243 19 19 21
0.46308151552917953 2.3487866345077277 0.8313211060234068 34 34 36
0.5067753213509558 2.523653480776532 0.8162571459934672 30 30 32
0.5222395555576933 2.5517986199682308 0.8131013806528593 30 30 32
0.5278554889615796 2.5722327664730322 0.8112968409264953 30 30 32
0.5206884050215534 2.5985765337809443 0.8102198149607679 31 31 33
0.5106813750993617 2.6066177171105065 0.8105691585185071 30 30 32
0.5021137719082289 2.696691075274199 0.8055045172273266 30 30 32
0.5217907248551483 2.729153654087213 0.8017050500517593 30 30 32
0.5453736923896841 2.814556549224389 0.7941534397058447 29 29 31
0.5494735106241733 2.8345846567535498 0.792506557849275 29 29 31
0.584580365755144 2.8806647809551653 0.7864909927721501 29 29 31
0.536892882062783 2.924379742802583 0.7878078690669719 23 23 25
0.5603647848593163 2.961300903208776 0.7833918287112391 22 22 24
0.5705590780768801 2.9870062739506014 0.7808503818646424 20 20 22
0.5874232724140398 3.0185480485604153 0.7773542080922572 20 20 22
0.6668695642297437 3.262214521709179 0.7547538169700981 37 37 39
0.656923724438601 3.2711104690956514 0.7550427418078407 42 42 44
0.5923954026888592 3.2842007629540566 0.7597946344772893 31 31 33
0.5559354206957507 3.268927665432167 0.7639412100399521 24 24 26
0.657206150057396 3.4329405278589307 0.7445839944445686 15 15 17
0.7980175725809899 3.6555757496002523 0.7180180294014986 19 18 24
0.718919559953888 3.637687991835233 0.7260307690336361 34 34 35
0.737592306254204 3.674045170445841 0.7220672762497271 37 36 40
0.7531891782647346 3.7076463970892704 0.7185482184466703 42 42 44
0.700753778166993 3.676715544365961 0.7250897450089603 47 47 49
0.7336038362884594 3.726846448928862 0.7190087092466595 50 50 52
0.7563548653422258 3.767561801265937 0.7144105465493594 53 53 54
0.8072837202683838 3.835505433823733 0.7056132089493343 74 74 73
0.9963371775293822 1.85790283021255 0.8291872079964285 167 167 167
0.9538942463892435 1.845979382806386 0.8335687516801029 146 146 148
0.9040168181710588 1.8438752152584965 0.8379607757020208 87 86 89
0.9002798109839859 1.8562101971991987 0.8374956556262751 82 81 84
0.8972098715855846 1.8689864411827255 0.8369455329131532 74 72 75
0.8913513765758245 1.8799906202694117 0.8367461360367178 67 65 68
0.5011262345680227 2.424836727659397 0.835424186856291 33 33 35
0.5179627287226181 2.5326376098274457 0.8271336153980217 28 28 30
0.5302567460005749 2.606390829435347 0.8213953483798674 30 30 32
0.5296464745294993 2.62200490026052 0.8204548253383026 30 30 32
0.5149475968341233 2.6263020872640714 0.8214365509539526 29 29 31
0.5179814190703549 2.644892911580989 0.8199956760028733 29 29 31
0.5312818999104365 2.7044182844491704 0.8150759817017761 31 31 33
0.5304004240859097 2.7200303277597646 0.8141587414710689 30 30 32
0.507071742858568 2.766378739072807 0.8132039325952102 29 29 31
0.5837512331804229 2.8634043791877843 0.8004893079686881 30 30 32
0.5772638290520422 2.874715857075051 0.8003240681137802 29 29 31
0.5829642026839603 2.8962810326551645 0.7984664510853481 28 28 30
0.5659282418546361 2.898733670283885 0.799764966348051 27 27 29
0.5450956266824702 2.931561346445717 0.7994566034162383 23 23 25
0.5748968692918663 2.973918732440943 0.7942195768604307 22 22 24
0.5830596446581862 3.0149932915438873 0.7909114745276394 20 20 22
0.6041111223744204 3.050275383925478 0.7868712478495089 18 18 20
0.5948355972849264 3.1285985220816794 0.7826839473094156 23 23 25
0.6675216851428456 3.2630174206558866 0.7679330763640729 43 43 45
0.680775547577833 3.292603807016659 0.7649206565812963 40 40 42
0.6571570392506754 3.2893248554956687 0.7671455241993613 38 38 40
0.6620987757359704 3.311584221977924 0.765308543972881 36 36 38
0.5852219941699011 3.277952594899233 0.774009899977366 30 30 32
0.7140627861638902 3.6333800728542256 0.7404147980264275 34 34 35
0.7405291070935394 3.677087879549034 0.7353766389623183 37 36 40
0.7485248255267629 3.703497774044026 0.7330150675675373 42 42 45
0.7050124829177062 3.681035746913877 0.7381578748983394 47 47 49
0.7276906456439773 3.7214825100661604 0.7336504401807384 49 49 51
0.7601977774489834 3.771517207518527 0.7276943344388084 51 51 52
1.021629847384054 1.8441548605814293 0.8403853168048366 168 168 168
0.9818105183260541 1.8340613970170772 0.8443638092124054 163 163 163
0.9443599712966672 1.8253066315059856 0.8480593630079195 128 128 128
0.9132653336723358 1.820419722539783 0.8509784487250348 92 92 94
0.8863798673275846 1.8327313090424724 0.8524660474712736 75 75 78
0.8736409646399403 1.839290743182897 0.8531254096917997 68 68 70
0.8165103153624114 1.8466241224664686 0.8574664373314467 53 51 54
0.4385454188358414 2.29956948670682 0.8608409934083624 33 33 35
0.4966046517174728 2.405860731219658 0.8493012988181563 32 32 34
0.49601987961766736 2.4210221252995465 0.8484003004802367 31 31 33
0.47699883188950687 2.453203083920365 0.8479818889273514 31 31 33
0.5224265633935194 2.648647911676611 0.831916513201697 29 29 31
0.533991717816966 2.674226184434133 0.8293417700527235 28 28 30
0.5452257039716739 2.6996350597084833 0.8268054702597456 33 33 35
0.5549289301308442 2.723892780519363 0.8244699384338635 30 30 32
0.5677123095964882 2.750764415396727 0.821711777243451 30 30 32
0.585359504947139 2.7817412682435476 0.818287651204063 29 29 31
0.5395070674170115 2.760491167159148 0.8234722613194206 29 29 31
0.5360383720684352 2.823721541072941 0.8198012026630965 30 30 32
0.5651827315026587 2.864772562571691 0.8147796593779422 29 29 31
0.601841142337552 2.912342878202572 0.8087181706422456 28 28 30
0.5805946671338225 3.0130720352230087 0.8041909726629883 20 20 22
0.5974535184614553 3.0447304904901786 0.8007903751740514 18 18 20
0.6103674149423419 3.073108003040739 0.7979268763524145 18 18 20
0.6213100774835902 3.099886687407089 0.795329212677789 19 19 21
0.606173488219504 3.10403424314557 0.7963411964890743 21 21 23
0.5982216413593531 3.1144212697451747 0.7963584421487593 23 23 25
0.6718113947331321 3.2493139747189397 0.7817213436376869 41 41 43
0.6865874607124158 3.2801873100229133 0.7785449612311348 43 43 45
0.6697523591236791 3.283000179563089 0.7797833105535769 38 38 40
0.6691342924064245 3.300266975021361 0.7787531683995815 38 38 40
0.6714430534240656 3.320200198677071 0.7773099896213795 35 35 37
0.5869762595503454 3.2797681959825624 0.7869413953909087 28 28 30
0.6745892010707444 3.4493859123725796 0.768949800353928 14 14 16
0.7393590568729194 3.6387273397649587 0.7516416255410914 30 30 34
0.7244305567116263 3.6434083524615084 0.7526026932243425 34 33 37
0.7487585516119861 3.6851307408716787 0.747943788016812 36 35 40
0.7542349688840677 3.709180600363201 0.7459764544202773 43 42 45
0.688284405057022 3.6654040845429288 0.7542615654406529 48 47 49
0.7197585034339207 3.71419256641806 0.7485593659784547 50 48 51
0.757496698461382 3.7692119366359274 0.741940326597234 57 56 57
1.1154538102687424 1.8577791965625168 0.8442719615925226 169 169 167
1.0680239022772748 1.843362362330372 0.8490840022784366 169 169 167
1.0211669532720382 1.8291192640151879 0.8538379389479268 168 168 167
0.9712213348966836 1.8127698939358954 0.8589773442606926 154 154 154
0.9084745029666808 1.8028171767418872 0.8647801006670166 87 87 87
0.8839980218880967 1.8020217579418571 0.8668529958127476 78 78 79
0.9161698733950626 1.8369865211518146 0.8620334094243444 73 73 75
0.8772059545190967 1.8269608954488201 0.8658742473770469 64 64 66
0.7746730361917015 1.9222364891214399 0.8684673221756449 70 68 71
0.7557172678123953 1.924443525030177 0.8698983107070513 74 72 73
0.4395662862079013 2.3004748632880454 0.8728132930368737 31 31 33
0.46225507283324374 2.333129777043805 0.8689204511261807 31 31 33
0.5020384751380296 2.4886997183343524 0.8560225155681316 26 26 28
0.5435132162797478 2.5371589554018255 0.8496002792975653 24 24 26
0.5609394189839778 2.566879335632879 0.8463238063110594 26 26 28
0.6009076625288492 2.6307751685278244 0.8390727107077969 28 28 30
0.5161980033137865 2.5954508862101147 0.8482584393351671 28 28 30
0.5230395021271868 2.649305120059527 0.8443665383534654 28 28 30
0.5384677568962157 2.6780205843537104 0.8413173271539498 28 28 30
0.549610527086712 2.703369414992758 0.8388303842985695 33 33 35
0.5605298478378207 2.728634015870753 0.8363671190486952 28 28 30
0.5875991381924393 2.7672260232329435 0.8317453915476671 28 28 30
0.5650663990516771 2.83149402862659 0.8296390226517315 28 28 30
0.5851981874457006 2.864977691718215 0.825906412219149 29 29 31
0.5871838381626338 2.8833995386001434 0.8246044348250132 29 29 31
0.6246387549145451 2.9317033933550416 0.818524163106923 27 27 29
0.5942386481378257 3.042157367571509 0.814215673071198 19 19 21
0.5960799080416364 3.0609379472305687 0.8129034775868574 18 18 20
0.6167398655976011 3.096122590995458 0.8090221383200429 28 28 30
0.6020791282173654 3.100673597652017 0.8099532325324665 38 38 40
0.6305656385629059 3.160374739714729 0.8039105501201891 28 28 30
0.6441628234373347 3.1898408934795297 0.800966370367107 32 32 35
0.6775310377058701 3.2546030936335093 0.7942074691802765 42 42 44
0.7432512606765427 3.6426450531945953 0.7648067135453075 30 29 34
0.76051630830881 3.6965076363051597 0.7600524558238804 36 35 40
0.7459951647194982 3.701643164013424 0.760935906001668 42 40 43
0.6875191055415972 3.664947651783919 0.768037277197738 49 47 50
0.7194179163088941 3.714142640577319 0.7623613564252323 52 50 53
0.7544762653010426 3.7666009235733666 0.7562226455508552 69 68 69
0.8101290214948846 3.839087153013259 0.7471441474518403 82 82 80
1.0571303510512546 1.821849894327238 0.8638289447476227 168 168 166
1.010758402230879 1.807957619482241 0.8684461039452277 167 167 165
0.969896394918817 1.797311023195939 0.8724175802165651 140 140 139
0.895514477528928 1.8093337160954752 0.877735789524151 71 71 73
0.8677711687794245 1.8064186826106872 0.8801697139289523 60 60 62
0.7067640690473289 1.9213892467932205 0.8862683360931897 109 108 106
0.7005720164365751 1.9319506731423481 0.8861292132042327 102 101 99
0.6788413277319328 1.9320687345092538 0.8878895066426047 97 93 94
0.6682698028545151 1.9396445422346593 0.8882882923186308 90 86 87
0.6569466423609678 1.94669351102788 0.8887802755832449 89 85 86
0.5630409807337033 1.9999897424103361 0.8931745965929679 31 31 32
0.49291714874909365 2.203599788668191 0.8864866693041847 14 14 16
0.5493928117505691 2.3066809360633447 0.8756197785057782 21 21 23
0.47167442081200905 2.3404545191120434 0.8798856258249288 28 28 30
0.4883268354274931 2.3841866759029227 0.8758696991716192 28 28 30
0.47847679967767487 2.4546443508749567 0.8723828784979413 26 26 28
0.4951372352354617 2.4834302813441393 0.8692759109035451 25 25 27
0.536626003139421 2.5798176314437047 0.8600353655455723 26 26 28
0.5281038901103738 2.5890705680531325 0.8601653928052826 26 26 28
0.5323722077408046 2.60855350599619 0.8586325157507777 26 26 28
0.5441937884250776 2.6341626804372815 0.8561124532989668 26 26 28
0.5468567176212025 2.684989181960609 0.8528026155070871 27 27 29
0.5582597935103593 2.7105745707167195 0.8503180399639212 27 27 29
0.5644651430066281 2.732015572974605 0.84850844755431 27 27 29
0.5842431093843994 2.7646475835056847 0.8449138453867059 26 26 28
0.6084444148711077 2.80106103371935 0.8407293338946024 27 27 29
0.5636249094373447 2.8471337861668697 0.8415708163613902 28 28 30
0.5927551875964012 2.888254391375395 0.8366989314873801 28 28 30
0.5906599874975795 3.039269995339514 0.8276786966999945 18 18 20
0.5819762609725889 3.0489262309232554 0.8277973245429013 17 17 19
0.6409045766242243 3.1696607468663185 0.8156565805328357 31 31 33
0.6535230204581051 3.198297282562276 0.8128874627533637 35 35 38
0.6787572245051516 3.238190193193083 0.808407183578214 42 41 45
0.6912531504086503 3.2669832534787173 0.8056385049475372 40 40 42
0.6974221476629496 3.5627885851873846 0.7871343478108676 20 20 22
0.6713701612285512 3.5754300626651494 0.7884839547847454 31 30 35
0.7598599857967787 3.69615722938358 0.7739392550801578 37 36 41
0.7407840709505069 3.69697560948089 0.7754410002497075 43 42 45
0.7271368166866388 3.702887180341275 0.7761912358966113 50 48 51
0.7256467425415263 3.7203587955129946 0.7752491280378782 56 54 57
0.7509231759352113 3.763480026188264 0.7705689419872264 68 67 68
0.8011449865617735 3.830747188469534 0.7623903130680352 71 71 69
1.0126331281635097 1.7944480355225672 0.881548871702408 163 163 162
0.8405270097722124 1.7747207673774392 0.89649817085693 60 60 62
0.8380799765888078 1.7876862784281142 0.8959165704987997 49 48 51
0.8100138652359167 1.7844040988487992 0.8983583262768945 49 48 51
0.7013069796147309 1.9031536545523293 0.8999341395489693 108 107 105
0.6838117371255615 1.906140516498061 0.9011544890007862 112 111 109
0.6666299499403395 1.909286799062928 0.9023402076056647 97 96 94
0.6538882923875597 1.9153688965319224 0.9029947512287715 92 89 89
0.6371425154603028 1.918721222272974 0.9041332407444312 87 84 84
0.6358459829542442 1.9324859493564879 0.9034116968874203 83 79 80
0.5079751597876412 2.2148319538739134 0.8967121314809189 14 14 16
0.5279072488514118 2.2447896989425864 0.8933216968565344 16 16 18
0.5602675972860686 2.2995143406753007 0.8874522629257988 18 18 20
0.5438444690813155 2.3026507681384714 0.8885778881347252 19 19 21
0.5212472452009089 2.301102096835994 0.8904782630132779 21 21 23
0.4660311556555772 2.3208771293480073 0.8937093393132807 26 26 28
0.5036823443246108 2.4902798017995416 0.8805412777625041 25 25 27
0.5395888809664331 2.5343654184916486 0.8750260416553735 25 25 27
0.5288305776044002 2.54181785649343 0.8754397815332974 23 23 25
0.5381746261821814 2.581202117974054 0.8723311135398649 24 24 26
0.5333677675942732 2.5934247961467323 0.8719828087575996 23 23 25
0.5500722332779548 2.6390425419632395 0.8679116665411691 25 25 27
0.5650667597153691 2.71628086677684 0.8620815166524849 26 26 28
0.5837960042925951 2.747968675627988 0.858683571722907 26 26 28
0.5987928507804272 2.7767383977955324 0.8557591282720781 25 25 27
0.5962265985881707 2.8077866062286763 0.854102932045525 26 26 28
0.5777397108607476 3.028317036183851 0.8423599706754525 18 18 20
0.5776536935091996 3.0453859549555746 0.8413434992411094 18 18 20
0.6468355178825569 3.157574480731765 0.8290835621377456 29 29 31
0.6517172486968272 3.1793632293520835 0.8273867530973448 33 33 35
0.6657054679380214 3.209238995599617 0.8244766766770356 40 39 42
0.6762040332121242 3.2361548147154853 0.8220231946213282 40 39 43
0.6538955535422146 3.467518065695016 0.809936445786198 13 13 15
0.6965383905330325 3.580747810884224 0.7997369060439757 25 25 28
0.7282221686690857 3.6290642280585184 0.7943057895956778 32 31 35
0.7321973093543703 3.6515204217134216 0.7926414815715362 34 33 38
0.7487341738089062 3.685915180869965 0.7892566097781585 37 36 41
0.7427096756139995 3.699071959688387 0.7889496993979765 44 43 46
0.723404923190295 3.699611743573831 0.7904615018370091 52 51 53
0.7249654460552557 3.719984226466667 0.789115263312782 58 56 59
0.7640715685569752 3.7763405392914486 0.78260841736628 64 63 65
0.7990830696083235 3.829051321108503 0.7766476600022946 62 62 61
0.9939137137577805 1.7683020995233154 0.8970001903009219 160 160 160
0.7892472348543315 1.7568423834200069 0.9137722244548924 46 45 50
0.7847724461053981 1.7684300129967037 0.9134398906831682 55 54 59
0.7135089909222143 1.8820461860819166 0.912335244194119 109 108 106
0.6977367327153949 1.8862235090930737 0.9133289362928739 119 118 116
0.5278754617779238 2.2601610787204955 0.9046064526578341 16 16 18
0.527095513141475 2.290237286391736 0.9028918155221984 19 19 21
0.4933516445914923 2.2802760744900477 0.9061336961865479 21 21 23
0.5641484322472978 2.427037036643516 0.8919000004072862 24 24 26
0.5616142867668577 2.4408123922597427 0.8912858675760731 24 24 26
0.5693377422700403 2.5100643051528366 0.8865892160222033 23 23 25
0.544256870068621 2.506370436571919 0.8887797416007991 24 24 26
0.5468310840568202 2.5242807328687786 0.8875197133681537 24 24 26
0.5494130871425049 2.542247451509916 0.8862557408965424 24 24 26
0.5432980836288723 2.585429349780179 0.8841867827239317 20 20 22
0.5839276567253817 2.7153893917697385 0.8733175717518187 26 26 28
0.5985125382173841 2.7766800378888883 0.8685514308835555 23 23 25
0.5660838554619465 3.018454984516279 0.8568250831694213 18 18 20
0.5955779324672852 3.061116292595326 0.8519865018722527 19 19 21
0.6642144150166609 3.1729883575518354 0.839982855288036 32 31 35
0.6670798248844079 3.1930593027486545 0.8385723424506195 38 37 41
0.6811766849425662 3.2230770555141204 0.8356912174558454 43 43 45
0.6931670312272902 3.2513571534050305 0.8330783595736091 41 41 43
0.5954404567466622 3.235240715645147 0.841715418490758 31 31 33
0.6991699505119513 3.5834706520078563 0.8129952676641065 27 27 29
0.7366853048344342 3.6372735367151643 0.8068679780357737 33 33 35
0.7411488659988663 3.6602176151276113 0.8051621276431862 34 35 37
0.7570209153678615 3.6940141771082295 0.8019182631237228 36 37 39
0.7366643479763544 3.6936131882338747 0.8035428190281488 45 45 47
0.7197640431899155 3.6964225820604977 0.804705997803222 51 51 53
0.7467612557240058 3.7410508008479555 0.7999476301605855 54 54 56
0.7669877081784828 3.7794105731677696 0.7960918738066064 56 56 57
0.8001053380898926 3.8303161120742866 0.7904815150390031 58 58 58
1.0068345127907952 1.7616428824804498 0.9087773096326703 160 160 160
1.010795388822625 1.7787200837762707 0.9074782189480033 108 108 108
0.7735680006894732 1.7469744398159643 0.9276604321088854 45 45 48
0.7154525158232389 1.8833989038804693 0.9242201843875161 116 114 114
0.6974561908018233 1.886107816476942 0.9254536961197575 110 109 107
0.6812547606416607 1.8899580214601297 0.9264821129017596 101 100 99
0.6647648745279998 1.8935712468190622 0.9275466047076885 92 92 92
0.6503240611872324 1.8985113192792122 0.9283755660955447 82 82 83
0.6588503134629632 1.9188561817755487 0.9265336016845206 83 82 80
0.6615447652399881 1.935339011756879 0.9253669578625391 82 81 79
0.6779595548789457 1.961156629112581 0.9225970444164047 82 81 79
0.5260066275233886 2.258890502591438 0.9170307536232152 16 16 18
0.5217619207457338 2.3017356388901002 0.914867659973712 21 21 23
0.49743913605256607 2.2988101680186577 0.9169177783061677 22 22 24
0.48891556793936797 2.307741638373348 0.9170572928717163 23 23 25
0.4925724744084313 2.325905743912993 0.9157185004582153 22 22 24
0.586339441797082 2.4599623299525746 0.9006762377298482 23 23 25
0.5760645521453645 2.4836828452773507 0.900091226121419 22 22 24
0.5046550988664087 2.4913335687847704 0.9051659475136276 23 23 25
0.5345508011203979 2.5306947867386533 0.9005665535890348 22 22 24
0.5550527798530482 2.562829964293943 0.8971133944472508 19 19 21
0.6107688448262294 2.836807423079337 0.8768767050948904 22 22 24
0.6864181763932939 3.210245592450171 0.8493162408463018 46 46 50
0.6480436413495498 3.480860054019012 0.8365477844750715 15 15 16
0.6999002956629417 3.5844144264499946 0.8265184824358687 29 27 31
0.7125395716238381 3.63353755476699 0.8226853207419821 34 34 36
0.7275431762498559 3.6852383401845463 0.8185195339873595 45 45 47
0.7278483540271927 3.7043829537703017 0.817382801454736 51 51 53
0.7452146816965939 3.739851786606632 0.8139781792260348 53 53 55
0.7692018104039726 3.781809083991761 0.8096845397307384 54 54 55
0.8130627434464326 3.8430391852470938 0.8027341651180588 55 55 55
1.022235799129078 1.7711152604390803 0.9194676724091941 117 117 117
0.7314186043028889 1.8356249896057952 0.9378619484453067 84 81 81
0.745265628768664 1.8884828267555882 0.9337847949021676 90 88 91
0.7231020924700537 1.888520685372042 0.9354658845521507 90 88 89
0.7010460790339571 1.8885577539161396 0.937138853373681 103 101 102
0.6758626087587681 1.8864425398558606 0.9391725372988278 98 96 97
0.6561113756887269 1.8878670571312726 0.9405910489901922 86 85 87
0.6501889680662304 1.8984949357600782 0.940432513183168 82 82 83
0.6377623103863529 1.9047537986613974 0.9410180330234906 83 82 80
0.5127345139728097 2.3104613247653636 0.9272913765215953 20 20 22
0.5113116453542709 2.324802584008445 0.9265785647650197 20 20 22
0.5581705919622273 2.422724498885363 0.9174148433811954 22 22 24
0.5251895395959709 2.507591766136742 0.9150619701245369 23 23 25
0.6755675931112037 3.3792227331252946 0.8537501986484272 18 18 20
0.5862081320955406 3.460062233502545 0.8559096468384123 30 27 33
0.7451052996264458 3.6457076622968136 0.833215769116438 33 31 34
0.6883969257814415 3.6110623800707233 0.8395056561480339 35 35 37
0.7533745148090496 3.691107992601422 0.8299890918232222 38 38 40
0.729448657781059 3.687315465358356 0.8320232708172843 45 45 47
0.7165528740590767 3.6939144892772715 0.832624949064524 51 51 53
0.7443315873277747 3.7392856539391293 0.8279182510908509 51 51 53
0.7812629070721642 3.793631767257522 0.822002724993629 51 51 52
0.8121852448020896 3.8424808929987506 0.8168582039669975 55 55 55
1.037833627402161 1.7660242368188122 0.9310246625838506 151 149 151
0.6856939947671125 1.7627674724317641 0.9574775287529268 70 69 72
0.698440827173167 1.814213609494061 0.9536284977415387 84 80 79
0.6874642857913015 1.8796248612944284 0.9507625164957015 90 88 91
0.5673137572981964 2.3517178924681197 0.9331311658155289 17 17 19
0.5573050835063003 2.532938678101436 0.9236690616298936 22 22 24
0.6846977164510468 3.351675142708408 0.8680436109946774 27 27 29
0.6912934819757499 3.375643187414097 0.8662013744575737 20 20 22
0.6889776480294811 3.3916154359063793 0.8654743665328 18 18 20
0.6342015637793899 3.4867894528728938 0.8641991729837021 25 20 24
0.6868726291560996 3.609891059039924 0.8533352372573533 36 35 38
0.7296628028118044 3.6877894396328808 0.8457548519856404 45 45 47
0.720192550630417 3.697648636290263 0.8459059270236757 51 51 53
0.7327954266184078 3.7285560215177513 0.8432246485065998 49 49 51
0.7831234439456989 3.795692841472117 0.8356881777380203 49 49 51
0.8185752546419167 3.848900286485543 0.8300461490697874 60 60 59
0.6946894265241377 1.768621392104971 0.9684689357200369 68 66 69
0.7254653876316776 1.8902200115554422 0.9594746383560506 85 83 85
0.694874365691991 1.884607201106655 0.9620265787319627 95 93 95
0.6976850219680877 3.363605606222908 0.8798434271428863 25 25 27
0.7025975673568208 3.386092870759526 0.878237162067368 20 20 22
0.6960113314043368 3.416360513780858 0.87704195176913 16 16 18
0.645250775214685 3.5340423582169596 0.8742374179155363 37 37 40
0.7298186245875637 3.631882508605399 0.862619661851423 35 35 37
0.690520709948645 3.613592120922986 0.866512081664962 36 36 38
0.7448865593492691 3.68362603742874 0.8586478967839697 39 39 41
0.7228480050564932 3.6815998001775814 0.860374561713509 46 46 48
0.722164666688252 3.699797214359899 0.8594159790294371 51 51 53
0.7403688965059534 3.7360576789467124 0.8560726642845603 48 48 50
0.8144078230473204 3.845183396965853 0.8446006354100386 75 75 75
1.085248837996668 1.780272310700214 0.9517456041008161 164 162 165
1.0163613794756818 1.7530044215727525 0.9581855275636938 99 97 100
0.6676980436195742 1.8812254812347748 0.9762647069213621 110 108 108
0.6221786127081887 3.0506656907535614 0.9157777635090013 30 30 32
0.6506099588324867 3.0924578876083055 0.9114548740517205 37 37 40
0.6984766153941759 3.364552126884367 0.8931780507359869 24 24 26
0.698276716534713 3.382424307617808 0.892218001379244 19 19 21
0.7207742781160449 3.60499550063627 0.8784653813057134 31 32 35
0.6917311141447737 3.61499711916567 0.8800083725230107 36 36 38
0.7046118231930512 3.645833200115579 0.8774009706770949 39 39 41
0.7203329854336811 3.6794861580759655 0.874435750007038 46 46 48
0.7252227274414598 3.7029788674493602 0.8728032979684974 52 52 54
0.7475015943115673 3.7431395104811713 0.8690117467737641 51 51 53
0.7655078708614544 3.7793929062726925 0.8657404385790183 61 61 63
1.077917909104355 1.7758552207078404 0.9650333893325046 155 153 156
0.6844801741342333 1.9364677869587466 0.9841809288985903 74 72 73
0.5590478390818585 2.51880649964163 0.9618082233149098 19 19 21
0.614523838852638 3.0099611982173418 0.931560474761708 22 22 24
0.6318021107636034 3.041923885292483 0.928627705155771 31 31 33
0.6973877111799205 3.3818567133997703 0.9057745575091187 18 18 20
0.6818730389107304 3.4039818440479137 0.9056829351439812 16 16 18
0.6756774548750775 3.5445618155579917 0.898582755599427 34 31 36
0.7127334335558113 3.5977298373795215 0.8931176333709964 33 33 36
0.6899077153201987 3.613544130997308 0.8938802007800231 36 36 38
0.7071206804319161 3.64847205928798 0.8907930551018173 41 41 43
0.7356142645878019 3.6942454321738634 0.8863285207050204 46 46 48
0.7497109028537698 3.726544000053444 0.8836022220260379 52 52 54
