ply
format ascii 1.0
element vertex 724
property float x
property float y
property float z
property uchar diffuse_red
property uchar diffuse_green
property uchar diffuse_blue
end_header
0.9966371501651871 2.2845137304500045 0.4810864724675382 48 48 50
1.0006525028197035 2.2984802166194425 0.4794450919647806 49 48 53
0.9564837703524176 2.303704984530104 0.483301731072039 50 49 51
0.9022318546723895 2.306939537202075 0.4883232868300794 46 46 48
0.8729105752558494 2.314618646733297 0.4905071566906093 40 39 44
0.8296248194639313 2.319597810611549 0.4942993142417625 36 35 40
0.8357146292243645 2.333751600500006 0.4924381262728098 30 29 34
0.8141461477985352 2.342671856113041 0.4937521499639282 27 27 30
0.8057984532817388 2.3540656802379405 0.49355091844637433 25 25 27
0.49557327949822344 2.3069887943331193 0.5281262385820528 25 25 27
0.480055137841961 2.3164349344157853 0.5288009977989115 25 25 27
0.45554790764366054 2.32406611361158 0.5305179097560145 23 23 25
0.45149054455532694 2.335685652709389 0.5298765281151621 23 23 25
0.4262282971333806 2.3430509118849434 0.5316911157514189 21 21 23
0.5040839589166128 2.3711736853083067 0.5215563032498671 19 19 21
0.4645003569910019 2.375640763531144 0.5250318312153607 19 19 21
0.45764603308380847 2.3867056199515027 0.5247138183908476 18 18 20
0.4494545042147959 2.397478421079836 0.5245528069198752 17 17 19
0.4116845439046966 2.4020554615040925 0.5278409711280424 16 16 18
0.3990529336380385 2.411804292077695 0.5282061165831959 16 16 18
0.38520396280431524 2.4212600653879717 0.5287166215137804 17 17 19
0.40794206197768684 2.4385023437073263 0.5249497025033606 20 20 22
0.4114702762666195 2.4516884736844533 0.5234257555329104 22 22 24
0.4097164302344113 2.4637469575928694 0.5225196523657295 19 19 21
0.40866373778610887 2.4759610830432113 0.5215310028422645 13 13 15
0.4238850618244513 2.491770931978741 0.5186279228555062 15 14 17
0.42797731770032343 2.50516580232062 0.5170301053056539 14 14 16
0.4203503691782834 2.5159567298632153 0.5168122075584758 13 13 15
0.42304710269415724 2.52906064086557 0.5153770020311814 13 13 15
0.4306053208023617 2.5432877321682827 0.51336552153921 12 12 14
0.4322494835398444 2.556193307053932 0.5120510782390897 13 13 15
0.4240322174731339 2.5668357405425786 0.5119042383907041 20 20 22
0.4203969099563247 2.578524016106295 0.5112153985473126 24 24 26
0.4281535557242452 2.5928771823825896 0.5091732256337942 18 18 20
0.43430941521280597 2.6068872032211656 0.5073184221833538 22 22 24
0.43543987439973864 2.619731800350768 0.5060597149320761 27 27 29
0.4498011232843272 2.635756314591222 0.5032216399951095 23 23 25
0.4653894089969355 2.65213408458493 0.5002318778537369 14 14 16
0.4839285560825852 2.6692901145561745 0.49688369844215197 15 15 17
0.5019554604300144 2.6863926659880355 0.4935904418034365 16 16 18
0.46101443073106174 2.6890423485028174 0.49736128537260793 19 19 21
0.3975119817467694 2.6859644916718013 0.5038525675838667 24 24 26
0.451372406443559 2.711984627265454 0.4962545554812706 29 29 31
0.5267842363704058 2.743616959434151 0.48604528320274465 26 26 28
0.6232641827219538 2.780850522086583 0.4732730394977332 23 23 25
0.6891875620254501 2.810636269694277 0.4641576284751197 22 22 24
0.5656925273924118 2.792052461175784 0.47790743725200996 20 20 22
0.47496592215649336 2.7815164987803778 0.4877302659345627 20 20 22
0.4460911426549835 2.7867605958078303 0.49008806941143457 20 20 22
0.44637651975750225 2.799546770123446 0.48891730812378964 20 20 22
0.39720852225743464 2.7993112159261613 0.49375136235144645 19 19 21
0.4080173119785324 2.8148216585464505 0.4913069813118563 20 20 22
0.4775468017938499 2.8460536857274965 0.4817093039361419 21 21 23
0.4491834044445381 2.8512319588323445 0.4840229321152984 21 21 23
0.4073043501823729 2.8526655221337327 0.48799429438695513 21 21 23
0.4061609015426806 2.8650485842361846 0.4869994293571902 22 22 24
0.3890621736434977 2.8730660945780175 0.4879566010767246 21 21 23
0.42883740558826 2.8967081427288504 0.4819499258252511 21 21 23
0.44501731165409497 2.9139523012465824 0.47882481297145946 24 23 26
0.4275261240534205 2.9218637171111417 0.4798298848393989 25 25 27
0.4140474449551136 2.9308495548110263 0.4803461450883217 26 26 28
0.41798108206796447 2.9447170555830144 0.47872161092644 27 27 29
0.3882055263867039 2.9490228119339656 0.48125145910566536 28 28 31
0.44313961856943307 2.977464420050304 0.47333191609656716 29 29 32
0.5439588666135269 3.019311214831972 0.4597225731017153 29 29 32
0.504109791388425 3.0207895073555937 0.4634912250995071 29 29 31
0.5546213811764559 3.0484575993893737 0.4560737326502851 28 28 30
0.5369933963561683 3.0563438864940897 0.4570944414496659 28 28 30
0.5552212743848618 3.0747465182059757 0.45366531077164385 25 25 27
0.8131424322722259 3.16429570983265 0.4204138050986336 22 22 24
0.8210655980837929 3.180188726904189 0.41821770012692655 19 19 21
0.7654988587085544 3.1770700464078314 0.4239358133879939 19 19 21
0.7249215168748128 3.178289018490907 0.4277989326077856 19 19 21
0.6691248083237504 3.1747551340476643 0.4335766681516887 19 19 21
0.5472976502036517 3.1508765708439634 0.447636454611938 20 20 22
0.517618401582219 3.154871782025414 0.45018463187385266 19 19 21
0.5485270949802449 3.177480419406219 0.4451382582664619 18 18 20
0.537661752220061 3.1872334328593896 0.44533013190041254 16 16 18
0.5268005600794051 3.1969581859808134 0.44552412513839434 16 16 18
0.6235700902537749 3.2404566479041454 0.43216357878635664 18 18 20
0.6253228186051367 3.2542955891950194 0.4307550839920653 26 26 28
0.6323967614505395 3.2698394449394472 0.42867331648813417 30 30 32
0.6296665669501437 3.2822860444416917 0.42782809727908494 32 33 35
0.5532904005688251 3.2710827719289237 0.4363058215708067 38 39 41
0.5078965933770371 3.26962229925918 0.4408799075193272 21 21 23
0.4976929888332261 3.2794346586513026 0.44100170000764094 14 12 15
0.4879914949855315 3.2893835182300784 0.44106214107696035 13 13 15
0.5065268426544673 3.308573698840539 0.4375325215549189 12 12 14
0.4919047467735469 3.3168976331527356 0.43821987040727284 12 12 14
0.5468272102928967 3.348248405824025 0.4300414450920052 11 11 13
0.5739650077063869 3.397133895500004 0.42301557978857957 11 11 13
0.6081247108578733 3.4220200935360197 0.4174474004864185 11 11 13
0.6337059604539608 3.444114690978183 0.41296846921119407 11 11 13
0.6446619190260009 3.4613017186794925 0.41035982909335167 13 13 15
0.7022256852068233 3.494577282573557 0.401750812101145 14 13 16
0.6817087683325448 3.501055373395954 0.4031801795763712 14 13 19
0.6738982938688431 3.5118876980536955 0.40297654691195395 21 20 26
0.6727375278315616 3.5250252914375624 0.40191593718793395 29 28 34
0.6734308188841108 3.5388190568119358 0.400615187344727 34 33 38
0.6466357188171792 3.542918763392846 0.402871698740888 38 37 42
0.6262852478806563 3.5492187034067175 0.4043006960972669 41 40 45
0.76229395102082 3.6112207605669777 0.38544522273900234 39 38 43
0.7417474634286775 3.6176025691651645 0.3868860905473087 41 40 46
0.6859188120640349 3.6112101915134236 0.39292244456450987 43 42 47
0.6813786580722181 3.623194553709097 0.3922957149615304 44 43 47
0.6749373156025664 3.634480030221381 0.39191755685919744 43 44 47
0.7138066646152561 3.6623175260210994 0.3856245690947745 42 43 46
0.7821725418324597 3.7011408330105677 0.37546228918655583 48 49 48
0.8305492743763552 3.7328388648494 0.367893580211381 58 59 54
0.8449892968213781 3.7521295502898373 0.36475586440341123 89 89 87
0.8977314684721406 3.785760434653312 0.35658706943995955 86 86 84
0.9667115115968448 3.8256731719569532 0.34626729642366455 129 128 126
1.0536884736325476 3.8726178034410212 0.3335573156070256 163 162 160
1.1330643228351738 3.9170106909307902 0.321819473682877 168 168 166
1.1429965983686978 3.9353106097011104 0.31921157074526707 168 168 166
1.0701698442628516 3.922057912319535 0.3275250242673904 169 169 167
1.271550444597914 4.013742036275596 0.29961739082798605 169 169 167
1.3136763123055388 2.1091973382950338 0.4791007589958084 169 169 169
1.2518006035068123 2.1134169100315936 0.4846842753709323 169 169 169
1.1612359710229496 2.1130313893004065 0.4934410175422509 169 169 169
1.087671317036115 2.1149951489860412 0.5003512279072339 168 168 168
1.0141735914468066 2.1167340656732834 0.5072750181013139 149 149 147
0.9348953575004735 2.117320529768977 0.5148581810625996 77 77 75
0.9329817397326785 2.1300548192397106 0.5139082960138551 77 77 75
0.9289340067575708 2.142445439444975 0.5131945597029647 67 67 65
0.9166425652960565 2.153481996030522 0.5133953870084907 59 59 58
0.9643961694264734 2.1744114862834465 0.5069320716730473 52 52 53
1.0756461641341928 2.2061099293782163 0.4933941866198231 46 46 48
1.0475860541697648 2.2146955150349634 0.4953320136917412 44 44 46
1.0627351072328761 2.2305544866248233 0.49246049716605733 43 43 45
1.0648460928412047 2.244230436261674 0.49103912736894395 42 42 44
1.0466587121133193 2.2543975336011317 0.49188523975625914 42 42 44
1.0222825954935697 2.2634275652850904 0.49342867142345936 44 44 46
0.9987113271039736 2.2725271350017326 0.49488839358747383 46 46 48
0.9034668616087549 2.2687524093565976 0.5043977188361632 49 49 51
0.9561920315898573 2.2913490250956983 0.49730710141485857 48 48 49
0.9318165592458738 2.3000989402835983 0.498875419798969 46 46 44
0.9175303097166025 2.310628735452813 0.49931350489268084 41 41 41
0.8877454085040559 2.3182465536405434 0.5015036438785034 36 35 41
0.8633171124534966 2.3267747159200227 0.5030968003621473 32 31 36
0.8209669653146221 2.3318475084590085 0.5067237900862803 28 27 32
0.7888716469160499 2.338738766663544 0.5092011601229252 26 26 28
0.5098475676271271 2.298105983918445 0.539693343308907 26 26 28
0.4920913630321783 2.307161009972989 0.5405969759165326 25 25 27
0.47311634778000433 2.315926163047168 0.5416438116068398 25 25 27
0.451780656081026 2.324170168824662 0.5429644236652328 24 24 26
0.44285910520051563 2.3348181309301426 0.54287530256395 24 24 26
0.4225399090119047 2.343159079254949 0.5440893802738225 23 23 25
0.5043607214234663 2.37208842879039 0.5336324918483868 21 21 23
0.4929363135358387 2.3822938788813395 0.5338238370169868 20 20 22
0.4800620214792245 2.392170828148579 0.534184080694413 19 19 21
0.4642490236535983 2.401403365936254 0.5348847501555967 18 18 20
0.43036445430970016 2.406814961819487 0.5376662325754884 16 16 18
0.41847076609668177 2.4167515389418277 0.5379267221393321 16 16 18
0.39717156611396415 2.4246590231750096 0.5392737921522084 19 19 21
0.4155910284961035 2.4410022539098537 0.5360441670909111 24 24 26
0.43483062640275016 2.4575928872825643 0.5327135185527291 30 29 31
0.4213979290647698 2.4671540857922403 0.5331556655761102 31 29 32
0.42115176576253655 2.479566833195507 0.5320738240374983 20 17 23
0.42429006917347056 2.4927340895867216 0.5305988189495027 15 13 18
0.42368176903231614 2.5050865189945144 0.5295572275763427 19 17 20
0.4251873381362695 2.5179188956225373 0.5282692996924728 19 17 19
0.43392330745627916 2.532397821326024 0.5261383509007853 18 16 19
0.4279252910441519 2.5435611908955793 0.5257217550159666 17 17 19
0.434886099202047 2.5576837506316314 0.5237935144401112 26 26 28
0.41977537939855225 2.566739473229083 0.5244422946961662 34 34 36
0.4159403763595564 2.5783758050846797 0.5237752512793898 32 32 34
0.41839575180886823 2.591481795006005 0.522371476671814 20 20 22
0.415721490893308 2.603393051732068 0.5215681541971422 21 21 23
0.41135763133806935 2.6149014626138634 0.5209634390550996 26 26 28
0.4244071193499621 2.6305745352614878 0.5183106917716251 19 19 21
0.4766865810890404 2.6557653246445905 0.5110319492736314 14 14 16
0.4853858996300542 2.670554376959956 0.5088769087297886 16 16 18
0.49551912521643493 2.6857323841353535 0.5065491240758369 21 21 23
0.478594314533737 2.694286074379954 0.5074173357994383 28 28 30
0.3968431979441944 2.6867048282116603 0.5159661282429522 32 32 34
0.43151064528036087 2.7079374988358627 0.5107361558705004 34 34 36
0.5356032380903739 2.7467623730994433 0.4972528896481386 31 31 33
0.6225727055579274 2.7816165943362106 0.4857724243402637 28 28 30
0.6736588267778401 2.8076281578796056 0.47853551131061767 27 27 29
0.7490687437805627 2.8400687526779085 0.4683833336538955 25 25 27
0.4722823492311957 2.794503127825619 0.49909934928396826 24 24 26
0.47429053308047986 2.8077880299542817 0.4977227093817543 24 24 26
0.4647659183210846 2.8180478420171036 0.4977262410499864 24 24 26
0.43047480272569205 2.821711153143829 0.500702590685772 24 24 26
0.48729810919633165 2.8495995134959973 0.49274596318251757 25 25 27
0.45883379819593706 2.8547662226614294 0.49502722399898313 25 25 27
0.43580387095489914 2.8613130096660058 0.4966621741899081 27 27 29
0.4355083670869848 2.8739784716265477 0.49556257651416935 26 26 28
0.43147125844961987 2.8856260095042803 0.49491400009614034 26 26 28
0.4271864790311203 2.8971996015844463 0.49429586322815033 28 28 30
0.451146154951819 2.9166040490456417 0.49026000313934787 30 29 34
0.43625588124168246 2.925252391505735 0.49092383551763874 31 30 35
0.41204573670747946 2.9312388670350225 0.4927223586009554 31 30 35
0.44289753248603103 2.9527154246464966 0.4878381549660836 31 30 35
0.4269012043030894 2.9609823273134825 0.4886424861834052 31 30 35
0.4157688431253167 2.970593895930779 0.48885859838898793 32 31 36
0.5494866332051846 3.021880778813539 0.4714121509311708 32 31 36
0.4988455424223367 3.020239750131204 0.4764356240452555 31 31 33
0.517625171699984 3.0386605797444948 0.47298626803991267 31 31 33
0.5296764790923887 3.055183043592102 0.4703540053075863 30 30 32
0.5417847521758825 3.0717729645360623 0.4677102480178631 29 29 31
0.7483576629069062 3.1461025627490313 0.441194707473138 26 26 28
0.7617034734988566 3.163503883477805 0.43835949334885504 23 23 25
0.7476183117725916 3.1727272309399304 0.4388945710588771 21 21 23
0.7312457842345739 3.1812195097618536 0.4397150612764897 20 20 22
0.673494542422645 3.1770981743619693 0.4456442331289445 21 21 23
0.5647726566943351 3.157215894672101 0.4578862177913899 20 20 22
0.48355390152946676 3.1454088120738044 0.46676011478932417 20 20 22
0.5582420326662967 3.1814887840661856 0.45635330970354476 18 18 20
0.5559847191314921 3.1939341827959358 0.4554622567234907 17 17 19
0.5442730628614112 3.20342637131084 0.45574479431452675 16 16 18
0.6108156858943736 3.237473741823139 0.4463035294702781 17 17 19
0.6207713179655648 3.2538847157576183 0.4438830340636091 26 26 28
0.626454456196619 3.268982056335788 0.4419910281276127 30 30 32
0.6039014259049451 3.27508704269215 0.4436193969891784 31 31 33
0.5460465504507359 3.2697803316536667 0.4496641262365539 27 27 29
0.48917185935370167 3.2645946866586977 0.45560366973724226 17 17 19
0.47853877980277626 3.2742354751744163 0.4557690929457844 13 13 15
0.4901601643996367 3.291114654029915 0.4531464656078006 13 13 15
0.48730148774554005 3.3032894419478476 0.4523374328824653 12 12 14
0.49866653300223185 3.3201579825615797 0.44974044144456377 12 12 14
0.4972098161359666 3.332820348931994 0.44875295751589056 11 11 13
0.6151832204505789 3.4254694318288705 0.42913892097525635 10 10 12
0.6735969901031815 3.458770139914495 0.4205470592884845 11 11 13
0.6473969833913228 3.463305376519509 0.42266648435201337 12 12 14
0.6902531980593964 3.4915325779652857 0.4160248677388596 13 13 15
0.5683924483558328 3.462915441618621 0.43031025063803446 13 13 15
0.6263647071031013 3.496430811531324 0.42174179247660876 18 18 20
0.6832819559483118 3.5297929565745 0.4132885908619064 26 26 28
0.6867411011180555 3.5445801676313127 0.41163840268434465 31 31 34
0.6463107944556321 3.5438860887686108 0.4155941202664952 35 35 37
0.6317539840285888 3.5522418344898417 0.41625189666237633 40 40 42
0.6694274298509549 3.5791900688193565 0.4102233517971247 39 39 41
0.764625641847875 3.6269096787467445 0.39680450000306955 41 40 45
0.6853996481454476 3.625750519438859 0.4045381067806306 43 42 47
0.6790237460114295 3.637068624571565 0.40414412396523014 45 45 49
0.702013995037437 3.6591137686579462 0.39996643526910153 43 44 45
0.780025973519311 3.701473845853049 0.3886801639496073 49 51 49
0.8228076577850033 3.7311111439521025 0.38192013423662435 59 61 58
0.8324502392846899 3.748612073295879 0.3794327115384499 81 83 80
0.8544358606895834 3.7707602547470027 0.37534260282980836 73 73 71
0.9277980836924486 3.812250014332016 0.3645816713520055 97 97 95
1.0164998334885005 3.859789474921313 0.3518045479772578 151 150 148
1.092151693967109 3.9027207644703545 0.34069470747925723 165 165 163
1.1694033927846648 3.94654272552116 0.3293514560607754 169 169 167
1.0792639659143828 3.9267169042296404 0.3397987098030104 170 170 168
1.1063118895721027 3.951547497450498 0.3349821328898556 168 168 166
1.3494602197333396 4.059807675507091 0.30192191253015055 168 168 166
1.2922354724538585 2.0932647498468144 0.4959286504264965 170 170 170
1.2978090684213455 2.107687792507456 0.49412057816890553 168 168 168
1.215829499225174 2.1088184330771393 0.5017864416512757 169 169 169
1.1280948998341134 2.108801203750001 0.510099374277114 170 170 170
1.0549141815995677 2.1107641428164117 0.5168578243203688 169 169 169
0.9693014982600028 2.1105398391301016 0.5249881186169111 110 110 108
0.8827834270997943 2.109896161905873 0.5332414034633097 78 78 76
0.9188564444239651 2.1286398797171864 0.528160548785949 71 72 69
0.9232374980876397 2.1423750294987514 0.5265265017047976 62 63 61
0.9116678459302849 2.1535212396296304 0.5266332926008964 55 55 54
0.97486100462101 2.1770037883468043 0.5185626745058101 51 51 52
1.079724344990482 2.2076670806336076 0.5059071937872697 45 45 47
1.0426323041872578 2.214734657605107 0.5087937939172118 44 44 46
1.0455122088018955 2.228498619003539 0.5072993988291491 43 43 45
1.0468033086397392 2.242007321794759 0.5059781713139697 42 42 44
1.0261730147853374 2.251720185030092 0.5070705199202713 44 44 46
1.0109245753468996 2.262316740266935 0.507574597796306 46 46 48
0.9154266378370879 2.2586599743127067 0.5169459926230543 48 48 50
0.890062830561912 2.2672292683225423 0.5185882568479377 48 48 49
0.9523745949786436 2.2915413486196874 0.5105275141538534 46 46 44
0.9368969293441517 2.3019047709806992 0.5110739983079379 41 41 41
0.9244120721462928 2.312774835466173 0.511291998088195 37 36 41
0.9150642991407809 2.3241933083078954 0.5111641389367055 31 30 36
0.8843015751684771 2.3315814577244582 0.513422689613842 29 28 32
0.8291800857968938 2.3342755974026552 0.5184054310227153 25 25 27
0.48681734941292976 2.2820761904993967 0.5554714165767711 25 25 26
0.46698938536731466 2.2907163518600915 0.5565829615531215 25 25 27
0.48637980711375967 2.306900468137447 0.5533096755123531 26 26 28
0.46350339705397986 2.3148931683939695 0.5547674734941203 26 26 28
0.43503806557422453 2.3217146204374255 0.5568586794176199 26 26 28
0.4185388142415027 2.3308282876456206 0.5576128595337799 27 27 29
0.39716251705495126 2.3389160272562375 0.5589201117280838 27 27 29
0.5118775738447026 2.3744680177534363 0.544897464556065 26 26 28
0.49188721587540124 2.382939874947868 0.5460393309142053 24 24 26
0.47579710661468505 2.39215441328573 0.5467457991196556 24 24 26
0.4671999029307969 2.4028762823117042 0.5466086605359537 22 22 24
0.44196726835758254 2.4100997072651 0.5483579461631614 17 17 19
0.4332526177947776 2.420726655542673 0.5482403580857764 16 16 18
0.40691314445149207 2.4275881947899154 0.5501266162821741 21 21 23
0.4000918487909091 2.4385477497552666 0.5498001447848061 26 26 28
0.43222507474746563 2.4578992263581583 0.545038580753247 34 32 35
0.42175416105071384 2.46810085350003 0.5451251174591386 40 38 41
0.41063997554159304 2.478133994554767 0.5452875469261176 40 38 42
0.4054326675069886 2.489442341646681 0.5447772209603322 35 32 36
0.4227172214277243 2.5057480003176185 0.5416926440317695 35 30 34
0.41773104696527785 2.517124956873131 0.5411552801239105 33 28 32
0.421961891972233 2.5305762323558008 0.5395606570902536 34 29 33
0.426071195411879 2.5440223602596124 0.5379780049668084 34 32 35
0.42922588065058775 2.5572716132996147 0.5365032600753118 39 39 41
0.41926529703063087 2.5675084394265957 0.5365383274780794 40 40 42
0.41723438901051757 2.5795657292932312 0.5356606203329927 31 31 33
0.41551880266699937 2.591698184813461 0.534746370607918 20 20 22
0.4149790158944554 2.6041107155970984 0.5336958762138407 21 21 23
0.4156745066586187 2.6168235107112787 0.5325017107871156 21 21 23
0.42123195666323243 2.6307121476673627 0.5307425973810004 18 18 20
0.4764328431796798 2.656611358488995 0.5232146327057399 17 17 19
0.4836695082490218 2.671047738323149 0.5212478284389238 22 22 24
0.46854646843918835 2.680043154707662 0.5218821301885191 31 31 33
0.4716409119696946 2.693486159174267 0.5203958964807568 35 35 37
0.4027385890899633 2.6890748395209427 0.5273147640528071 37 37 39
0.43277373269868114 2.70916626856749 0.5226862867911849 37 37 39
0.5444453798145298 2.7499160954167983 0.508490636811608 35 35 37
0.6120079075377808 2.7798808068487584 0.4994307917769189 32 32 34
0.6199593629430636 2.794877968215813 0.497346502755857 30 30 32
0.7480359990867308 2.8407654399517144 0.48114077765278074 29 29 31
0.49189929851919934 2.800541264670672 0.5089754518485942 29 29 31
0.4772389014321775 2.8094949546656847 0.509569629123398 29 29 31
0.48493887292912174 2.8243040139189124 0.5075258583847976 30 30 32
0.49280933545656425 2.852015116366437 0.5043208612246881 29 29 31
0.4685396837758009 2.8583181672067526 0.5060606046852766 31 31 33
0.5314106720698851 2.888132310941196 0.4974585685883583 32 32 34
0.5216605105251858 2.89839019085674 0.4974718334221285 31 31 33
0.47837416204821537 2.899429061763683 0.5014802983299563 31 31 33
0.4504554991293239 2.904565758104901 0.5036692409748493 32 32 35
0.4385718571905305 2.914065448071336 0.5039519082881584 33 32 37
0.4428781505052195 2.928054897443384 0.502302374053891 34 33 38
0.3945720794450709 2.927278968650635 0.5069474408557262 35 34 39
0.4119573706388514 2.94492274425406 0.5037345608993119 35 34 39
0.3975838084951193 2.9535978127031104 0.5043262933730469 35 34 39
0.39227472975521827 2.9648264484536986 0.5038326829980383 34 33 38
0.5668386582424805 3.0278581259739634 0.48170148178609307 34 33 38
0.5089558947069858 3.024144451664704 0.4875145111608242 33 33 35
0.5266677751256937 3.042276458469598 0.484227361038578 33 33 35
0.5277637774834498 3.055605582690814 0.4829405536465692 33 33 35
0.5306204265586846 3.0694665502784986 0.4814397521953223 31 31 33
0.7370754721690799 3.1437714183766916 0.45528688246906396 29 29 31
0.724949167962151 3.153552847110343 0.4555675332944669 27 27 29
0.7179447626173092 3.164838673470795 0.45522945135007165 24 24 26
0.71320402966269 3.176792489715741 0.45461763877362676 22 22 24
0.6814105304456898 3.1805200349020124 0.4572987223540523 19 19 21
0.591369188186499 3.166347293331724 0.46708650317428513 19 19 21
0.5251759192211877 3.1591957748676585 0.4739919293087714 19 19 21
0.5283413065736982 3.1732564251124615 0.4724441578795579 18 18 20
0.5966758840847886 3.207592670539649 0.46292319384626013 18 18 20
0.5559876144194058 3.208099799110324 0.4667327266298251 17 17 19
0.5968725528440721 3.2341140299968445 0.46055075326937506 18 18 20
0.6204099478027165 3.2547974288256274 0.4564852921340843 24 24 26
0.6126600002954328 3.2656274615319334 0.45625829034345566 29 29 31
0.5983508494976648 3.274342438297711 0.45684037898503393 28 28 30
0.5274526802438082 3.264828421377719 0.46440119186956885 24 24 26
0.46986717673294853 3.259374833435011 0.4703404806501913 19 19 21
0.46493486738513345 3.2708347703122884 0.46979064928784364 13 13 15
0.4565984875531477 3.2811738124425194 0.4696627784014361 13 13 15
0.37027321862649654 3.2658754492740063 0.4791984232447047 14 14 16
0.4860599224764566 3.3170244128428794 0.46369000103851993 12 12 14
0.5837326207859522 3.3625783167663688 0.450394151258496 12 12 14
0.693522993001083 3.466631374562673 0.43075846660680805 11 11 13
0.6664986000759915 3.4709183750529418 0.43293810369757224 11 11 13
0.6764153103376241 3.487842302690386 0.43049663592823434 12 12 14
0.667063461857592 3.498139257195503 0.4304686992541569 13 13 15
0.6355161027799013 3.5006876287589996 0.4332311185083575 14 14 16
0.667269769778836 3.5252746618333077 0.4280408481176186 21 21 23
0.6778697545941447 3.542546857733883 0.4255037420572869 29 29 31
0.6565493783756765 3.548586426722906 0.42698747480380245 32 32 34
0.6367507658916152 3.5550992622055593 0.42828504248942134 36 36 38
0.5999673996410998 3.55548774848095 0.43173517987939714 38 38 40
0.6218228382274168 3.5767890414578107 0.42777421730659776 39 38 43
0.6077945129282691 3.585240742948433 0.4283530684386938 42 41 46
0.618228378117456 3.602514125216881 0.42583159417596267 46 45 50
0.7707712376451653 3.671576697531542 0.40525127461642807 44 44 48
0.7596868171077266 3.6813244193379737 0.4054362157201551 43 44 46
0.7011986061302115 3.673611318263287 0.41166155621312683 49 51 50
0.7280825987178101 3.6972416955981795 0.40701751159938604 66 68 64
0.8195728570835328 3.744965670646389 0.3941147488527177 65 67 64
0.8177003224847225 3.7581952411461415 0.393117996821402 66 68 65
0.8787052652215499 3.7949996132635713 0.3840723447069131 82 82 80
0.9774297434918033 3.8462418297591174 0.37017201009127354 102 101 99
1.0845216931695698 3.901016489424884 0.35516548632979245 159 159 157
1.1827813165269057 3.9528281528723643 0.341258649785245 166 166 164
1.0719413139941656 3.9251060244588523 0.35421928788305546 168 168 166
1.102192016038157 3.9511597037240467 0.3490412315899833 168 168 166
1.33206190713955 4.054329630337542 0.31810837599558395 168 168 166
1.26190133942085 2.0896208556061415 0.5124240630386269 169 169 169
1.2614459327771879 2.1030888059091 0.5112754192728111 169 169 169
1.1801623125625529 2.1042587966730175 0.5187439360151977 169 169 169
1.0943466111200173 2.104470727826903 0.5267193675082754 169 169 169
1.0217537576283329 2.106463623215211 0.5333055192737969 155 155 154
0.9279537482865079 2.104890261015205 0.5421826163931474 82 81 79
0.8439274048759113 2.1045667491497286 0.5500387130383683 77 78 76
0.9403608719564565 2.132941789708468 0.5385460315412153 66 68 65
0.9288199164671831 2.144132994444687 0.5386314125872326 59 59 57
0.9112073836963859 2.1542993431811386 0.5393730276443339 52 52 51
0.9802345614279708 2.178755940256153 0.5307799189982314 47 47 48
1.0118805328528286 2.1972012276407713 0.526200685172973 44 44 46
1.0415813528577489 2.2154319655292536 0.5218216263571298 44 44 46
1.0464243735061576 2.2295315533337985 0.5201235466054625 44 44 46
1.0168955057087803 2.2377375208102315 0.5221486001213512 44 44 46
1.0037928055371812 2.2487092031472065 0.5223988796560922 46 46 48
0.9935164141490939 2.260141719963956 0.5223451190959428 49 49 51
0.9012587645364654 2.257021713477442 0.5312153182954432 50 50 52
0.8766544705087778 2.2657026296213516 0.5327396193194864 46 46 48
0.9400562293002827 2.290198322087975 0.5246670899032193 42 42 43
0.9268144319744871 2.300949101479163 0.5249498630820151 36 35 40
0.9214319829087732 2.313109246863938 0.5243758572148495 32 31 37
0.908518503380203 2.323862296360918 0.5246278451400479 30 29 33
0.8929399291894204 2.334081460032755 0.5251753156886578 26 26 28
0.5103320892641867 2.2749159453243504 0.5660496342871312 23 23 24
0.4779033103549662 2.2812190729321182 0.5685131111906583 23 23 23
0.48803573194028305 2.295605128325628 0.56629696215037 24 24 26
0.49597887072728514 2.309608646729233 0.5643185865497532 26 26 28
0.47829310987246315 2.3186326337299668 0.5651680504039714 27 27 29
0.4483084240036795 2.3251780960031456 0.5673824160778678 29 29 31
0.4319989050715715 2.334352174920118 0.5680904022143058 30 30 32
0.4135696815592321 2.34305382799315 0.5690376297361561 30 30 32
0.5093865843775975 2.37482407993912 0.5573021215289891 30 30 32
0.48504587717159253 2.382403794578426 0.5588992552150575 30 30 32
0.4784151826401937 2.393553604737716 0.558530881009939 29 29 31
0.467213455277086 2.4037407644950193 0.5586734560943883 25 25 27
0.4556909354783245 2.4138310200422457 0.5588544845774426 17 17 19
0.4267063252387796 2.420208494303593 0.5609905444436312 15 15 17
0.41707065965896345 2.430608326558748 0.5609684246649977 21 21 23
0.42143308660362266 2.443982475233991 0.559379270463614 26 26 28
0.41228832355641654 2.4544628195123996 0.5593043003340883 34 32 37
0.41508781176132203 2.4675196389174707 0.5578888056156366 42 40 43
0.4550552561150626 2.4887460921012323 0.5522884253790465 45 43 45
0.42165256551045327 2.4938995021412684 0.5549443049206706 47 45 46
0.4225872352608644 2.5065954052939516 0.5537344460424438 41 39 42
0.4235225803954443 2.519302745913265 0.5525235127516728 39 38 40
0.41973908796478265 2.5309542904511146 0.5518455350608984 38 37 39
0.4244287146841592 2.5445315720129598 0.5502079360221516 38 38 40
0.42739491172591304 2.55773736909955 0.5487637363552537 41 41 43
0.4155188972089361 2.567529157358096 0.549004090288436 38 38 40
0.4137470037773726 2.5796423784292775 0.5480978924417699 27 27 29
0.41407367467591416 2.592250152946267 0.546952465630546 21 21 23
0.41169253538114003 2.6042271344212344 0.5461150708129816 24 24 26
0.4232732901982129 2.6195282694711572 0.5436830750375863 19 19 21
0.4246967168605964 2.632441505656015 0.542408465622999 17 17 19
0.43121454915682833 2.6465981609294316 0.5405493216652897 23 23 25
0.48248938519270923 2.671671394943963 0.5335554013599443 31 31 33
0.45702070139269935 2.678131128083615 0.5353566598487012 39 39 41
0.4586896446648062 2.6912053956377435 0.5340449381423069 40 39 44
0.4190730393224775 2.694039386946908 0.5374847986090436 41 40 44
0.3984290615857582 2.701490396798891 0.5387489452121415 40 39 43
0.3656636197965144 2.7058263024432962 0.5414177595129035 37 36 41
0.33623836936093776 2.71090450922791 0.5437097708023304 35 34 38
0.34539531740776996 2.725737864404959 0.541544934219375 33 32 36
0.3357910508245491 2.7357897169169805 0.541550663801904 32 31 36
0.3529611089761444 2.7527432022743796 0.5384518665020134 32 32 34
0.3558009953125796 2.766032141016393 0.5370120805154939 32 32 34
0.4902725831129282 2.8138468180616703 0.520256766193034 32 32 34
0.5029490684812404 2.829994878470129 0.5176477978085945 32 32 34
0.42985340077918643 2.8234132172405855 0.5250390987158214 32 32 34
0.474183732642262 2.8479796887767166 0.5187369113342204 32 32 34
0.5604793749743384 2.883999569033467 0.507512532478186 34 34 36
0.5617663823442232 2.897306215971484 0.5062158390939194 35 34 38
0.506045809756782 2.895089215174268 0.5116025623416817 35 34 39
0.4902310531260403 2.9036324038359074 0.5123202529650269 35 34 39
0.44125535274827143 2.9029765456183307 0.5169405936547274 35 34 39
0.4395955197344499 2.915300619737937 0.5160053095594548 35 34 39
0.35666510509762783 2.9049138378786066 0.5246492817912233 36 35 40
0.30941387768350714 2.904280686668976 0.5291069708093056 36 35 40
0.3530314569007491 2.929203505265817 0.5228396656825208 36 35 40
0.36389380200488086 2.9449610685887455 0.5204342282489457 36 35 40
0.4042830338952099 2.9692225362426816 0.5145261482816834 36 35 40
0.5631601155913692 3.027779629327352 0.49454730790933094 36 35 40
0.5750180204919897 3.0442742069118465 0.4919839495128174 37 37 39
0.5082017677431294 3.037871436993802 0.4987744699726797 36 36 38
0.5079325441410527 3.05077022621389 0.4976588172868283 35 35 37
0.5075512584896823 3.0636435330607954 0.49655585734603125 33 33 35
0.6861101884692455 3.129654911072265 0.47408431578209653 31 31 33
0.6896475100585266 3.1440262174604596 0.47248383859607646 29 29 31
0.6928641434262119 3.158322339811608 0.47091988423022985 27 27 29
0.7027230031283416 3.1746456247398163 0.46855789581392526 21 21 23
0.6930841112498397 3.185086373283005 0.4685324580614172 18 18 20
0.6351891760245958 3.180751064073749 0.4743090715491953 18 18 20
0.5353700819170705 3.1633321140834383 0.48514821611833153 18 18 20
0.5670905290677782 3.18624260818347 0.4801671543080086 18 18 20
0.6513372364087682 3.225606575237043 0.4688379027578527 18 18 20
0.5834129246634411 3.217689696467338 0.4758655480962947 17 17 19
0.5840056697964855 3.2310893049203657 0.4746253075590189 20 20 22
0.6074678086457695 3.2517318675155633 0.4706141190680733 25 25 27
0.6150654364565636 3.2674209855075076 0.468518859956721 28 28 30
0.5954460183875646 3.274442653486672 0.4697255333304437 29 29 31
0.5254528720777039 3.2652072098414564 0.4770625113811421 26 26 28
0.47717800165766466 3.262754675580495 0.4817764590763665 19 19 21
0.4547231615090198 3.2685333202950253 0.48335719604789595 16 16 18
0.4503730397047596 3.2801583873024467 0.48273434439590646 14 14 16
0.386046072418439 3.2720681489208294 0.48944221002212795 13 13 15
0.48994973290798927 3.3193376531195073 0.4755826689269277 13 13 15
0.5924050115474121 3.3665029737275094 0.46186726575307874 12 12 14
0.6279671491898351 3.405101041285457 0.455140966309889 11 11 13
0.613520102738437 3.413632030673617 0.4557323265626928 10 10 12
0.5868942437309065 3.4179889316656396 0.4578273503724253 11 11 13
0.5847230476281594 3.430599689656974 0.4569143488730546 11 11 13
0.5696597971166301 3.4387921169883118 0.457593053170047 12 12 14
0.5846135467162312 3.4572832016214345 0.4545647355051266 13 13 15
0.6035576320079428 3.4772185577527823 0.4510369702761 13 13 15
0.6651591546092782 3.5120815724256333 0.4422152856192525 13 13 15
0.6603659731685623 3.523939493853943 0.44161311426877364 18 18 20
0.6515335999632211 3.534368631609386 0.4415135719776584 25 25 27
0.6612216450841814 3.55132230682745 0.43911174589323504 30 30 32
0.6366820853439696 3.5561587354260364 0.4409700121346149 35 35 37
0.6348778768304391 3.569034805446149 0.43999936041169696 37 37 39
0.6116916871026774 3.5742399833078013 0.4416989421372597 39 38 43
0.6139317706345325 3.588541468756576 0.4402254841155283 42 41 46
0.6901907825657063 3.6296886984521195 0.42948262080823285 48 47 52
0.7670966689014109 3.6713541274354577 0.4186336697503521 44 44 48
0.7614659893213999 3.683092533212169 0.4181200852846541 43 45 46
0.720178264363364 3.681703740417958 0.42208907016234215 52 54 52
0.7125620764652447 3.6926220738386353 0.42183297087907207 63 65 62
0.8028652727333357 3.7398931754277336 0.4092402417271756 58 60 57
0.803766665722322 3.7541303361570257 0.40789717831194416 64 65 62
0.8695001728834708 3.7926945848062568 0.39836325142484086 79 79 77
0.9410490134041237 3.833696499073497 0.3880720161000293 69 68 66
1.0290635079990473 3.8812004693401594 0.3756718970397407 145 145 143
1.1366564658560583 3.93648016626625 0.36076028024145956 164 164 162
1.2464012370755713 3.992980562403722 0.345540255790113 168 168 166
1.1011299079702017 3.9519454354877426 0.36270205743584716 168 168 166
1.3007616129811115 4.043482438298414 0.33601006477350404 168 168 166
1.250387803152238 2.0752645170035575 0.528045422722139 169 169 168
1.2306001781162332 2.085826651799524 0.528926737568179 169 169 168
1.214080010761614 2.0968243256188317 0.5294704495093955 169 169 169
1.1320370199288199 2.0977938661212536 0.5368982123855505 169 169 169
1.0589820317806824 2.0998843641809866 0.543404104480413 169 169 169
0.9800941049699883 2.100833249072129 0.5505447581919419 115 114 114
0.9034876931854785 2.101887819315649 0.5574671656927568 80 78 76
0.9482533087063321 2.1219919459769705 0.5515960606442912 73 73 70
0.9336006186701874 2.132708220275555 0.5519935534465388 62 63 61
0.9261972312276963 2.144560740213284 0.5516270521285526 55 55 55
0.9576392444629935 2.16276624947635 0.547143385987658 49 49 50
0.9745885684348297 2.178684386895914 0.5441884776448365 46 46 48
1.011993698008521 2.1980895025253413 0.539053018163698 44 44 46
1.0255912207842304 2.213605197836586 0.5364405200090997 44 44 47
0.9609186529603138 2.215819769678822 0.5421678465305478 45 44 48
0.9921806193631016 2.2343560960702584 0.5376715159087975 46 45 49
1.0001364904959824 2.2489508255268946 0.5356568179428537 47 47 50
0.8975409313660089 2.2441639367967405 0.5454739834418887 50 49 52
0.8839449131863464 2.254822763372748 0.5457797724954249 51 51 53
0.8641835712292398 2.264341051353347 0.5467506671023773 45 45 47
0.7132627001737171 2.2501072314231134 0.5618257802582467 39 38 41
0.6769863803223114 2.2562791575748307 0.564603947697645 34 33 37
0.6507700732411728 2.2641888071691803 0.5663077224180421 29 29 32
0.9003262111369041 2.3232243569901225 0.5382518945028915 25 25 27
0.5366267488871315 2.2682068109275715 0.5764064791487433 22 22 24
0.4946077921619425 2.272786132572295 0.5798508812973954 23 23 24
0.4959048669403044 2.285493481286372 0.5786122931224554 24 24 25
0.49222028133973056 2.2972547609298344 0.5779132776792952 24 24 26
0.48283726605691824 2.307905728031759 0.5778339477071792 25 25 27
0.4806026865491912 2.319932570315783 0.5769787438160314 28 28 30
0.4538583801876341 2.3271204878451464 0.5787944718351545 31 31 34
0.4448552508882498 2.3377591963201674 0.578681433537681 33 32 36
0.42166046192726797 2.3455255623960123 0.5801211350565347 34 33 37
0.5068960097885508 2.375179915047202 0.569702347084978 34 33 37
0.4823912539846285 2.382721315715321 0.5712818352214029 33 33 36
0.4756780303690819 2.3938510876535046 0.5709158217412348 32 32 34
0.48066892188745985 2.407395793313721 0.5692651769276897 29 29 31
0.4617502264124598 2.415961865775754 0.5702428168732585 17 17 19
0.4509344841346327 2.4261814234016144 0.5703327078737955 14 14 16
0.42480369145100383 2.433115521788005 0.5721146197664234 19 19 21
0.4184661948218469 2.4442119101190634 0.5717171404185875 22 22 24
0.44797060758433316 2.463038595837477 0.5673561729585288 31 30 33
0.45044795998164366 2.476088388387713 0.5659793221135574 38 37 39
0.45098523456100126 2.488728962727912 0.5648161980456436 41 40 40
0.4360679518219335 2.497961729858497 0.565368652051952 42 41 41
0.42402837099351476 2.5077931751875067 0.5656048193068332 40 41 43
0.42803685497450317 2.5211953824647444 0.5640566971874997 39 40 42
0.41751803290916656 2.53133248410883 0.5641266635542308 38 39 41
0.42537826282620916 2.5456315404173813 0.5621467796023873 39 39 41
0.42132090838447533 2.5572284821476226 0.5614963828982482 38 38 40
0.4102429969989555 2.567195362192282 0.5616325490488003 30 30 33
0.40998805715461106 2.5796551631532134 0.5605579033736959 21 20 24
0.4083138383766146 2.5917890055056785 0.5596419545239197 27 26 28
0.4191375855651327 2.6068810134559945 0.5573208052455848 29 28 31
0.42704550158666577 2.621323639419644 0.5553239026167378 18 17 19
0.42830892865989567 2.6342073681047102 0.5540728526861536 24 23 26
0.4292248845460469 2.64701965771535 0.5528599183237833 33 33 37
0.46364537013310836 2.6679965644064927 0.5478592712053234 39 38 42
0.4583215996332761 2.679359894338293 0.5473454348386912 42 42 45
0.4374501079751806 2.6868763312710167 0.548594401610115 43 42 47
0.40513820310013016 2.6914864053166463 0.551147156941799 43 42 47
0.38357874204579734 2.6986840915009505 0.5524872146697195 40 39 44
0.37486240692446804 2.7090514894543394 0.5523718214289569 38 37 41
0.3334842757661638 2.7111121617414278 0.5559794894339404 36 36 39
0.3914390546289864 2.7384061600119454 0.5482669769455137 35 34 38
0.38036367209496635 2.7481601760814875 0.5484216696756187 35 34 38
0.3801675785622186 2.7607000907058583 0.5473345752295796 34 34 37
0.3926038419782292 2.776538960717141 0.5447999419736259 34 33 37
0.41933436596687323 2.796178113932114 0.5406214003675366 34 33 37
0.42267611543661787 2.8097430758078743 0.5391199930065474 34 33 37
0.4579968951437069 2.831825895959118 0.5339394440415783 34 34 36
0.6218485456864882 2.8884169930557855 0.5139475361926733 35 35 37
0.600225575983944 2.8956543538687045 0.5152899135756651 36 36 38
0.5912913970857555 2.9062631288188614 0.5151731988739663 36 36 39
0.50740053490923 2.896411481665757 0.5237237761567204 37 36 40
0.47575082731191365 2.900612227586171 0.5262519609752035 37 37 40
0.3889684341287656 2.889487523831594 0.5351795195196098 37 36 40
0.36614158116869355 2.895841176502078 0.5367100190007564 37 37 40
0.35491893789852824 2.9053684534322954 0.5368981782189766 37 37 40
0.3491719597254166 2.916405573737413 0.536451844181286 37 37 40
0.334344626790377 2.9248604510655674 0.5370646107111285 37 37 40
0.4385919614995628 2.9671880436765266 0.5237879908239008 37 37 40
0.4455299934335317 2.9820010663763465 0.5218472662993463 37 36 40
0.4778370171644103 3.0041610084995196 0.5169359100453562 37 37 40
0.6275114706700382 3.0604858886728596 0.49826575858747785 37 36 40
0.6425542496714421 3.078055416205057 0.49533991969554325 37 36 40
0.5552979150972881 3.0656558077464346 0.5044232282160012 37 36 40
0.5226162279094311 3.0690758368902045 0.5071147169300325 34 34 36
0.651107732765364 3.1202669901258986 0.49083682180645133 33 33 35
0.6420811489720982 3.1308257846431937 0.49073297362615564 31 31 33
0.6685669066866535 3.1520350863114177 0.48643848100584336 26 26 28
0.6793319014217963 3.1685934635441084 0.4839934915456437 22 22 24
0.6830746563327252 3.183063178212623 0.48237563223101654 20 20 22
0.6447526388851291 3.1846906954669403 0.48574160317509024 17 17 19
0.5959944667223185 3.1829825113349375 0.49035723080144666 18 18 20
0.6043224864078628 3.198770230341185 0.48820332327092564 18 18 20
0.6797202265100891 3.2354606615137076 0.4780654075705923 18 18 20
0.5843149232072623 3.218989543634212 0.48825376196287906 18 18 20
0.569412821917651 3.227518397156041 0.4888668565222739 20 20 22
0.5903985703398714 3.247357401292979 0.48519678934557503 24 24 26
0.6056205552530011 3.2654454756423044 0.4822088436412109 28 28 30
0.5925222990787312 3.2745363559287197 0.48260722121077915 28 28 30
0.5247871182660772 3.266014892810097 0.4895610999103627 27 27 29
0.4693185611085101 3.261230279843754 0.49506234383844505 18 18 20
0.4399410935400988 3.264743087952637 0.4974430680868684 16 16 18
0.44914364924978756 3.2807751277895254 0.49518754347070115 15 15 17
0.4014579344682372 3.2781468649852368 0.49978603919378045 13 13 15
0.4392940161964668 3.303624316171451 0.49407600365069815 13 13 15
0.48450599054619525 3.331695407728565 0.487461951671186 12 12 14
0.598706027987929 3.3829816471506082 0.47248443837794857 11 11 13
0.6147815391740308 3.401728442225309 0.4693602815195283 11 11 13
0.5996344073734601 3.4100001031173184 0.4700184796165874 11 11 13
0.5782705085244536 3.4161169006105574 0.47143587936561143 11 11 13
0.5699763267043827 3.42662552254353 0.4712693817987302 11 11 13
0.5648469515951341 3.438198833035176 0.4707192393345817 12 12 14
0.5779484163437357 3.456047395014842 0.46794658971880104 12 12 14
0.5989785620674309 3.476698873630248 0.46420085929737154 13 13 15
0.6762505438854772 3.517022871331909 0.45357110735462364 13 13 15
0.6717393202196428 3.5290011172553557 0.4529286727776726 15 15 17
0.6531505987059768 3.5360189129421173 0.4540125333317009 21 21 23
0.6561526896576271 3.550614885284538 0.45245137517788825 29 29 32
0.6340040322969618 3.5562910629732563 0.4539794689203696 36 35 39
0.6354363785073768 3.5703207781874173 0.4526119624790305 38 38 42
0.6137441407659725 3.5760624827014005 0.4540924845522212 41 40 45
0.6286333650076675 3.5949344081839105 0.45106593673965534 44 43 48
0.7072955863992083 3.636992958903504 0.44015601805341786 47 46 51
0.7640330996235615 3.671353492161759 0.43193225574374333 41 41 46
0.7630093723162205 3.6847751763316765 0.43084324904355614 44 45 48
0.7188263859306432 3.682320285524761 0.43510569950150374 52 53 54
0.7032425849608944 3.6902913255522223 0.4358303777302474 53 55 54
0.7862249362561746 3.734841135759995 0.4243053004329713 55 54 51
0.7797700979817112 3.746304365293318 0.4238862397480855 62 60 58
0.8447722561981477 3.7845632676794776 0.41456209595304494 72 70 69
0.901861633848153 3.82008273543208 0.4062039826517826 96 94 94
0.993527718392637 3.8689148781879763 0.3935063093573468 116 115 114
1.0894865089577714 3.9197211322972225 0.3802415613572915 164 163 160
1.1878670101170652 3.9718096235771223 0.3666420475388511 168 168 166
1.279575327443058 4.021699871668389 0.3538472635476469 168 168 166
1.2735050947760538 4.034187275547473 0.3533027289890097 168 168 166
0.862872713774801 3.889761914808754 0.40363412531292775 168 168 166
1.2567615564810217 2.0770720201777135 0.5405957823662311 169 169 167
1.2566213301270581 2.0905751685758247 0.5394227139070878 169 169 167
1.1779435226959827 2.092243355295669 0.5463570180815471 169 169 169
1.0979113796435986 2.093453173538834 0.5534534572662918 169 169 169
1.025449616483032 2.0955730266067922 0.5597886746167968 158 158 158
0.9421835947951167 2.0957781637811013 0.5672643732560213 83 82 83
0.8808469275539982 2.0991677057028264 0.5724868735657569 78 77 74
0.9392447728791691 2.121410044999079 0.5652781672943509 69 69 64
0.9177642111188733 2.1310144790441843 0.5663680093908932 59 59 59
0.9297901750268519 2.1459976541492862 0.5639700588746508 52 52 54
0.9646398465274553 2.1647739464814517 0.5591849707170996 47 47 49
1.0010092903676402 2.1839265110605757 0.5542300674327059 45 45 47
1.0071328945306188 2.1981454133908427 0.5524304224391736 44 44 46
1.0092776468812308 2.211720499590163 0.551045395488125 44 43 48
1.0068216185597973 2.2245257059444947 0.5501420278946197 46 45 50
0.9959659552393465 2.235883072714229 0.5501217365179502 48 47 52
0.9853491298448235 2.247254268345941 0.5500787361005022 49 48 53
0.8799275449073993 2.2419369288613287 0.5600332933440355 50 49 53
0.8757479701913954 2.2542377273420575 0.5593293313490119 49 49 51
0.845644879176511 2.261890269208003 0.5613665695272834 42 42 44
0.7121514950482926 2.250761080232344 0.5743578395626456 35 35 37
0.6905096097197937 2.259599222317049 0.5755294871243983 30 30 32
0.6282525008196269 2.260895125342451 0.5810186634972729 26 26 28
0.5607728288485544 2.2610200854147005 0.5870806745897027 22 22 24
0.5103982230231376 2.264133416002859 0.591340873372789 21 21 23
0.5208239240037091 2.278586101886811 0.5891335234430293 22 22 24
0.5307004938513141 2.2929770877627353 0.5869810115671976 23 23 25
0.5237684350089007 2.3041734719335256 0.5866217422597242 23 23 25
0.4913242327420071 2.3104002529490497 0.5889948675978949 25 25 27
0.47545676941042664 2.3197729156365305 0.5895998978265814 28 28 30
0.4487487582986486 2.326958458077961 0.5913725946380881 32 32 35
0.4467526839298176 2.3389858687412404 0.5904961293762429 35 34 39
0.4385264610686266 2.3497627014518154 0.5902901713453982 37 36 41
0.4360584746954124 2.3616865643834113 0.5894652692070098 38 37 42
0.4828112648207701 2.3836666807587403 0.5833276110056302 38 38 40
0.47606748081359485 2.3947922971937077 0.5829576114785745 37 37 39
0.47952442591981115 2.4080218601435037 0.5814848306205831 35 35 37
0.46552728316262293 2.4176165202174063 0.5819020439644961 26 26 28
0.45995541461823763 2.4289503129780843 0.5814082956825791 18 18 20
0.4778525499740348 2.4452670083695156 0.5783648618503944 18 18 20
0.43797297164277627 2.4492609239396783 0.5816032145539952 21 21 23
0.4505121420242356 2.464459020228264 0.5791402050134735 26 26 28
0.4569808896719819 2.478385241681919 0.577335197870886 32 32 34
0.4567543390657508 2.4908714921756636 0.5762591904269397 37 37 37
0.4239933593143136 2.4961662797940867 0.578742661613027 38 38 39
0.42923862268725044 2.5098319579959565 0.5770706425260977 38 38 40
0.4330712098255227 2.5232062197617906 0.5755513491690141 37 37 39
0.4422486999807387 2.5378116190733873 0.5734429252514299 36 36 38
0.4345985948661034 2.5486184104399188 0.5731824876001789 36 36 38
0.4233915559059481 2.5585899281571116 0.5733155081010259 30 30 32
0.41032151765929825 2.5681000742779183 0.5736567056323365 21 21 24
0.414042840709546 2.581489477394002 0.5721460961989254 21 20 24
0.4178100198860544 2.5949105175290477 0.5706285818484236 27 25 28
0.42387523078006917 2.6088963592424754 0.5688546567428827 27 25 28
0.42368074688654966 2.6214192501401925 0.5677725460521729 24 22 25
0.42654564063788103 2.634684042102744 0.5663499547771488 34 33 37
0.4179274266605304 2.6451907240342587 0.5662029963407159 40 39 44
0.4453075909265153 2.664440633297497 0.5620485556555354 44 43 48
0.4420962870217855 2.6762920615865076 0.5612969103991958 46 45 50
0.42604245712965205 2.684969830434418 0.5619797305457779 45 44 49
0.40524548370927727 2.692421432492294 0.5631970880915872 43 42 47
0.40423299851779726 2.70476263742713 0.5622045487873037 41 40 45
0.40961401366673067 2.718720133306392 0.5604946884036318 39 38 42
0.43746187540178794 2.7384060807677497 0.556259868470424 38 38 40
0.420855736383857 2.7468379697864003 0.557013985197629 37 37 39
0.43190273910585286 2.7623340816143545 0.5546590983780842 37 37 39
