ply
format ascii 1.0
element vertex 731
property float x
property float y
property float z
property uchar diffuse_red
property uchar diffuse_green
property uchar diffuse_blue
end_header
1.070810042428536 2.5446821081157074 1.7620540826784568 62 62 63
1.075957146308602 2.563921044944135 1.7617228500701267 67 67 68
1.087013388680476 2.586532078029653 1.7615662004663584 64 64 65
0.9810988863336115 2.543250312747741 1.7579282777102412 57 57 59
0.9295058237496043 2.530294007176882 1.7559152263339524 51 51 54
0.9964880996100454 2.5845338241687177 1.7574193623689842 46 46 49
1.066292206252359 2.6407048514082643 1.7589973540748647 45 44 47
1.133912713835307 2.6959598635821678 1.7605010464941981 44 43 46
0.8397525219034535 2.5435611252103216 1.7513516798846733 42 41 45
0.7695304211620624 2.519132556861403 1.748813188339207 42 41 47
0.7515127157793828 2.5246655590217397 1.7478119921718902 42 41 46
0.8672120555374075 2.6078995064950985 1.7507200735277746 42 41 46
0.8847021832410573 2.6343516914161 1.7507484820300254 40 39 44
0.8351721272462456 2.6216464056111985 1.7488238421690643 40 39 44
0.8017730119945257 2.6182386066319805 1.7473730495140483 39 38 43
0.7849276038915376 2.6244844310183963 1.7464051885903893 38 37 42
0.9607018964696961 2.744813239645488 1.7510047725341367 37 36 41
0.9241681286598247 2.739688301602693 1.7494592429196882 36 35 40
0.8990258967825772 2.7412317447555923 1.7482452992257105 36 35 39
0.85594488802831 2.731945278570735 1.7465189429539314 33 32 37
0.7809979313197164 2.703332465524328 1.7438849717986133 31 30 34
0.7525256882001206 2.7024693634917414 1.742587653222954 31 30 35
0.7541619322955087 2.7197515487758412 1.742151307786152 34 33 38
0.7320031644377418 2.722600770086675 1.741037272115924 36 35 40
0.712674769457301 2.7271083648888594 1.7400055778845873 38 37 41
0.6941631833438489 2.7320596836600846 1.7389986798611208 37 38 40
0.6288755270406732 2.7081950123609637 1.736672739618548 36 36 38
0.6103282453672234 2.7129119656850356 1.7356711313758872 32 32 34
0.7227367291706468 2.7986937678054598 1.7383507724901517 22 22 24
0.7411824239183162 2.8265992431392455 1.7383804933976599 15 15 17
0.7231331141367188 2.8318472712886518 1.73738627750681 13 14 16
0.7010771397542139 2.834534785338993 1.7362818121203576 13 14 16
0.6829089412688076 2.8395962174821667 1.735287604367703 13 13 16
0.6632560030215331 2.8436688837461626 1.734253725328374 14 14 17
0.6465948657097094 2.8495766568655885 1.7333044484986722 13 14 16
0.6699006500418954 2.880835022307008 1.7334605798105365 12 14 16
0.6916446044980684 2.911235719242374 1.7335695713093398 13 14 16
0.722654656172014 2.947698599986814 1.7339293664878426 19 20 22
0.8056766464956542 3.0177459263300883 1.7357101064134954 25 26 28
0.7376941022852985 2.9908624390256127 1.733348453239531 30 31 34
0.7121358473333537 2.991143431186786 1.7321526081225194 33 34 37
0.6813526993154373 2.9879449976396937 1.7308171541594168 34 34 37
0.6907294408748419 3.0108046282609293 1.7305750995783986 35 35 38
0.6646357807828458 3.0105434131598727 1.729370452893549 34 34 39
0.6648030989446516 3.0274273608611098 1.7288776633525382 36 35 40
0.6611963200040627 3.0418582516076773 1.7282822442956207 46 46 50
0.651925243562754 3.0525602130679728 1.7275341974330227 61 61 63
0.6292987436783799 3.0543915101777754 1.7264286082223113 74 74 74
0.5982460551093456 3.0505391271215885 1.725100018427997 76 77 77
0.5588168591616138 3.0409763972238335 1.72355152699027 60 61 60
0.5362708236573255 3.042578150996901 1.7224564817427561 46 46 50
0.5139828493373377 3.044278747013924 1.721370496397948 43 42 46
0.5050995095402482 3.054955855724125 1.7206412017793093 44 44 48
0.491173579097141 3.062206177036928 1.7197792080564835 47 46 51
0.48426895117349833 3.0741961310212065 1.7191029280923005 50 49 54
0.46107518211034915 3.0750710126383956 1.7179993369736917 46 45 50
0.6109678415206996 3.1943791032964732 1.7214266428679177 38 37 42
0.6319327021939192 3.2258520326318347 1.7214676464863066 35 33 36
0.7012016480989987 3.290763947500806 1.7227616291762393 34 33 35
0.7517468080062415 3.3430871901043258 1.7235588679630094 32 31 33
0.6110728190541377 3.262922233421542 1.719399400929912 28 26 30
0.6099809166856249 3.2793620572087603 1.718861271243485 22 21 26
0.6093727088249303 3.2961680684199033 1.7183347590061873 19 18 23
0.5221301992252936 3.252224726573722 1.7155840079323577 18 17 22
0.5598427605178118 3.295858977483547 1.7160426103008826 17 16 21
0.5449934207996059 3.3025786701502597 1.7151534438802007 16 16 21
0.5015121491660788 3.2889631680703553 1.7135368344492898 17 17 22
0.47919817871481984 3.29022522241426 1.7124626428264458 18 17 23
0.5879265212068314 3.3849438284215956 1.7147063411476324 21 20 26
0.5916593302642394 3.405030239590453 1.7142842707539394 21 20 26
0.7599001875568492 3.5433954167326442 1.7179990984925004 21 20 26
0.7511173917091623 3.5549662471902463 1.7172479790054855 26 25 31
0.739148334400626 3.564223185716424 1.7164174167700827 31 30 36
0.7371763583409146 3.5807145689444457 1.7158368675777327 37 36 42
0.7174966460074741 3.5843304439779775 1.7148152871645186 39 39 44
0.67967718096577 3.5746232626437187 1.7133458713296306 41 42 46
0.6586976572004886 3.5771155145631015 1.7122972101182445 46 47 51
0.6232822251453625 3.568913530066432 1.710894867946901 54 55 59
0.5992827024391365 3.5690005046396083 1.7097771983825913 53 53 57
0.5939003817276536 3.5827978062004613 1.7091180664569867 41 42 46
0.5776154829742435 3.588497073071326 1.7081924524675536 30 30 34
0.6238093513491667 3.6407597230150794 1.708789313391619 30 30 35
0.657031396604761 3.6835801294873205 1.7090634009923678 34 35 39
0.6925157882409669 3.7283026220985716 1.7093862123642705 39 40 44
0.8107699112925699 3.835613346881096 1.7116991850305006 41 41 45
0.7768714030034984 3.828515051574835 1.7103346023456174 41 42 47
0.7645836185767447 3.837676380701187 1.7094920656381063 46 47 52
0.7764264596584258 3.865179747180638 1.7092269192778486 51 52 57
0.7912915360913315 3.8950882901550425 1.7090308881709235 57 58 63
0.8509579033925532 3.959439819434092 1.7098953197056384 66 66 71
0.8699154474061124 3.9928350650174878 1.709786065763328 79 79 82
0.8835441977756733 4.02225428548503 1.7095470982744814 97 97 98
0.8666530944345039 4.028159962582206 1.7085871986632883 148 148 148
0.8366963751861483 4.023870789667713 1.7073224805902305 171 171 171
0.8110460313160357 4.022820304695342 1.70616183145832 175 175 175
0.8227872340789457 4.050903845875858 1.7058747620519124 176 176 176
0.7956632146923246 4.048604898656437 1.704682655010957 177 177 177
1.6027682336237894 2.600304429076747 1.8002466748209176 173 173 171
1.606957180563374 2.6195929134561373 1.799890919235931 173 173 171
1.510375487532435 2.58531681378075 1.7962529892278387 173 173 171
1.4217777978978183 2.5549285092877434 1.7928853766803778 173 173 171
1.3355151330964505 2.525448327136876 1.78960342555852 153 152 151
1.2466237343422262 2.4942178108521738 1.7862460387304457 99 97 99
1.1693446134731864 2.468916534368886 1.7832738898775655 82 80 83
1.2364582683226417 2.5216673730279626 1.7849672129646617 78 78 80
1.2175744566731983 2.527886407963499 1.78388318673736 67 67 67
1.2216574952313604 2.5466151312149297 1.7835385053884976 48 48 49
1.0619156913457743 2.47544745427244 1.7779391445098987 49 48 52
1.079342112613228 2.5012748264552043 1.7780288945038432 47 46 50
1.0783966891634442 2.5170411936515404 1.777528783197909 50 50 52
1.0869324865074517 2.538099673112182 1.7773302019063684 59 59 60
1.0709396605339048 2.545547195306285 1.7763492284667972 64 64 66
1.0708276090843407 2.5618452458590526 1.7758737017856727 64 64 66
1.0908196482179182 2.58946990838138 1.7760345093604597 64 64 66
1.0160939857902678 2.5637810411541078 1.7731958640709318 60 60 62
1.0737034724174965 2.612735299733285 1.7745434154095248 54 54 56
0.9833052687875411 2.577836275725968 1.7712196731051255 51 51 53
0.9571172220998154 2.579213387714625 1.7699254177309676 47 47 49
0.9315884161292077 2.5808838708783943 1.7686542800080027 45 45 47
0.8509752320484296 2.5508000926648853 1.7656603775206552 45 44 48
0.8344188280385673 2.557365208127621 1.7646778613517085 45 44 49
0.7061199559685504 2.4991475077749965 1.7602111877861901 44 43 49
0.6593463827881616 2.4878079245477798 1.7582976356418796 44 43 48
0.8483048980450945 2.613904020695117 1.7637120621374724 43 42 47
0.718599226132535 2.5541347426242806 1.7592227555481825 42 41 46
0.6712417343720128 2.542257936868414 1.757296728547991 41 40 45
0.7412252177630538 2.5994785002728644 1.758998589123825 39 38 43
0.7406455049522116 2.615222348930056 1.7585166466607431 37 36 41
0.9379690133682681 2.748712998008776 1.7641184804118883 38 37 42
0.9644629776222579 2.7811165891497702 1.764452899994595 37 36 41
0.9003543895986998 2.7593719840986566 1.7620090795610777 35 34 39
0.815549126026271 2.7249223857095948 1.7589403002308484 33 32 37
0.7971324983749193 2.7302069428444486 1.7579056116857792 32 31 35
0.7801375268302726 2.7363010049747234 1.756915674831606 30 29 33
0.7665728353588095 2.744435757988459 1.756031195383366 27 26 30
0.7420773673902314 2.745866773186487 1.7548164674149442 26 25 29
0.7184724983215536 2.7477636546496385 1.7536309641677126 32 33 35
0.6964451136835337 2.750554661335737 1.7524952364252095 35 36 38
0.6123959690546406 2.714991694080516 1.7494947966727028 36 37 39
0.6714463535092989 2.767735225651246 1.750802062451277 35 36 38
0.6644595673613292 2.7797141222490134 1.7501218010774888 32 33 35
0.6640180631515551 2.7957767559459232 1.7496372832795766 28 29 31
0.6934482520374139 2.830579053222014 1.750043164853669 19 20 22
0.6947041499746478 2.8478345097574524 1.749605550480384 15 13 16
0.6733287524935294 2.8508474634802785 1.748494653321553 14 13 15
0.6911142910264856 2.8785919577565857 1.748546302416907 14 14 16
0.68780248137177 2.8930410058408498 1.747970831656005 14 14 16
0.6610267189279615 2.8925396863687727 1.7467026101209329 13 14 16
0.6664629771039243 2.9125667814299545 1.7463852994253966 13 14 16
0.7019263418748982 2.951941622658155 1.7469482914348762 13 14 16
0.6989509048872198 2.966727589549127 1.7463792152034103 18 19 21
0.6689020618770967 2.9640122657740298 1.7450180665171253 30 31 33
0.6696307141031856 2.9811766054192144 1.7445578231250174 34 35 37
0.6842359929098265 3.007420143463552 1.7445004219256224 35 35 38
0.679353042828793 3.021016688494267 1.7438742788694763 36 35 39
0.6960603536799019 3.0487946627237594 1.743873310036495 36 35 39
0.6668798316892672 3.0464537008115 1.7425429585356662 34 33 37
0.6470948876220599 3.050219497075561 1.7414865338159085 36 36 38
0.6787784266603827 3.0880717076308164 1.7419123787889819 46 46 46
0.6446255047868898 3.08227038666993 1.7404436491355775 63 65 64
0.6047218157915228 3.072497745596716 1.7388139939008462 76 78 75
0.5753604447336595 3.0696377817944964 1.7374899508249184 79 81 80
0.5444641050592225 3.065638058298177 1.736125254902927 70 72 71
0.5288266705959639 3.0718279335531893 1.7351975864054532 53 55 53
0.5012352193538936 3.0698748341841826 1.733932169887871 44 44 46
0.5116821973154266 3.09369016378465 1.733745614640239 43 42 46
0.4867343655858676 3.0934330554175715 1.7325579145827543 44 44 47
0.627081747638133 3.206286490505042 1.736025660415575 48 47 51
0.6348706158434825 3.228748328268935 1.7357508142946485 44 42 48
0.6186423959331548 3.2347179481538726 1.734801198259197 37 35 40
0.6241181540203662 3.2556622845532024 1.7344593196236642 34 32 38
0.6552361472669561 3.2944729968843465 1.7348304218948414 27 26 31
0.5614998779460298 3.246462763126641 1.731724997074462 23 22 27
0.5017710753105318 3.22181278405702 1.7295748016364665 21 20 25
0.4739528132507629 3.219297764827329 1.728314729840963 18 17 22
0.5704733657928478 3.3042301836766503 1.730488420023939 17 16 22
0.5243638630136513 3.2888893990385997 1.7287221048104568 17 16 22
0.5055730985071694 3.292726053337271 1.7277112618279324 18 17 23
0.5070585617468839 3.310929518080953 1.7272572969806594 19 18 24
0.5898428639249198 3.3872115917231835 1.729022498277951 21 20 26
0.5795762739742938 3.3972774715359226 1.7282403049249728 21 20 26
0.7922127106644985 3.567548262668552 1.7335146819177514 21 20 26
0.760166020633178 3.5624209574114687 1.7321274068470263 27 26 32
0.7308181873579516 3.5591239217586343 1.7308166207476499 32 31 37
0.7382879843830807 3.5824536972937486 1.7305014517534518 37 36 42
0.6886633534327593 3.5642524431538893 1.72864926312419 40 40 45
0.6766920857873371 3.5733704955259427 1.7278127502960436 41 42 46
0.5711054472596748 3.5137841252002726 1.724473580980802 45 46 50
0.6133662846761136 3.5625419103887257 1.7250915285152668 54 55 59
0.5936762759533167 3.565786795297574 1.7240546786579547 53 54 58
0.5941722595469368 3.5839286160494996 1.7235550914185862 42 43 47
0.5819932005345798 3.592682346137896 1.722719134225734 32 33 37
0.6226054104468712 3.640800010355478 1.7232765707704174 31 32 36
0.6671406441040213 3.692094219979512 1.7239303028064683 34 35 39
0.6799591157710154 3.7198233749505922 1.7237444488318385 37 38 42
0.7648976114433859 3.8020105519146696 1.725442498214233 38 39 43
0.7306332285985309 3.7945177598191178 1.7240172238678377 41 42 46
0.7448240339372427 3.8236542844855306 1.723856511876078 45 46 51
0.7575001274853099 3.8517461968942976 1.7236533726634682 49 50 55
0.7802562773993986 3.8876390547387882 1.7237080767695019 55 56 61
0.8120572072645917 3.930616854883043 1.7239916845850258 61 62 66
0.8625846526457872 3.988194370156622 1.724751213392149 73 73 76
0.8765324003338419 4.017845654886049 1.724564008241285 90 90 90
0.8680941668818407 4.030277278278423 1.723801155739944 139 139 138
0.8495484698878899 4.034853208895677 1.722780726315785 169 169 169
0.8310585918405624 4.039414987629237 1.7217633791256413 175 175 175
0.806909442897211 4.039494664233618 1.720604224260227 176 176 176
0.7905230126379807 4.045576536660595 1.719643791002999 177 177 177
1.6534707169412555 2.627887355184187 1.8171016931279662 173 173 171
1.5531462784052343 2.591890534795448 1.8131606744996824 173 173 171
1.4715053187231373 2.5654440030050063 1.8098737540005367 173 173 171
1.383718040155206 2.535399881255233 1.8063844391427268 171 171 169
1.2974299402882183 2.5058190426780635 1.8029561092827242 127 126 125
1.2130142251744025 2.476911052866434 1.7996013029491489 90 88 90
1.1416139453402607 2.454710845536494 1.7967006231578155 80 78 81
1.2285439523455792 2.5181666365982522 1.7992105135727254 77 77 80
1.2211334839745094 2.5306204119600917 1.7984955337932562 55 54 60
1.0488357059092144 2.452880834998584 1.7921736809348217 49 48 53
1.0882418271148921 2.4906870836121735 1.793057851057065 48 48 49
1.0754044014047488 2.4998912949595233 1.7921662134691958 48 48 50
1.0731035454260924 2.514901201830263 1.791631680877051 57 56 59
1.080568005432471 2.5353562061227892 1.7914263086587432 64 63 68
1.0730422361499463 2.5475128111880494 1.790713974146933 67 67 69
1.073087539136248 2.5639057090904576 1.79025642624885 67 67 69
1.103408904153237 2.5973450679207724 1.790814777888924 66 66 68
1.0816217705529125 2.6015459593876207 1.7896218363771177 64 64 66
1.0921722152457694 2.6239977031072534 1.7895127423266777 60 60 62
1.1091861777771002 2.6502003575043362 1.78961739495674 57 57 59
0.9792430986779496 2.5926354771652065 1.7848197387074347 55 55 57
0.9316969984874476 2.5817398956504336 1.782779107226628 54 54 56
1.2256413147391285 2.767054807183109 1.7920865328140319 49 48 52
0.8277943560999481 2.5543288902690384 1.7784207046583054 45 44 50
0.8421469534974793 2.5787479808648137 1.7784440534658268 44 43 49
0.8029826423455557 2.572130566583513 1.7766970400515514 44 43 48
0.8405598557525575 2.610177922329579 1.7774841976969291 42 41 46
0.7127065984576602 2.5514653966299674 1.7728218554168251 41 40 45
0.6699060432310069 2.5422534233471463 1.7709681780052187 40 39 44
0.6298409954521474 2.534496834301571 1.7692086677596672 38 37 42
0.6542622583056328 2.5648144072733903 1.7695634297229854 37 36 41
0.8699882700641122 2.7090854255051204 1.7761622531711445 37 36 41
0.8975659307102396 2.7419900403028947 1.7766002112965822 37 36 41
0.9403132744265628 2.78414093635312 1.777527401178081 36 35 40
0.8947214846717086 2.7733657392170414 1.7755798313265052 34 33 38
0.8205066394771625 2.7451327232588922 1.7727094694725405 33 33 36
0.8116580789962271 2.756217279421965 1.7719619285385622 30 30 32
0.7756078409301979 2.7507442541454012 1.770336485840197 26 26 28
0.7504999509662944 2.7518212069786507 1.7690672963986773 23 23 25
0.728618528958936 2.7547929773284334 1.7679041761426042 22 23 25
0.7061167448327212 2.7573149061687094 1.7667230602938293 24 25 27
0.6889914533499846 2.7630850087302985 1.765716150998188 28 29 31
0.6529405854313775 2.7570806038405364 1.7641055812063255 31 32 34
0.6342533619474275 2.761742048718208 1.7630526915495612 34 35 37
0.631555549365665 2.7763297513695266 1.762510412454185 34 35 37
0.6281569287492959 2.7904966846079295 1.7619453526456632 36 37 39
0.632543974021887 2.8095741967182994 1.761626756681276 32 32 34
0.6563872752904363 2.840980729310906 1.7619224554988946 25 25 27
0.6723175336456262 2.867515680396848 1.7619643110906473 17 17 19
0.6886861691418424 2.8944335434686126 1.7620170591966802 13 14 16
0.6974410060485923 2.9166006647179064 1.761827341421828 12 13 15
0.7027123743380401 2.936609172825568 1.7615262712766444 12 13 15
0.7164770897799977 2.9621311749202732 1.7614896760857373 13 14 16
0.7185096955563899 2.980182531965425 1.7610836783772466 12 13 15
0.7152764195432155 2.9948668996493173 1.7605122648683516 15 16 18
0.6975845620024317 3.000176651071771 1.7594903093917964 22 23 25
0.6896405618705244 3.0117902346405003 1.758772567219158 32 33 35
0.6735522920979968 3.0180706775125707 1.7578025173033784 35 35 37
0.6578763500567066 3.024578592526972 1.7568464341913734 35 35 37
0.6382623691070899 3.028450376247506 1.7557699606089106 33 33 35
0.612766834568349 3.0283730796150152 1.7545140163802564 31 31 33
0.6032229637950068 3.0387931214804356 1.7537508025154476 36 36 36
0.6108230301422857 3.060616954587176 1.753513729449098 38 40 39
0.6227449753607008 3.085397006505192 1.7534070102386052 45 47 45
0.6303947484298398 3.1074004461669595 1.7531673524641718 61 64 62
0.6046814334662916 3.10701813281151 1.7519092165850032 73 76 74
0.5663322078358459 3.0980118733055333 1.7502694263527643 77 80 79
0.5386657455309649 3.096096209182351 1.7489579167267364 76 78 79
0.5085715406185591 3.092429781962255 1.7475757117180697 59 60 62
0.5117432523187508 3.1113576682538158 1.7472013401100657 49 50 52
0.5218380117887254 3.1350748933634947 1.7470342657757758 44 45 48
0.644049566211224 3.235935228386305 1.7502360604458873 45 44 49
0.6217323387473932 3.237727556259265 1.749084515444287 47 46 51
0.63624496158958 3.2649373490844598 1.7490374880883595 44 43 48
0.5926649143802019 3.2519015777976312 1.7472525943944037 34 33 38
0.5757591588576021 3.257279887724356 1.7462675072934455 25 24 29
0.5184439667041012 3.234347545782401 1.7440824102367014 22 21 25
0.5556035843770513 3.2774745646662327 1.7447064880687346 18 18 21
0.5455602472253844 3.28757268542366 1.743927656502037 17 16 22
0.5006629071114699 3.273024619374503 1.7421201756001 17 16 22
0.47629480476909314 3.272848639460606 1.740922633905256 17 16 22
0.48280161345030126 3.294556284861396 1.7406348713359323 20 19 25
0.6143324979641454 3.4055975899171678 1.7440109881560277 21 20 26
0.5929405391846114 3.4077538925786115 1.74289489314691 22 21 27
0.6058889689485842 3.4345272033399232 1.7427829208592602 23 22 28
0.8141389142120912 3.602285814204826 1.7483540540634968 27 26 32
0.7635575545303521 3.5837509345407472 1.7463779084353988 33 32 38
0.7529296476540897 3.594020481453521 1.745565422358439 37 36 42
0.5652613004491684 3.4752454017864105 1.7396360399770818 40 40 45
0.568905339943194 3.4954775025149685 1.7392483957903817 45 46 50
0.5727471168789102 3.515907303285161 1.738864964194022 48 49 53
0.5808138156890617 3.539501496854056 1.7386012631711052 55 56 60
0.5855508708869241 3.560710891352215 1.7382401444842948 52 53 57
0.5953817194340401 3.585754671716952 1.7380228402500302 43 44 48
0.5879171857563765 3.5980190120544573 1.737310505764456 37 38 42
0.6084481433545414 3.6311733963137556 1.7373937291703392 37 38 42
0.6569379720326805 3.685401733898802 1.738265545153983 42 43 47
0.6920063729752362 3.729826287540833 1.7387500361261703 48 49 53
0.7429866083328891 3.786458783571007 1.7396773134864767 51 52 56
0.7176904165712146 3.7856920433823866 1.7384505434222777 56 57 60
0.713360851849868 3.800745146892506 1.7378146898392495 59 60 63
0.7431649836077716 3.841803734385942 1.7381338158884565 59 60 63
0.7713591577512879 3.8818205823484577 1.738402714784871 61 62 65
0.8043330244022104 3.9256819009704342 1.7387996455402555 63 64 68
0.8390821875500729 3.971114193879374 1.7392401184939414 72 72 74
0.8662692558723253 4.010926371871335 1.7394650608945965 89 89 88
0.8618517968000046 4.026446413549075 1.7388117734921928 137 137 135
0.8418553438997176 4.029879708865039 1.7377287249058888 169 169 169
0.8251589730371409 4.035819864204088 1.7367382116953098 175 175 175
0.8069082352756014 4.040496245463681 1.7357064420954593 177 177 177
0.7147601546839863 3.987139892468716 1.7326557924345172 177 177 177
1.6134550457369352 2.5905145818978244 1.8313109647806272 173 173 171
1.5475961100827051 2.572804536320114 1.8284486651723955 173 173 171
1.5164774043904212 2.5732648749773093 1.826855657564466 174 173 171
1.436775912446032 2.5477673274066657 1.8235025112455567 173 173 171
1.3470826759062344 2.5166247960548023 1.8197957152394189 160 159 157
1.2596673890409507 2.4863552408211445 1.8161808256044223 102 101 100
1.1794081711747681 2.459599444328488 1.8128336378978065 83 82 83
1.1143158450905988 2.4407335176529816 1.8100417682752412 79 78 81
1.2207700192101647 2.514740625159576 1.8134318568762176 70 69 74
1.2198395239783453 2.5307106151698218 1.8129494513493423 49 48 55
1.068111790050247 2.4642064641920243 1.8070555590320514 47 46 52
1.0875145468152232 2.491073713616337 1.8073089171563872 46 46 48
1.0805308896103403 2.5035048515728358 1.8066155081490638 49 49 50
1.08476604839603 2.522145540116063 1.8063226864181376 63 62 66
1.0824201032525518 2.5371772621149504 1.8057939584289766 67 66 71
1.0625500289249552 2.5424533413033252 1.8046410306443186 69 69 71
1.1066246155808004 2.5834814250188156 1.805761575888654 69 69 71
1.1357388154332595 2.6163201067260764 1.806345452671242 68 68 70
1.1191795044740396 2.623541078931667 1.8053076786588458 65 65 67
1.0995837912050832 2.629000503915779 1.8041636894182558 63 63 65
1.1206236740010547 2.657512683664322 1.8044553735426014 62 62 64
0.9881184295320169 2.5984985983208295 1.79933366977943 61 61 63
1.0701018062190224 2.6618415796865387 1.8017715036943027 58 58 60
0.9691389865380631 2.620342703113007 1.797774533124106 50 49 53
0.9460808459716803 2.62341342449984 1.7965197802346768 46 45 51
0.9472826197287029 2.640473793218202 1.796115958467663 44 43 49
0.9122975161103879 2.636516837419256 1.7944469449177822 42 41 46
0.8070226966690496 2.59138816284189 1.7903298795149551 41 40 45
0.7207370057588897 2.556956434814451 1.786885770181724 39 38 43
0.6772685534220122 2.547366770181203 1.7849393812554604 37 36 41
0.6812848207958374 2.565659284666752 1.7846449293961006 37 36 41
0.8678802027790345 2.692237645512776 1.790672797430159 37 36 41
0.8585940164162245 2.703115062181223 1.7899047825203278 37 36 41
0.9266454123550243 2.7601737643521105 1.7918062684790097 37 36 40
0.9205554416954138 2.7731180599313934 1.7911442658179129 36 35 40
0.9534076215604985 2.809499272014378 1.7918214618307573 35 35 39
0.7743210375013285 2.718050845877431 1.7852177385419576 33 32 35
0.7879925031261834 2.7426853685531345 1.7852408513812332 29 30 32
0.7899310037449712 2.7602726289391666 1.784860090031207 26 26 28
0.7582401518775761 2.7573609279921634 1.7833299048304683 21 22 24
0.72335172686231 2.752376935356179 1.7816937859251352 19 20 22
0.7036960561402368 2.756637772933199 1.7805794104369461 18 19 21
0.6742198693949586 2.754775998149407 1.7791330959943044 17 18 20
0.6329983420043379 2.7455316555925777 1.7772914151666535 17 18 20
0.6042423438547873 2.743884689556186 1.775875824768725 20 21 23
0.6031513048945278 2.759409191027979 1.7753974040965599 25 26 28
0.6024372300148664 2.7751953896567016 1.774930998092398 31 32 34
0.59497700163665 2.786766273160178 1.7742368249253981 33 37 38
0.5997627508138035 2.8060630568048968 1.7739540895561139 35 39 40
0.6164017491185732 2.8329212310676763 1.7740673285225304 34 36 38
0.6375465550776109 2.8627513661938893 1.7743284301076814 30 31 33
0.6449112589169526 2.883917074260792 1.7741257512103779 20 21 23
0.6597512499548799 2.9099349565539767 1.7741705178774447 14 15 17
0.6700777589613651 2.933151903930024 1.7740623720745612 13 14 16
0.6843987610738544 2.9590245863134097 1.7740847365860348 12 13 15
0.6888491038305358 2.9786056740323756 1.7737772198495843 12 13 15
0.6741906997549989 2.985825016076122 1.7728360339762332 12 13 15
0.671711913284504 3.000948822023779 1.7722980501232175 12 13 15
0.6633738126142379 3.0122590237689977 1.7715663943728643 17 17 19
0.6562882310576019 3.0243846227217572 1.7708761340765804 22 23 25
0.629443456841694 3.0234876731809672 1.7695371750746187 24 25 27
0.6018983587920299 3.022033582338172 1.7681778287378949 29 29 31
0.5927699960279607 3.032705111734385 1.7674234393893358 30 30 31
0.5885309234321954 3.0466221282901667 1.7668289360691167 30 31 32
0.555858559359234 3.041545899701206 1.765307880233432 32 34 34
0.5575579211551958 3.059403095312656 1.7649076182980938 38 41 44
0.572336021735605 3.0861043256648375 1.764930621917118 46 49 52
0.5983838422702443 3.1205208195438106 1.7653157707500815 63 67 69
0.5955301214252464 3.1355010939429704 1.7647626555598108 75 76 78
0.6049655473950066 3.1588603995354765 1.7646053742650105 79 80 81
0.6115123629479262 3.1803253705959165 1.7643530019964546 77 78 80
0.5289383094024338 3.1408007323732345 1.7612361708705995 69 70 72
0.5199453658958118 3.1514973552321046 1.7604879754862026 55 56 57
0.5016580109837074 3.1557714597583697 1.7594427328584912 45 46 47
0.6174025395244946 3.2527764947779882 1.7626780189981122 45 46 47
0.5953037570053581 3.2546150551505937 1.7615055639117783 47 47 50
0.5572164988681023 3.2452345920263492 1.7598267761003767 43 42 46
0.5312842898053487 3.2442056845434815 1.758537760244545 31 31 33
0.5078815881875087 3.244859745146112 1.7573313564269832 25 24 26
0.5118866527786028 3.2647384840340568 1.7569931144513316 22 21 27
0.4876047441785001 3.264676445368538 1.755761569395207 18 17 23
0.46664778834550336 3.266887406013171 1.754636958586906 19 18 24
0.3732735397359448 3.2174905732523094 1.7512406002451901 21 20 26
0.6133326269642634 3.405786959586161 1.7583021146857514 22 21 27
0.6001455690611868 3.4138202354381066 1.7574134779827375 22 21 27
0.6315693270623952 3.453900163757517 1.7579173450287797 24 23 29
0.605823468089024 3.4529204743257362 1.7566364524822917 29 28 33
0.6204760093064767 3.4810957465957157 1.7566129147426557 34 33 39
0.5883534076076149 3.4753979511500868 1.755136716709781 38 37 43
0.5594352486394332 3.4719113625300615 1.7537630161418105 41 40 46
0.5690347120477686 3.496487962298515 1.7535808974156526 43 44 48
0.5737817592163061 3.5175855910286717 1.753247127348371 47 48 52
0.5748212666705326 3.5360112907117953 1.752797862077487 55 56 60
0.579414698485309 3.5571028708449637 1.752456454967335 52 53 57
0.5933282273296483 3.5851621069365205 1.7523985458198699 44 45 49
0.5874592579599018 3.598609930902814 1.7517340473784153 40 41 45
0.6258290240836135 3.645083588051005 1.7524164748422402 39 40 44
0.6653953753306627 3.6926817458821546 1.7531290345772026 46 48 51
0.7146411854906518 3.7477885638051367 1.7541286024537892 52 53 57
0.7111358123328504 3.7634070487835176 1.7535250011446963 60 60 64
0.7059532161671105 3.777775124651753 1.7528702875401336 65 65 68
0.6969214211239154 3.789231461386538 1.7520994184124739 68 69 71
0.685751531341722 3.799049886964463 1.7512645887073712 71 72 75
0.7227417447697833 3.845648426537285 1.751873548340667 72 73 75
0.8105010483769417 3.9313959738440545 1.753994256001743 74 75 77
0.831322432432158 3.9661377805535327 1.7541050992455205 80 82 81
0.8562156210257472 4.004166208786788 1.7543331890373466 97 98 95
0.8556547519537618 4.02264915199631 1.7538010836936533 143 144 142
0.838900138656117 4.028585397154554 1.7527883966215856 170 170 170
0.817659276889193 4.030976040677246 1.751644470764182 175 175 175
0.8040834086415836 4.039289673122148 1.7507284479627645 177 177 177
0.7191874148332937 3.9916068819863293 1.7477159813994982 177 177 177
1.5886000372201272 2.5782554110368254 1.8454741179060898 174 174 172
1.518551302156103 2.5582760906639184 1.8423438648709878 175 174 172
1.4801334083653992 2.5548042238214483 1.8404291121510845 175 174 172
1.3934920108739364 2.525529922931249 1.836678052330102 174 173 171
1.3088841465339385 2.497006997107731 1.8330133322070128 138 139 136
1.2210774520305652 2.4664399579048353 1.8292355987587543 90 91 89
1.154739973440416 2.4470957721918154 1.8262823876307628 80 81 81
1.2264694815791 2.502166756786809 1.8285723294937346 79 80 82
1.214096441257539 2.5119105799219694 1.8276683795712922 57 56 61
1.2141625907542704 2.528411706908954 1.827235415577088 49 49 51
1.0795575489925375 2.471251487259133 1.8217167248262758 47 47 49
1.094906760619812 2.495920657994766 1.821865971903503 46 46 48
1.091516490484096 2.5103507836825565 1.8213072517497872 54 54 56
1.0985243951922339 2.5305527578482394 1.8211389779650935 66 65 68
1.0929355906000613 2.5438137377295877 1.8204963491840864 69 68 73
1.102232317055781 2.5653856017768017 1.820411390509017 70 70 72
1.13935207355697 2.6026108657655564 1.8213656370940168 70 70 72
1.1916824155577117 2.6485788636558545 1.8228831099707696 69 69 71
1.2395785114780833 2.6923011258988767 1.8242283759158902 67 67 69
1.2067229947345135 2.6905092083309676 1.8225597165078293 65 65 67
1.3035909290011667 2.7623867106649556 1.8257181486431637 63 63 65
0.9424965739678048 2.573249279893455 1.811860376049088 58 58 60
1.018334068931058 2.6329813732195984 1.8142416028660098 51 50 54
0.902245259112393 2.5826587351476853 1.809509180280072 51 50 55
0.9094023603500049 2.6030318948113216 1.809344171581971 48 47 52
0.8964478632007452 2.6118079184166714 1.8084354482233627 45 44 49
0.9203984363997539 2.642031659399029 1.8088870402071477 43 42 47
0.872141841695808 2.6302154770287727 1.806679098750345 40 39 44
0.7388126143752172 2.568338827568211 1.8013517834353925 37 36 41
0.7396728469908215 2.5848743384094206 1.8009593852199168 37 36 41
0.7467355209187373 2.605107266538589 1.8007931533799144 37 36 41
0.8104102970505187 2.6589688997249534 1.8026943793248038 37 36 41
0.8894463754301304 2.722285965615492 1.8051478541977044 37 36 41
0.9437049883980095 2.7711834700811573 1.8066885620510027 36 36 38
1.0019699998303582 2.8227560455022243 1.8083677752623089 35 35 37
1.0045172784898082 2.8410859941772086 1.8080160328911032 34 34 36
0.8869627772372521 2.786905719731234 1.8033090829906615 32 32 34
0.796749414886676 2.748807355510143 1.7996048358900107 27 28 30
0.831078496822282 2.7861292769377735 1.8004107684750028 25 26 28
0.7412746968764521 2.7478113705440457 1.796733719333741 20 21 23
0.7151747202447987 2.74817563327423 1.795360877161457 17 18 20
0.691724238788757 2.7500829143297643 1.7940856092892334 17 18 20
0.6528359537310107 2.742379902199712 1.7922581925280885 16 17 19
0.6316888899878037 2.7455285929628874 1.7910704001381301 16 17 19
0.6162768716191007 2.7521797795424785 1.7900895171685032 16 17 19
0.6134133777622288 2.7666270578699224 1.7895578570195965 16 17 19
0.5693895653940773 2.7552957936053004 1.7875581697961034 16 17 19
0.5558429018805282 2.762964172104303 1.786647812251605 21 22 24
0.5650336268675142 2.7849550266356458 1.786546235704663 29 30 32
0.5772270628164211 2.8089210724311813 1.786549251969027 35 36 38
0.5846526512716812 2.8299420058354574 1.7863811342148233 38 39 41
0.5874703008692832 2.8480871811313344 1.7860484002392576 36 37 39
0.6005313906157077 2.8728371982164553 1.7860759999360911 32 33 36
0.6145474109372511 2.898292459167311 1.7861348237225134 28 29 33
0.6255580934608334 2.9219049767640946 1.7860854145375469 19 20 23
0.6340835224820016 2.9439908291109114 1.7859465769322445 13 14 16
0.643574262051515 2.966775003878869 1.7858396886222805 12 13 15
0.6487933561599679 2.986849409823873 1.785581358721585 12 13 15
0.6268978363394626 2.989235048200499 1.7843746553658801 12 13 15
0.6358120616709044 3.011785214023152 1.7842438446039068 13 14 16
0.6168914778054482 3.0160625018883183 1.7831424928627184 15 16 18
0.5954343073334034 3.0186050379554183 1.7819545349981243 17 17 19
0.5822918112421658 3.0265980284507625 1.7810567019348844 23 23 27
0.5732777822407611 3.0373113060939985 1.7803025540338822 26 25 30
0.5638959187502581 3.047768087500894 1.77953597781565 26 26 32
0.5606126202443256 3.0623040441823273 1.7789800458164167 29 30 35
0.5456225474163381 3.068974687777562 1.7780206865705592 37 38 42
0.5610054162956704 3.0961276244484086 1.7781060013555412 50 51 53
0.5618403864271846 3.1135221050817976 1.7776895657873921 52 54 54
0.5741926778561786 3.1387893772706996 1.777666464498406 65 67 66
0.5878845491498403 3.1650627431329545 1.777686720801705 75 76 78
0.5389032987247886 3.1484913305027526 1.7755666959187146 76 77 79
0.515787519143069 3.1495025402762895 1.774332608748688 79 79 79
0.5000547196122178 3.1555294817949253 1.773351481227035 72 72 72
0.6337807853581705 3.2649977380517967 1.777440828792394 60 60 60
0.6111186243323365 3.266484129456118 1.776217866708452 54 53 54
0.5911318209396383 3.2697596783691463 1.7750873198798642 52 50 53
0.5660953604725558 3.269438847859688 1.773788144648458 50 48 51
0.5414839639890758 3.2693283346740576 1.7725056081769086 48 46 49
0.5157752986687172 3.268358502028495 1.7711884882183673 33 31 36
0.48435398381591965 3.263258324659785 1.7696822338208973 25 23 29
0.44918600831444455 3.255380343656431 1.768053757291987 24 21 28
0.4154664986372376 3.248394707088223 1.7664773339163715 27 25 31
0.3876529612620119 3.2454954891841905 1.7651013040245287 26 25 30
0.6062673104286971 3.4191121745035113 1.7719278008230521 26 25 30
0.6370183891886112 3.4587299769828026 1.7724861323487486 28 27 32
0.6193784835481142 3.4636126090693 1.7714356607059991 31 30 35
0.6182740719187485 3.480416091669096 1.770933561365816 36 35 40
0.5960419295792623 3.4818975638391434 1.7697331893669401 39 38 43
0.5546890048221487 3.469363243042415 1.7679048214962423 40 40 44
0.5647630056767321 3.4942790644270643 1.7677720196399835 41 42 46
0.5789756354989193 3.5223173260160423 1.7677727976277378 47 48 52
0.574059333606701 3.5363721674109585 1.7671442979143055 56 57 61
0.5849901246411258 3.5621485218194753 1.767033487189367 52 53 57
0.5969036248201531 3.5887431276621675 1.766952362630608 47 48 52
0.5892403301625708 3.6008667924588122 1.7662314622379212 46 47 51
0.6291062131576926 3.6484695664089375 1.7670546770690432 45 46 50
0.6842487162378004 3.707751330434006 1.7683669095909524 44 46 50
0.7365021016752362 3.765175376091433 1.7695773754054451 46 47 51
0.7365776052034292 3.783551758223921 1.7690953035456145 55 54 59
0.6790743026823423 3.7583984693453596 1.7667571417835384 59 58 63
0.6760488361457235 3.7743480357276247 1.7661772895027943 66 65 70
0.6744189807568943 3.791381495182998 1.7656416637167796 70 71 75
0.7175214959261151 3.8426303349843414 1.7665374981150221 75 76 80
0.8019776170971082 3.9258462458789385 1.7687477818923665 83 84 84
0.8423236285275852 3.9755936640078797 1.7695393527657175 92 94 93
0.8569064997849714 4.0056976068148575 1.769504835769545 114 116 115
0.8560987924536863 4.023993956024549 1.7689787502859204 156 157 156
0.8396074802466336 4.030136561256063 1.7679549464060056 173 173 173
0.825586828777066 4.0381582949732255 1.7670104868750345 176 176 176
0.8039020354519522 4.040150336439261 1.7658251996002485 177 177 177
0.722280156801095 3.995027923242431 1.762755458663288 177 177 177
1.565206475126672 2.5667602998522954 1.8596062382402887 174 174 172
1.4893345922160603 2.5436511449613337 1.8561267115438578 175 174 172
1.4359988483573782 2.5322048386032088 1.8535576271415704 175 174 172
1.3583482463419363 2.5076180021826495 1.8500205315833993 169 168 166
1.2794000766911793 2.4820398819855742 1.8464392166929544 116 115 113
1.195653260511504 2.453582534279815 1.8426741927596195 86 86 85
1.1277239905548446 2.433322263702177 1.8395478975215704 79 79 80
1.218580449024326 2.498691289976864 1.8427478106544815 74 74 76
1.2194422518709804 2.5156062373170607 1.8423602349793344 50 49 54
1.0788405289717757 2.455433866260373 1.8363570921808425 49 48 51
1.1016623145574072 2.484132682718011 1.8368459312074956 49 49 51
1.1079035204003724 2.5038486277742114 1.8366752415804293 48 48 50
1.1156046548190077 2.524426266195375 1.8365608092898893 58 58 60
1.1123359677515445 2.5389924552632355 1.836011780778402 68 68 71
1.1284077128606949 2.5643254098736943 1.836224655878492 70 69 74
1.1086665552545307 2.5697727978817784 1.835025387484938 71 71 73
1.1563688261280634 2.612946314554706 1.836478377735182 71 71 73
1.2713345631810768 2.6941821376999453 1.8405653454118327 69 69 71
1.0973227857416115 2.612812743994178 1.8333126616388733 67 67 69
0.9831231757926485 2.564613937202183 1.8284194880128122 66 66 68
0.9176738950433333 2.5436811904148398 1.8254435472288915 62 62 64
0.9142490650017242 2.5579119110755224 1.824894742168169 55 55 57
0.9538815357320851 2.5968390141535593 1.8260235180306168 52 51 56
1.008977283157 2.6448670172244304 1.8277488270558333 52 51 56
1.061286961672261 2.691557220908754 1.8293589126864167 49 48 53
1.1102711771821436 2.736579294952757 1.830833296588741 45 44 49
0.8750016156433151 2.6164129146805335 1.8212878175839695 44 43 48
0.8788234557121372 2.634917916145622 1.821018332826231 38 37 42
0.9529978056110138 2.6947249420371038 1.8234655302955742 37 36 41
0.9872235610856114 2.7313757414896225 1.8243624969620962 36 35 40
0.7562993196165388 2.6115499839841694 1.8150415054396778 36 35 40
0.8496791529510169 2.6830586080822934 1.8182193871258663 36 35 40
1.141560791172177 2.873175036037929 1.8290093085924166 35 34 38
1.312185803359433 2.992171206510721 1.8351151736510114 34 34 36
1.0458041541088205 2.8498740137699947 1.8244674406620207 34 34 36
1.0053967235020929 2.8424472714489184 1.8224891568249169 31 31 33
0.9424241374503763 2.82123700180847 1.8196532639978074 29 29 31
0.8446727204635232 2.7786839058377266 1.815498104240318 29 30 32
0.8175520206924403 2.7787153211578977 1.8140416658351655 25 26 28
0.7240851675498718 2.7381212697091613 1.8100662237183973 20 21 23
0.6987571626913403 2.738919486767698 1.8086863367717978 17 18 20
0.6703282973181994 2.7377252725042434 1.807191120663727 17 18 20
0.6473488881830232 2.739799128003508 1.8059045711716348 16 17 19
0.6202313110384459 2.7392335334741578 1.8044636123370097 16 17 19
0.6084844790384685 2.748139961918886 1.803604701798953 16 17 19
0.6054168399170381 2.7624439545602026 1.8030731887642903 16 17 19
0.5853961720125935 2.766137706364132 1.8019038952452708 15 16 18
0.5338394653753131 2.7499305171988695 1.79955240204625 14 15 17
0.5136145071223415 2.7533009288074544 1.7983804367319272 14 15 17
0.5373185187283476 2.7844469992128893 1.7988538603262274 19 20 22
0.5264478202268472 2.7937428118365113 1.7980319871275419 26 27 29
0.5387494655769269 2.817810274443195 1.7980749690260414 34 35 37
0.5441251647617809 2.8375283068056456 1.7978577720566071 36 37 39
0.5603731802116425 2.864292129026129 1.7980434094421716 36 37 41
0.5713324781578033 2.8877496276355266 1.798029988569111 37 37 39
0.5780756609924107 2.908558860249243 1.7978582008564485 33 33 35
0.5846531309478171 2.9293229709001887 1.7976786762158878 23 24 26
0.6023497201726229 2.9574011927236796 1.7979083505929523 17 18 20
0.6190435514671915 2.9849371201552963 1.7980981132013172 15 15 17
0.6217001140955782 3.003361741410554 1.79776814679595 14 14 16
0.6084838521665612 3.0113666261472263 1.7968534910335205 14 14 16
0.5926909041526978 3.0176366430931103 1.79584503387167 14 14 18
0.5812787441445666 3.026772853388171 1.7949981925858085 15 14 19
0.5723265263952613 3.0375262585429734 1.7942419048280018 16 15 20
0.5514145842486091 3.0402724309622213 1.7930490777923964 18 18 23
0.545548094662855 3.0530475088482794 1.792406557029711 20 21 26
0.5600910254285258 3.0795703313747698 1.7925068595564804 29 30 34
0.5527492212051701 3.091405354944252 1.7918092654343278 39 40 42
0.5413375831208131 3.1004777533605834 1.7909640887937925 30 31 31
0.5334432324945477 3.11192167122654 1.7902468691771016 37 38 37
0.5456396689445029 3.137080584411637 1.7902562109887432 48 48 50
0.5339396229995703 3.145953761820266 1.7894006643848501 62 62 64
0.520712916836628 3.1537534944633117 1.7884907097493148 76 76 76
0.5070580207024116 3.1612267778668914 1.7875661458315037 76 76 76
0.4820779719645718 3.160824090955737 1.786235735029813 76 76 76
0.475073428503892 3.1728252883627475 1.7855519805090891 72 71 73
0.6146489460134272 3.2870422296883772 1.790113921671086 69 67 70
0.6027164129576164 3.295947424570377 1.789245075752376 61 59 62
0.5851012195044683 3.300837865217547 1.7881741973860887 58 56 59
0.5603333486497137 3.300636241209758 1.7868500178624465 55 53 57
0.5312935521783013 3.2973270063050846 1.7853762571889045 46 44 49
0.4935089066916658 3.2877051115667904 1.7835950452534888 38 35 41
0.46186732908519534 3.2823054405396817 1.7820352558043284 35 33 38
0.4403930162146381 3.2840475403824505 1.7808379972132224 33 32 37
0.6255257058050712 3.433822794809349 1.7869331090494707 30 29 34
0.6167051603503402 3.445030437200707 1.7861722382854353 31 30 35
0.6128889557855015 3.4598408844232464 1.7855875585262386 35 34 39
0.6120361142688262 3.476813018967417 1.7851064870723279 38 37 42
0.5850972640315697 3.4748584180054283 1.7837107458557482 39 38 43
0.5481478012789687 3.4655052154567465 1.7819674688149225 40 39 44
0.5507893845918996 3.484970633866073 1.7816100043072243 47 48 52
0.5761211038156222 3.521141781065455 1.782041908836173 48 49 53
0.5703579053082075 3.534567643897047 1.7813882407690937 56 57 61
0.6068266452625193 3.5792151848477602 1.7822004951727652 52 53 57
0.5967420931823502 3.5895537674603752 1.7813940716028733 52 52 56
0.5923517104172913 3.60411426670794 1.780784984937908 53 53 58
0.6393321688772735 3.6570450416129505 1.78194898187197 52 52 56
0.6830177207808124 3.7077791097231834 1.7829924739409437 50 50 54
0.7291283242050377 3.7605921031640337 1.7841128045115682 49 50 54
0.7317793385674141 3.7808951755911258 1.7837343622326454 51 51 56
0.6884555871873272 3.7664555358271636 1.7817794176860835 54 54 58
0.6744313563579796 3.774079803225532 1.7808311582910028 61 60 65
0.679238315440188 3.796015599090997 1.7805265549933929 64 65 69
0.7223793241113168 3.847314707897633 1.7815263280934883 71 72 75
0.808494558807586 3.931829658582864 1.78398071815432 81 83 83
0.8455859730083075 3.979097598040476 1.784759185590641 96 98 97
0.8613622942674872 4.0101361781796925 1.7848098680126416 133 135 134
0.8596141166293882 4.0277182203464745 1.7842650989618023 166 167 167
0.8525449465731163 4.041193532451419 1.783540068021759 175 175 175
0.8377147219289045 4.04861830616398 1.782553665583674 177 177 177
0.8304104703360151 4.061892580994389 1.7818211734145228 177 177 177
0.7221207614247886 3.9958972059637388 1.7777016405803745 177 177 177
1.5319903349605792 2.5500917778062018 1.8732410874420358 174 174 172
1.4682171655940424 2.533299506876584 1.870143498998914 175 174 172
1.4012903579511318 2.514596544254683 1.8669195750195386 171 170 168
1.331670538276668 2.494207597774596 1.8635891193052692 154 153 151
1.2470001566444981 2.4655079719346196 1.859635657690229 97 96 94
1.1681020551117283 2.4395783735362824 1.8559315047087062 82 80 79
1.1438092886109934 2.4427699989589957 1.854513312745841 83 81 83
1.2107052971031373 2.4952218621655815 1.8568969588444626 63 61 64
1.0620939789130002 2.4309381454231005 1.8503035946560573 49 48 53
1.0998173369758193 2.4676529847991757 1.8514704278241558 48 48 51
1.1049037113455913 2.486692725188285 1.851277669090595 48 48 50
1.1273277056640914 2.51531156987312 1.8518024493250391 52 52 54
1.1363811258142364 2.5366798803515898 1.8517704735171445 62 62 64
1.1464617363899283 2.5586858223513245 1.8517792673265059 67 67 70
1.155363386731774 2.580109630380698 1.851737547793974 71 70 75
1.1349215509965058 2.5852241991894243 1.8504838179816308 71 71 73
1.1841407226346803 2.629311551621102 1.8521010495094976 70 70 72
1.3199507829230772 2.722345876984698 1.8572744920378812 67 67 69
1.0162063577935303 2.5678153288098295 1.844373439500468 65 65 67
0.9463167231466193 2.5445453612047717 1.8410996995892956 64 64 66
0.9007857483492321 2.5348608003361974 1.8388309137429637 60 60 62
0.8730138944045709 2.5351507727086373 1.8372930722700367 53 53 55
0.8799891934640889 2.5552708958763892 1.837177576024423 48 48 52
0.9302441825036836 2.6003595027065853 1.8388270174735228 47 46 51
0.9827176158371886 2.646979702139732 1.840560671274738 46 45 50
1.0508634539003636 2.7029488107019066 1.8429258060756037 44 43 48
0.8278343353268486 2.58975392904128 1.833446256788261 44 43 48
0.8192132207283241 2.6008871817492047 1.832694471960172 38 37 42
0.8705157297692008 2.647158305324317 1.8343722643745437 37 36 41
0.8181869934064928 2.6326759770928847 1.831848035373646 37 36 41
0.7680314791161668 2.6192763066114884 1.8294166812872033 36 35 40
0.8495094253915277 2.683763709419857 1.832304951252271 35 34 39
1.0491001554780959 2.81896568380005 1.8399458774503359 33 33 37
1.2754367452783497 2.9710708336735303 1.8486408887167403 32 32 34
1.0777975036061629 2.8698992063747104 1.8402619444670894 30 30 32
1.0260813293591216 2.855733136251538 1.8377636183538426 27 27 29
0.9364994104259088 2.8184840773611564 1.8337518922204026 24 25 27
0.8539288740818871 2.785117275341247 1.830030131163506 27 28 30
0.8058912603731787 2.772434364857099 1.8276976946604124 20 21 23
0.7116279614666239 2.731319216552581 1.8235240190341342 17 18 20
0.681025135685003 2.7288536173917004 1.8218986189434452 18 19 21
0.651729481718031 2.727084820199952 1.8203279493039073 17 18 20
0.6282180413530707 2.7287875232153174 1.818989816068934 17 18 20
0.6155933320475051 2.737164964955909 1.818085849859242 16 17 19
0.6126840859234892 2.7515622067981305 1.817567770318059 17 18 20
0.6063188187500475 2.76381778600998 1.816912428598061 17 18 20
0.5843175244143233 2.7662718521525544 1.8156388569536897 17 18 20
0.5373607627342507 2.752953033285473 1.813381792064899 16 17 19
0.5370266849945511 2.768893079214707 1.8129673070246486 15 16 18
0.5206063976792277 2.7746662718176984 1.8119188582501558 15 16 18
0.5230970892506952 2.7924241538808987 1.8116148904853897 15 16 18
0.48488100558668323 2.784235870645066 1.8097120834299674 17 18 20
0.49660833547321115 2.8079021985235366 1.809770378953778 25 26 28
0.5056555966165877 2.8299299383685876 1.8097216784334609 31 32 36
0.5177671144594882 2.854007872972698 1.8097909208925755 37 36 41
0.5012984566060719 2.859661969444664 1.808742765449531 40 39 44
0.48751911886959043 2.8670185277473603 1.8078005288240908 39 38 43
0.46282768562332577 2.8672234765345372 1.8064345763320575 36 35 40
0.5592760519927635 2.9466512573757395 1.809776702866978 36 34 39
0.5729454929339501 2.9721743925988413 1.809895899912294 30 28 33
0.5769967464400483 2.991451303821365 1.8096401977076089 22 20 25
0.5744907444325023 3.0064399474123884 1.80912964789427 17 16 22
0.5657265552349648 3.017292789703713 1.8083769450939589 14 13 18
0.5604204696989927 3.030440710934663 1.8077578072223242 14 13 17
0.5512885880340146 3.0410368878071026 1.8069912167048212 14 15 17
0.5566850013641165 3.0613723797493004 1.8067833493008918 14 15 20
0.5481060901797534 3.072352938537268 1.806037684582649 14 15 19
0.5533528076539573 3.092669463008878 1.8058220380390142 17 18 20
0.5448634022272849 3.1037264040564834 1.8050794084817774 24 24 25
0.4971526283280898 3.0880791151041382 1.802838643441375 20 20 20
0.5006545432695184 3.107216570218481 1.8025561297819503 26 26 28
0.5252322541601799 3.1408490910245854 1.8030750333783343 45 45 47
0.5066683848360904 3.144957713292806 1.8019498024435452 64 64 64
0.5153279367161416 3.1678002281954507 1.801859488224177 59 59 59
0.5010704902102803 3.17484374928003 1.800898679030323 68 68 68
0.48564285237388116 3.18103785759807 1.799894481035947 75 74 76
