ply
format ascii 1.0
element vertex 883
property float x
property float y
property float z
property float nx
property float ny
property float nz
property uchar diffuse_red
property uchar diffuse_green
property uchar diffuse_blue
property uchar class
property uchar detection
end_header
1.4087 2.7246 0.5128 0.237 -0.468 0.851 34 34 36 0 0
1.3028 2.3106 0.5563 -0.217 -0.678 -0.702 31 31 33 0 0
1.2055 2.1333 0.5868 -0.262 -0.893 -0.365 34 34 36 0 0
1.1679 2.1733 0.5935 -0.354 -0.860 -0.367 33 33 35 0 0
0.8914 2.3067 0.6507 0.028 -0.076 -0.997 13 13 15 0 0
1.5181 3.5926 0.4630 0.645 -0.644 -0.412 31 31 35 0 0
1.3977 3.1443 0.5108 -0.020 -0.550 -0.835 32 32 34 0 0
1.4155 2.8439 0.5203 0.070 -0.932 0.356 32 32 34 0 0
1.4065 2.8304 0.5230 0.958 -0.140 -0.252 32 32 34 0 0
1.4010 2.7471 0.5280 0.662 -0.287 0.692 34 34 36 0 0
1.3164 2.2910 0.5679 -0.236 -0.605 -0.760 32 32 34 0 0
1.4096 2.8310 0.5368 0.909 -0.243 -0.339 31 31 33 0 0
1.4160 2.7863 0.5373 0.588 -0.282 0.758 31 31 33 0 0
1.4042 2.7788 0.5403 0.514 -0.424 0.746 32 32 34 0 0
1.2546 2.2451 0.5980 -0.654 -0.733 -0.186 40 40 42 0 0
0.9524 2.2935 0.6655 -0.705 -0.708 -0.025 16 16 18 0 0
0.7083 2.0315 0.7331 -0.617 -0.558 -0.554 63 63 63 0 0
1.4152 2.8266 0.5503 0.819 -0.250 -0.516 31 31 33 0 0
0.9426 2.3158 0.6810 -0.727 -0.686 0.037 17 17 19 0 0
1.4221 2.6938 0.5687 0.880 -0.146 0.452 30 30 32 0 0
1.3533 2.6472 0.5865 0.782 -0.341 0.521 33 33 35 0 0
0.9770 2.2890 0.6882 -0.677 -0.587 -0.445 19 19 21 0 0
1.5226 3.1447 0.5422 0.566 -0.818 0.103 26 26 28 0 0
1.5118 3.1338 0.5451 0.673 -0.740 -0.012 28 28 30 0 0
1.4328 2.7727 0.5775 0.998 -0.066 0.017 28 28 30 0 0
1.4182 2.7084 0.5834 0.897 -0.207 0.392 29 29 31 0 0
1.3930 2.6665 0.5909 0.549 -0.676 0.492 30 30 32 0 0
1.1239 2.1199 0.6748 0.153 -0.259 -0.954 23 23 25 0 0
0.8115 1.9089 0.7556 -0.044 -0.423 -0.905 51 51 53 0 0
1.5247 3.6589 0.5375 0.765 -0.630 -0.135 34 34 36 0 0
1.5235 3.1503 0.5568 0.538 -0.843 -0.001 26 26 28 0 0
1.5143 3.1359 0.5595 0.673 -0.740 -0.012 28 28 30 0 0
1.4219 2.8983 0.5899 0.950 -0.068 -0.304 22 22 24 0 0
1.1426 2.0928 0.6851 0.153 -0.259 -0.954 22 22 24 0 0
0.9369 2.3155 0.7248 -0.775 -0.560 -0.293 19 19 21 0 0
1.5160 3.1401 0.5740 0.750 -0.661 -0.033 28 28 30 0 0
1.1760 2.0661 0.6920 -0.284 -0.531 -0.798 25 25 27 0 0
1.5304 3.5868 0.5703 -0.318 -0.910 0.267 30 28 32 0 0
1.4122 2.7100 0.6281 0.956 -0.292 0.039 26 26 28 0 0
1.3797 2.6214 0.6388 0.174 -0.977 -0.123 25 25 27 0 0
1.3672 2.6159 0.6419 0.287 -0.942 0.172 23 23 25 0 0
1.3522 2.6152 0.6455 0.647 -0.497 -0.578 23 23 25 0 0
1.3234 2.4928 0.6564 0.295 -0.780 0.551 31 31 33 0 0
1.3060 2.4969 0.6603 0.958 -0.252 -0.138 31 31 33 0 0
1.2882 2.4727 0.6654 0.656 -0.588 -0.473 33 33 35 0 0
1.2070 2.0434 0.6991 -0.122 -0.448 -0.886 28 28 30 0 0
0.8532 2.0530 0.7818 -0.488 -0.718 -0.496 85 81 80 0 0
0.8312 2.0636 0.7866 -0.438 -0.673 -0.596 86 82 81 0 0
0.8417 1.9242 0.7889 0.740 0.142 -0.658 47 47 49 0 0
1.6090 3.4872 0.5708 -0.131 -0.969 -0.211 32 33 35 0 0
1.3748 2.6684 0.6528 0.699 -0.147 -0.700 23 23 25 0 0
1.3526 2.6513 0.6585 0.754 -0.315 -0.576 22 22 24 0 0
1.3270 2.4921 0.6698 0.664 -0.535 0.522 28 28 30 0 0
1.2915 2.5017 0.6778 0.422 -0.334 -0.843 28 28 30 0 0
1.2656 2.4927 0.6842 -0.066 -0.402 -0.913 31 31 33 0 0
0.9218 2.0466 0.7798 -0.193 -0.571 -0.798 59 58 60 0 0
0.8420 2.0512 0.7984 -0.427 -0.754 -0.499 88 84 83 0 0
1.2844 2.4633 0.6949 0.091 -0.341 -0.936 28 28 30 0 0
1.2671 2.4672 0.6989 0.314 -0.611 -0.727 29 29 31 0 0
0.9408 2.0205 0.7899 0.036 -0.820 -0.571 59 57 60 0 0
0.9354 2.0044 0.7917 0.128 -0.756 -0.643 82 80 78 0 0
1.6186 3.4821 0.5997 0.015 -0.994 0.110 34 34 37 0 0
1.5156 3.6094 0.6203 0.502 -0.847 -0.175 29 29 31 0 0
1.2733 2.4617 0.7118 0.220 -0.847 -0.483 26 26 28 0 0
1.2754 2.4288 0.7123 -0.420 -0.906 0.052 27 27 29 0 0
1.5340 3.6133 0.6316 -0.128 -0.792 -0.596 30 30 32 0 0
1.5293 3.5862 0.6335 0.044 -0.999 -0.014 30 30 32 0 0
1.4868 3.0032 0.6600 0.994 0.106 -0.027 36 36 38 0 0
1.5368 3.5772 0.6477 -0.130 -0.991 0.033 30 30 32 0 0
1.4404 2.8135 0.6911 0.915 -0.291 0.279 21 21 23 0 0
1.2658 2.4594 0.7421 -0.134 -0.990 -0.052 24 24 26 0 0
1.6509 3.5078 0.6379 0.882 -0.357 -0.306 60 62 62 0 0
0.8654 1.9648 0.8644 0.019 -0.325 -0.946 102 101 99 0 0
1.6388 3.5073 0.6564 0.576 -0.714 -0.398 46 46 51 0 0
0.8595 1.9304 0.8804 0.166 -0.371 -0.914 99 96 98 0 0
0.8402 1.9368 0.8849 -0.057 -0.462 -0.885 90 87 89 0 0
0.8260 1.9350 0.8883 -0.150 -0.536 -0.831 72 70 72 0 0
0.8100 1.9360 0.8921 -0.338 -0.637 -0.693 63 63 65 0 0
0.8020 1.9244 0.8943 -0.388 -0.617 -0.685 59 59 61 0 0
1.6454 3.5004 0.6706 0.510 -0.678 -0.529 45 46 50 0 0
0.8538 1.8718 0.8967 0.281 -0.959 0.044 70 68 71 0 0
0.8407 1.8685 0.9000 0.047 -0.999 0.029 62 61 64 0 0
0.8033 1.8791 0.9087 -0.564 -0.538 -0.626 54 53 57 0 0
1.6517 3.4940 0.6848 0.380 -0.696 -0.609 47 48 52 0 0
0.9467 1.8494 0.8885 -0.386 -0.554 -0.738 85 83 84 0 0
0.8177 1.8615 0.9193 -0.285 -0.939 0.192 59 57 60 0 0
1.6558 3.4931 0.6994 0.109 -0.982 -0.156 47 49 53 0 0
1.0051 1.8815 0.8873 -0.712 -0.501 -0.492 55 53 54 0 0
0.9731 1.8604 0.8954 0.684 0.214 -0.698 67 65 70 0 0
0.9213 1.8952 0.9073 0.592 -0.446 -0.671 77 75 76 0 0
1.6541 3.6615 0.7124 0.936 0.144 -0.321 57 57 59 0 0
1.6635 3.4835 0.7132 0.549 -0.822 0.151 49 50 54 0 0
1.4685 2.7657 0.7731 -0.051 -0.537 -0.842 26 26 28 0 0
1.6603 3.6555 0.7268 0.929 0.152 -0.337 62 63 65 0 0
1.6658 3.4870 0.7282 0.327 -0.942 0.079 50 50 54 0 0
1.5280 3.3234 0.7643 0.994 0.103 -0.040 25 25 27 0 0
1.4412 2.7339 0.7948 0.643 -0.469 -0.606 23 23 25 0 0
0.8071 1.8448 0.9631 0.487 -0.431 0.759 60 60 61 0 0
1.6821 3.4951 0.7397 0.898 -0.423 -0.117 65 65 67 0 0
1.6666 3.4939 0.7435 0.371 -0.886 0.278 52 53 57 0 0
1.1442 1.7652 0.8958 0.460 -0.005 -0.888 35 35 37 0 0
0.7770 1.8489 0.9841 0.875 -0.154 0.460 47 47 49 0 0
1.6681 3.4991 0.7586 0.366 -0.871 0.328 53 53 58 0 0
0.6568 1.8066 1.0414 -0.613 -0.787 -0.061 38 38 40 0 0
1.6755 3.4990 0.7880 0.422 -0.852 -0.310 55 56 59 0 0
0.8740 1.7599 1.0022 -0.631 -0.679 -0.375 15 15 17 0 0
0.7773 1.8154 1.0254 0.199 -0.368 -0.908 17 17 17 0 0
0.7631 1.7670 1.0294 0.243 -0.475 -0.846 36 35 40 0 0
1.6898 3.5121 0.8000 0.770 -0.397 -0.500 65 66 69 0 0
1.6804 3.4962 0.8024 0.422 -0.852 -0.310 57 59 60 0 0
1.4090 2.7084 0.8759 0.227 -0.502 -0.835 35 35 37 0 0
0.9784 1.9859 0.9881 0.966 0.256 0.037 38 37 42 0 0
0.8023 1.7818 1.0332 -0.394 -0.711 -0.582 14 14 18 0 0
0.6385 1.8200 1.0733 -0.487 -0.865 0.123 40 40 42 0 0
0.6124 1.8356 1.0796 -0.487 -0.865 0.123 40 40 42 0 0
1.6652 3.5031 0.8218 0.483 -0.775 -0.408 41 41 43 0 0
0.6154 1.8357 1.0927 -0.487 -0.865 0.123 41 41 43 0 0
1.6712 3.4974 0.8359 0.483 -0.731 -0.481 42 42 44 0 0
1.4119 2.6851 0.9045 0.667 -0.698 -0.260 44 44 45 0 0
1.4089 2.6601 0.9054 0.740 -0.465 -0.486 42 42 44 0 0
1.3422 2.3156 0.9237 -0.137 -0.370 -0.919 26 25 28 0 0
0.9840 1.6956 1.0158 0.281 -0.948 0.150 38 38 40 0 0
0.9457 1.6623 1.0255 0.857 -0.515 0.035 29 29 31 0 0
0.8063 1.7615 1.0595 -0.662 -0.748 -0.041 16 16 18 0 0
0.6978 1.7406 1.0866 0.623 -0.544 0.562 42 42 44 0 0
0.6148 1.8411 1.1066 -0.531 -0.839 0.123 41 41 42 0 0
1.3940 2.6351 0.9237 0.227 -0.837 -0.498 47 45 46 0 0
1.3827 2.6269 0.9266 0.019 -0.545 -0.838 47 45 46 0 0
1.3669 2.6278 0.9305 -0.002 -0.623 -0.782 46 45 47 0 0
1.3595 2.6118 0.9324 0.392 -0.734 -0.554 44 43 48 0 0
1.3579 2.5546 0.9330 0.844 -0.245 -0.478 40 39 44 0 0
1.2905 2.3056 0.9507 0.413 -0.242 0.878 27 28 32 0 0
0.9309 1.6669 1.0425 0.832 -0.439 0.340 26 26 28 0 0
0.8979 1.6949 1.0506 0.600 -0.730 -0.329 12 12 14 0 0
0.8640 1.7241 1.0589 -0.574 -0.809 0.124 13 13 15 0 0
0.8131 1.7557 1.0714 -0.638 -0.767 0.070 15 15 17 0 0
1.3777 2.6131 0.9424 -0.029 -0.640 -0.768 49 48 50 0 0
1.3686 2.5402 0.9448 0.566 -0.198 -0.801 47 46 50 0 0
1.0860 1.9030 1.0167 -0.483 -0.710 0.513 33 32 35 0 0
0.9514 1.6861 1.0507 0.213 -0.756 0.619 35 35 37 0 0
0.9372 1.6850 1.0542 0.213 -0.756 0.619 37 37 39 0 0
0.9285 1.6752 1.0564 0.792 -0.532 0.300 27 27 29 0 0
0.8685 1.7218 1.0713 -0.533 -0.833 0.146 12 12 14 0 0
0.6509 1.8198 1.1254 -0.445 -0.857 0.259 40 40 42 0 0
1.3853 2.6660 0.9549 0.957 -0.262 0.128 50 50 50 0 0
1.3812 2.6433 0.9560 0.808 -0.459 0.370 51 51 51 0 0
1.3738 2.5367 0.9579 -0.311 -0.722 0.619 49 49 51 0 0
1.3569 2.3064 0.9623 0.294 -0.674 -0.678 46 45 50 0 0
0.9975 1.7357 1.0525 0.208 -0.978 0.012 15 15 17 0 0
0.9731 1.7036 1.0586 0.056 -0.998 -0.004 15 15 17 0 0
0.9613 1.6986 1.0616 0.145 -0.988 0.057 19 19 21 0 0
0.9571 1.6818 1.0626 0.584 -0.633 -0.508 31 31 33 0 0
0.9448 1.6778 1.0657 0.788 -0.507 -0.349 36 36 38 0 0
0.9279 1.6809 1.0700 0.466 -0.877 -0.118 27 27 29 0 0
0.7583 1.7557 1.1123 0.082 -0.996 -0.018 39 39 41 0 0
0.6515 1.8236 1.1390 -0.463 -0.839 0.286 40 40 42 0 0
1.6919 3.7199 0.8936 0.980 0.165 -0.112 59 58 61 0 0
1.4104 2.7157 0.9633 0.765 -0.596 0.244 50 50 51 0 0
1.2199 2.0690 1.0104 -0.364 -0.931 -0.025 23 23 25 0 0
1.1935 2.0892 1.0171 0.232 -0.922 0.311 22 22 24 0 0
1.1747 2.0958 1.0218 -0.097 -0.909 0.406 20 20 22 0 0
1.0314 1.8304 1.0575 0.939 -0.269 -0.216 19 19 21 0 0
1.0518 1.7729 1.0523 0.703 -0.644 0.302 19 19 21 0 0
1.0069 1.7256 1.0636 0.312 -0.948 -0.063 16 16 18 0 0
0.7838 1.7914 1.1196 0.834 0.052 -0.549 17 17 19 0 0
0.6514 1.8282 1.1528 -0.477 -0.826 0.301 40 40 42 0 0
1.6560 3.9004 0.9191 0.985 0.175 0.001 131 131 131 0 0
1.6944 3.7232 0.9090 0.983 0.174 -0.056 63 62 67 0 0
1.6905 3.4956 0.9094 0.766 -0.619 -0.175 47 46 51 0 0
1.3971 2.7495 0.9813 0.468 -0.833 -0.295 45 45 46 0 0
1.3810 2.7506 0.9854 0.144 -0.880 -0.452 47 47 47 0 0
1.3679 2.7456 0.9887 0.279 -0.914 -0.293 48 48 48 0 0
1.2297 2.0574 1.0217 -0.162 -0.985 0.055 26 26 28 0 0
1.2154 2.0562 1.0253 0.096 -0.993 -0.074 24 24 26 0 0
1.2026 2.0523 1.0285 0.544 -0.805 0.239 22 22 24 0 0
1.0512 1.7789 1.0660 0.748 -0.590 0.303 18 18 20 0 0
1.0415 1.7705 1.0684 0.773 -0.624 0.117 17 17 19 0 0
1.0177 1.7369 1.0743 0.394 -0.912 0.112 16 16 18 0 0
0.9701 1.7415 1.0863 0.427 -0.902 0.064 15 15 17 0 0
0.6522 1.8317 1.1665 -0.497 -0.814 0.300 40 40 42 0 0
1.6920 3.7385 0.9257 0.980 0.140 -0.141 64 63 68 0 0
1.7122 3.6085 0.9200 0.979 -0.099 -0.180 39 38 42 0 0
1.7071 3.5033 0.9209 0.979 -0.082 -0.186 64 65 68 0 0
1.6853 3.5170 0.9265 0.415 -0.826 -0.381 48 48 53 0 0
1.3254 2.5309 1.0133 0.960 -0.143 -0.241 38 38 41 0 0
1.2383 2.0476 1.0333 -0.003 -0.995 0.098 30 31 32 0 0
1.1336 1.9191 1.0592 0.579 -0.686 0.441 25 26 28 0 0
1.0518 1.7829 1.0793 0.580 -0.766 0.277 18 18 20 0 0
1.0378 1.7814 1.0828 0.837 -0.544 -0.064 17 17 19 0 0
1.0016 1.7437 1.0918 0.103 -0.983 0.155 18 17 21 0 0
0.8034 1.7706 1.1419 0.557 -0.577 -0.597 18 18 20 0 0
0.7938 1.7620 1.1443 0.758 -0.341 -0.556 27 26 29 0 0
0.6864 1.8083 1.1716 -0.560 -0.779 0.283 38 38 40 0 0
1.6993 3.7299 0.9398 0.963 0.152 -0.223 71 70 75 0 0
1.7090 3.5465 0.9363 0.974 -0.094 -0.206 72 72 74 0 0
1.7099 3.5055 0.9359 0.961 -0.044 -0.272 64 66 68 0 0
1.6892 3.5166 0.9412 0.172 -0.878 -0.446 48 50 53 0 0
1.2645 2.4480 1.0427 0.908 -0.413 0.072 33 33 36 0 0
1.2559 2.4352 1.0448 0.591 -0.500 0.633 33 34 36 0 0
1.0621 1.9437 1.0911 -0.107 -0.796 0.595 25 25 27 0 0
1.0569 1.8039 1.0916 0.809 -0.521 -0.272 21 21 23 0 0
1.0525 1.7868 1.0926 0.633 -0.769 0.084 18 18 20 0 0
1.0343 1.7679 1.0971 0.738 -0.609 0.291 23 23 25 0 0
0.9912 1.7414 1.1079 0.187 -0.965 0.185 21 19 21 0 0
0.8303 1.7575 1.1487 -0.543 -0.826 0.149 15 15 17 0 0
0.8074 1.7693 1.1546 0.487 -0.750 -0.448 16 16 18 0 0
0.7973 1.7613 1.1570 0.600 -0.704 -0.379 26 26 29 0 0
0.5738 1.8877 1.2143 0.260 -0.937 0.231 82 82 83 0 0
0.5637 1.8793 1.2168 0.327 -0.913 0.245 166 165 163 0 0
1.6967 3.7457 0.9566 0.938 0.147 -0.314 81 80 85 0 0
1.7171 3.5752 0.9502 0.983 -0.058 -0.172 53 51 55 0 0
1.7142 3.5431 0.9507 0.997 -0.051 -0.062 72 72 74 0 0
1.7111 3.5115 0.9513 0.990 -0.127 -0.055 65 68 69 0 0
1.6934 3.5156 0.9558 0.624 -0.780 -0.055 49 52 53 0 0
1.6764 3.5175 0.9601 0.412 -0.904 -0.115 38 39 41 0 0
1.6571 3.5253 0.9651 0.097 -0.993 -0.071 34 34 37 0 0
1.2754 2.4920 1.0546 0.886 -0.464 -0.007 16 16 18 0 0
1.2655 2.4524 1.0568 0.892 -0.428 0.147 18 18 20 0 0
1.2345 2.4817 1.0649 0.734 -0.600 0.318 20 20 22 0 0
1.2348 2.4522 1.0646 0.935 -0.354 0.031 21 21 23 0 0
1.2379 2.4176 1.0636 0.445 -0.390 -0.806 23 22 27 0 0
1.2292 2.4053 1.0657 0.990 -0.119 -0.081 27 26 31 0 0
1.1777 2.1129 1.0767 0.942 -0.168 0.289 34 34 38 0 0
1.0612 1.8017 1.1040 0.496 -0.433 -0.752 21 21 23 0 0
1.0090 1.7417 1.1168 0.350 -0.936 -0.025 44 42 43 0 0
0.9903 1.7477 1.1216 0.026 -0.978 -0.209 16 14 15 0 0
0.8033 1.7568 1.1691 0.421 -0.781 -0.461 27 27 30 0 0
1.7019 3.7423 0.9714 0.943 0.142 -0.301 73 72 77 0 0
1.7155 3.5491 0.9662 0.997 -0.051 -0.062 72 73 74 0 0
1.7126 3.5168 0.9667 0.990 -0.127 -0.055 67 70 70 0 0
1.6793 3.5197 0.9752 0.265 -0.950 -0.162 38 39 40 0 0
1.3233 2.4949 1.0569 0.600 -0.496 0.628 16 16 18 0 0
1.3144 2.4825 1.0590 0.788 -0.331 0.519 16 16 18 0 0
1.1831 2.0562 1.0887 0.682 -0.376 -0.627 31 31 36 0 0
1.0756 1.7832 1.1137 0.614 -0.764 -0.198 22 22 25 0 0
1.0116 1.7423 1.1296 0.350 -0.936 -0.025 62 60 62 0 0
0.7962 1.7725 1.1847 -0.031 -0.927 0.375 28 27 30 0 0
0.5885 1.8986 1.2387 0.288 -0.903 0.320 48 48 51 0 0
0.5748 1.8955 1.2421 0.288 -0.903 0.320 73 73 74 0 0
0.5608 1.8695 1.2455 0.885 -0.394 0.250 172 170 170 0 0
1.6869 3.8715 0.9926 0.965 0.132 -0.224 96 95 97 0 0
1.7192 3.5884 0.9814 0.992 -0.029 -0.121 59 60 63 0 0
1.7181 3.5517 0.9813 0.992 -0.029 -0.121 73 75 74 0 0
1.7173 3.5145 0.9812 0.992 -0.031 -0.126 68 69 67 0 0
1.1865 2.0295 1.1014 0.895 -0.385 -0.224 34 33 39 0 0
1.1600 1.9206 1.1071 0.834 -0.404 -0.375 23 24 26 0 0
1.0763 1.7870 1.1271 0.677 -0.735 0.034 25 25 29 0 0
1.0676 1.7770 1.1292 0.150 -0.983 -0.106 23 23 26 0 0
1.0159 1.7403 1.1420 0.308 -0.923 -0.232 27 25 27 0 0
0.8209 1.7393 1.1918 0.022 -0.974 0.224 28 28 30 0 0
0.8085 1.7349 1.1949 0.110 -0.958 0.266 34 34 36 0 0
0.5746 1.9004 1.2562 0.288 -0.903 0.320 78 77 78 0 0
0.5141 1.8962 1.2716 0.945 -0.260 0.200 174 174 174 0 0
1.7185 3.5994 0.9976 0.986 0.046 -0.160 55 56 59 0 0
1.7202 3.5557 0.9966 0.977 0.030 -0.211 71 73 72 0 0
1.1733 2.5568 1.1248 0.108 -0.262 0.959 14 14 16 0 0
1.1939 1.9960 1.1129 0.836 -0.541 0.090 34 35 39 0 0
1.1933 1.9712 1.1128 0.748 -0.656 -0.105 31 32 35 0 0
1.0766 1.7673 1.1403 -0.031 -0.895 -0.445 29 29 30 0 0
0.6934 1.8210 1.2389 -0.503 -0.840 0.203 39 39 41 0 0
0.6091 1.9007 1.2615 -0.018 -0.921 0.390 46 45 48 0 0
1.7279 3.6252 1.0114 0.993 0.015 -0.113 43 44 48 0 0
1.7204 3.6040 1.0130 0.965 0.069 -0.254 49 50 53 0 0
1.7231 3.5578 1.0117 0.944 0.050 -0.326 69 71 70 0 0
1.7247 3.5146 1.0107 0.923 -0.033 -0.383 72 72 72 0 0
1.6702 3.4909 1.0244 0.108 -0.854 -0.508 34 33 38 0 0
1.1788 2.0018 1.1306 0.848 -0.251 0.467 37 38 41 0 0
1.0817 1.7639 1.1524 0.085 -0.885 -0.458 36 36 37 0 0
0.8345 1.7510 1.2156 -0.251 -0.740 -0.624 22 22 24 0 0
0.6607 1.8514 1.2616 -0.434 -0.818 0.377 46 46 48 0 0
0.6660 1.8201 1.2598 -0.404 -0.772 0.491 50 49 52 0 0
1.7292 3.6314 1.0270 0.993 0.039 -0.112 39 40 43 0 0
1.7243 3.6035 1.0279 0.965 0.069 -0.254 46 47 48 0 0
1.7271 3.5570 1.0264 0.964 0.058 -0.258 69 71 70 0 0
1.7286 3.5140 1.0254 0.947 -0.080 -0.311 71 72 73 0 0
1.6892 3.4929 1.0353 0.242 -0.881 -0.407 34 35 39 0 0
1.6753 3.4875 1.0387 0.242 -0.881 -0.407 33 34 38 0 0
0.6910 1.8339 1.2674 -0.506 -0.811 0.292 49 49 50 0 0
0.6583 1.8597 1.2762 -0.435 -0.808 0.397 48 48 50 0 0
0.5740 1.9153 1.2987 0.288 -0.903 0.320 125 124 124 0 0
1.7334 3.6304 1.0418 0.961 0.070 -0.266 43 44 46 0 0
1.7297 3.5599 1.0416 0.975 0.073 -0.208 69 71 70 0 0
1.7335 3.5113 1.0399 0.960 -0.055 -0.276 71 72 73 0 0
1.7103 3.4897 1.0455 0.389 -0.815 -0.430 46 46 49 0 0
1.6956 3.4864 1.0492 0.350 -0.870 -0.346 35 36 40 0 0
1.5878 3.4741 1.0769 -0.309 -0.900 -0.308 25 26 28 0 0
1.5691 3.4796 1.0817 -0.601 -0.787 0.141 23 24 26 0 0
1.1220 2.7016 1.1843 -0.291 -0.661 0.692 11 11 13 0 0
1.1706 2.0007 1.1603 0.895 -0.437 0.089 44 43 48 0 0
1.1196 1.8093 1.1703 0.833 -0.488 0.261 32 32 34 0 0
0.5878 1.9231 1.3094 -0.085 -0.890 0.449 89 87 88 0 0
0.5786 1.9132 1.3116 0.900 -0.141 -0.412 156 155 154 0 0
0.5759 1.8937 1.3120 0.924 -0.198 -0.328 173 172 170 0 0
1.7323 3.5627 1.0568 0.994 0.055 -0.098 70 72 71 0 0
1.7354 3.5156 1.0552 1.000 0.012 -0.016 74 74 75 0 0
1.7342 3.4407 1.0541 0.988 -0.081 -0.128 45 46 49 0 0
1.5837 3.4922 1.0940 0.348 -0.875 0.337 26 27 29 0 0
0.8604 1.7960 1.2507 -0.594 -0.786 0.168 31 31 34 0 0
0.5946 1.9176 1.3216 0.125 -0.970 0.207 127 125 126 0 0
0.5869 1.9054 1.3234 0.848 -0.034 -0.529 170 168 168 0 0
1.7335 3.5293 1.0717 0.999 0.037 0.040 74 75 76 0 0
1.7389 3.4770 1.0693 0.998 0.036 0.042 64 64 66 0 0
1.7343 3.4494 1.0699 0.997 -0.071 0.022 45 46 49 0 0
1.5835 3.5013 1.1101 0.240 -0.777 0.582 28 29 31 0 0
1.5976 2.9990 1.0966 -0.281 -0.935 -0.219 33 33 35 0 0
0.7614 1.8116 1.2904 -0.268 -0.645 0.716 56 56 58 0 0
1.7363 3.5317 1.0868 0.997 0.034 0.065 73 73 74 0 0
1.7346 3.4577 1.0857 0.997 -0.071 0.022 46 45 49 0 0
1.6605 3.4814 1.1055 0.438 -0.892 0.113 31 30 35 0 0
1.0674 2.7033 1.2434 0.354 -0.883 -0.308 12 12 14 0 0
0.5980 1.9695 1.3500 0.850 0.083 -0.519 133 133 131 0 0
1.7370 3.5391 1.1026 0.992 -0.005 -0.124 73 73 73 0 0
1.7382 3.4970 1.1013 0.998 0.011 -0.067 69 69 71 0 0
1.7388 3.4565 1.1002 0.992 -0.058 -0.114 50 50 53 0 0
1.6096 2.9196 1.1218 -0.291 -0.479 -0.828 39 39 41 0 0
1.2654 3.1443 1.2167 -0.296 -0.934 0.201 40 40 42 0 0
1.0729 2.6996 1.2568 0.532 -0.846 -0.040 12 12 14 0 0
1.1600 1.9376 1.2168 0.671 -0.548 -0.499 50 49 54 0 0
1.7397 3.4632 1.1158 0.973 -0.056 -0.226 51 51 54 0 0
1.6018 2.9442 1.1393 0.590 -0.719 -0.367 39 39 41 0 0
1.2780 3.1259 1.2285 0.152 -0.980 -0.129 41 41 43 0 0
1.3228 2.8070 1.2090 -0.450 -0.639 0.624 16 16 18 0 0
1.0644 2.6919 1.2738 0.417 -0.905 -0.083 14 14 16 0 0
1.1706 1.9249 1.2275 0.905 -0.411 0.107 51 50 55 0 0
0.6065 2.0144 1.3773 0.991 0.027 -0.131 151 151 150 0 0
1.5903 2.9091 1.1565 -0.274 -0.357 -0.893 33 33 35 0 0
1.2705 2.5780 1.2318 -0.512 -0.689 0.513 8 8 10 0 0
1.0689 2.6900 1.2876 0.551 -0.782 -0.291 14 14 16 0 0
1.0597 2.6773 1.2897 0.323 -0.871 -0.371 15 16 18 0 0
1.0945 1.7828 1.2575 -0.301 -0.912 -0.277 42 42 45 0 0
1.0835 1.7765 1.2602 -0.266 -0.879 -0.396 43 42 45 0 0
1.5972 3.5900 1.1882 -0.822 -0.529 0.209 30 31 35 0 0
1.6298 2.9321 1.1616 0.485 -0.555 -0.676 35 34 39 0 0
1.2371 3.1577 1.2711 0.798 -0.453 -0.397 29 29 31 0 0
1.0836 2.6988 1.2990 0.370 -0.710 -0.599 10 10 12 0 0
1.0733 2.6881 1.3014 0.551 -0.782 -0.291 13 13 15 0 0
1.0736 2.6579 1.3005 0.194 -0.975 -0.110 17 18 20 0 0
1.0593 2.6549 1.3042 -0.060 -0.968 -0.243 17 18 20 0 0
1.0414 2.6582 1.3089 0.144 -0.776 -0.614 13 14 16 0 0
1.0277 2.6541 1.3125 -0.491 -0.766 -0.414 23 24 28 0 0
1.1070 1.7918 1.2680 0.222 -0.914 -0.339 42 41 46 0 0
1.0947 1.7877 1.2712 0.222 -0.914 -0.339 43 42 46 0 0
0.5137 2.1654 1.4343 -0.416 -0.531 0.738 173 173 171 0 0
1.2742 3.1225 1.2759 0.586 -0.807 -0.070 38 37 42 0 0
1.2565 2.7091 1.2686 -0.415 -0.743 -0.525 16 16 18 0 0
1.0795 2.6830 1.3146 0.349 -0.837 -0.421 11 11 13 0 0
1.0775 2.6571 1.3144 0.194 -0.975 -0.110 18 19 21 0 0
1.0633 2.6539 1.3180 0.194 -0.975 -0.110 22 23 25 0 0
1.0329 2.6507 1.3259 -0.119 -0.773 -0.623 16 17 20 0 0
1.1635 1.9274 1.2706 0.710 -0.503 0.493 49 47 51 0 0
0.8314 1.8992 1.3574 0.477 -0.696 0.537 70 69 65 0 0
0.5654 2.1161 1.4338 -0.401 -0.574 0.714 172 172 170 0 0
1.6619 2.8427 1.1804 -0.286 -0.591 -0.754 33 33 36 0 0
1.2983 2.6040 1.2693 -0.221 -0.638 0.737 14 14 16 0 0
1.0853 2.6787 1.3279 0.349 -0.837 -0.421 10 11 13 0 0
1.0823 2.6545 1.3279 0.115 -0.985 -0.132 19 20 22 0 0
1.0649 2.6572 1.3326 0.235 -0.841 -0.488 24 25 27 0 0
1.0406 2.6429 1.3386 0.008 -0.780 -0.625 11 12 14 0 0
1.0216 2.6484 1.3438 -0.483 -0.747 -0.456 30 30 33 0 0
0.8250 1.9386 1.3742 0.380 -0.545 -0.748 60 58 59 0 0
0.8318 1.9036 1.3714 0.021 -0.929 0.371 61 59 60 0 0
1.0844 2.6570 1.3424 0.235 -0.841 -0.488 18 18 20 0 0
1.0308 2.6379 1.3560 -0.273 -0.747 -0.606 19 19 21 0 0
0.8769 1.9103 1.3736 -0.267 -0.927 0.263 58 58 58 0 0
0.8580 1.9159 1.3788 -0.149 -0.969 0.196 59 58 59 0 0
1.0775 2.6465 1.3589 0.199 -0.882 -0.428 22 22 24 0 0
1.0642 2.6415 1.3622 0.175 -0.910 -0.377 29 30 32 0 0
1.0522 2.6341 1.3652 0.182 -0.814 -0.552 19 20 22 0 0
1.0376 2.6316 1.3690 -0.025 -0.880 -0.474 15 15 17 0 0
1.0498 2.0135 1.3590 0.460 -0.887 0.043 18 18 20 0 0
1.0117 1.9500 1.3669 0.399 -0.071 0.914 25 24 30 0 0
0.8493 1.9396 1.4098 0.038 -0.493 0.869 67 66 66 0 0
0.7929 1.9798 1.4263 -0.245 -0.438 0.865 104 102 102 0 0
1.2393 2.5933 1.3436 0.776 -0.619 0.120 13 13 15 0 0
1.2218 2.5670 1.3473 0.078 -0.966 0.246 12 12 14 0 0
1.0605 2.6315 1.3928 0.108 -0.940 -0.325 31 31 34 0 0
0.8535 2.0879 1.4282 0.711 -0.356 -0.606 64 64 63 0 0
0.8474 2.0725 1.4293 0.723 -0.352 -0.595 67 67 66 0 0
0.8425 1.9801 1.4272 0.275 -0.353 0.895 80 80 80 0 0
0.8234 1.9858 1.4325 0.095 -0.509 0.855 102 101 101 0 0
1.6183 2.9431 1.2701 0.164 -0.900 0.404 34 33 38 0 0
1.3111 3.1583 1.3607 0.940 -0.263 -0.219 31 31 33 0 0
1.2952 3.1574 1.3649 0.422 -0.704 -0.572 31 31 33 0 0
1.2537 3.0096 1.3704 0.903 -0.058 0.425 11 11 13 0 0
1.2247 2.5680 1.3613 0.098 -0.994 0.047 10 10 12 0 0
1.2060 2.5735 1.3665 -0.270 -0.958 -0.098 20 20 22 0 0
0.8562 2.1143 1.4427 0.551 -0.509 -0.661 102 102 100 0 0
0.8105 2.0614 1.4530 0.307 -0.175 0.936 137 137 137 0 0
1.3157 3.1561 1.3749 0.811 -0.280 -0.513 29 29 31 0 0
1.2962 3.1629 1.3805 0.434 -0.580 -0.689 31 31 33 0 0
1.2515 3.0539 1.3881 0.961 -0.100 0.257 13 13 15 0 0
1.2548 2.5766 1.3683 0.874 -0.268 -0.406 13 13 15 0 0
1.1439 2.6077 1.3993 -0.075 -0.829 -0.554 9 9 11 0 0
1.0304 2.6112 1.4300 0.283 -0.894 -0.346 23 23 25 0 0
1.0423 2.0941 1.4062 0.789 -0.362 0.497 26 26 29 0 0
1.0048 2.0795 1.4157 -0.262 -0.755 0.602 52 55 56 0 0
0.9750 2.1035 1.4247 -0.455 -0.855 0.251 53 54 56 0 0
0.9570 2.1076 1.4297 0.149 -0.915 0.374 53 53 55 0 0
0.9232 2.1379 1.4399 0.856 -0.516 -0.017 59 58 60 0 0
0.8707 2.1213 1.4534 0.733 -0.377 -0.566 81 81 78 0 0
0.8638 2.1071 1.4547 0.551 -0.509 -0.661 86 86 83 0 0
0.8596 2.0884 1.4551 0.581 -0.690 -0.432 92 92 90 0 0
1.7971 4.0019 1.2958 0.040 -0.982 0.185 171 170 168 0 0
1.1531 2.5968 1.4113 -0.285 -0.848 -0.448 10 9 12 0 0
1.1398 2.5921 1.4147 -0.116 -0.941 -0.317 11 9 12 0 0
1.0455 2.1202 1.4206 0.954 -0.219 0.203 28 28 29 0 0
1.0393 2.1046 1.4216 0.730 -0.485 0.482 22 21 25 0 0
1.0157 2.1185 1.4285 0.243 -0.932 0.269 25 26 28 0 0
0.9988 2.1210 1.4332 -0.395 -0.869 -0.298 27 29 31 0 0
0.9990 2.0945 1.4320 -0.262 -0.755 0.602 40 44 45 0 0
0.9731 2.1120 1.4397 -0.456 -0.832 0.316 55 57 59 0 0
0.9489 2.1266 1.4469 0.270 -0.953 0.138 61 61 63 0 0
0.8413 2.1491 1.4768 0.464 -0.314 0.828 95 95 92 0 0
1.2541 3.0633 1.4188 0.980 -0.127 -0.153 15 15 18 0 0
1.1616 2.5873 1.4234 -0.236 -0.882 -0.408 10 10 12 0 0
1.1460 2.5870 1.4276 -0.116 -0.941 -0.317 11 11 13 0 0
1.1276 2.5917 1.4328 -0.031 -0.999 -0.044 11 11 13 0 0
1.1138 2.5878 1.4364 0.142 -0.979 -0.148 11 12 14 0 0
1.0252 2.1340 1.4408 -0.262 -0.954 -0.146 80 79 78 0 0
1.0106 2.1326 1.4447 -0.340 -0.900 -0.272 47 47 45 0 0
1.0033 2.1187 1.4461 -0.503 -0.858 -0.102 40 41 39 0 0
0.9876 2.1191 1.4504 -0.283 -0.727 0.626 49 49 48 0 0
0.9527 2.1516 1.4612 -0.390 -0.895 0.217 72 72 71 0 0
0.9181 2.1833 1.4719 0.055 -0.604 -0.795 74 75 73 0 0
0.8923 2.1740 1.4785 0.355 -0.216 -0.910 82 82 81 0 0
1.2643 3.0498 1.4310 0.904 -0.029 -0.427 17 17 19 0 0
1.1712 2.5756 1.4351 -0.374 -0.905 -0.202 11 11 13 0 0
1.1151 2.5916 1.4510 0.418 -0.797 -0.437 11 11 13 0 0
0.9927 2.6107 1.4851 -0.302 -0.580 -0.757 46 44 47 0 0
1.2831 3.1524 1.4461 0.672 -0.731 -0.117 29 29 31 0 0
1.2678 3.0500 1.4456 0.723 -0.029 -0.690 18 18 20 0 0
1.2293 2.5913 1.4349 0.648 -0.599 -0.470 18 18 20 0 0
1.2180 2.5828 1.4376 -0.096 -0.984 -0.151 18 18 20 0 0
1.0243 2.5599 1.4892 0.457 -0.316 -0.832 39 37 42 0 0
0.9385 2.6562 1.5169 -0.516 -0.400 -0.758 65 63 68 0 0
1.0140 2.5558 1.5067 -0.456 -0.488 -0.745 39 37 42 0 0
1.7923 4.0224 1.3812 0.520 -0.740 -0.426 171 170 170 0 0
1.2416 2.5808 1.4607 0.085 -0.912 -0.400 16 16 18 0 0
0.9545 2.6398 1.5420 -0.532 -0.731 -0.428 39 38 43 0 0
0.9021 2.6464 1.5566 -0.623 -0.670 -0.404 74 72 74 0 0
0.8789 2.6585 1.5636 -0.774 -0.564 -0.289 85 83 83 0 0
1.2556 2.5905 1.4721 0.648 -0.689 -0.326 21 21 23 0 0
1.0838 2.6454 1.5220 0.140 -0.609 -0.781 12 12 14 0 0
1.0668 2.6176 1.5252 0.605 -0.724 -0.331 15 15 17 0 0
0.9051 2.6760 1.5725 -0.345 -0.864 0.367 47 47 50 0 0
0.8846 2.6835 1.5785 -0.035 -0.674 0.738 56 56 59 0 0
1.8040 3.6715 1.3929 0.955 0.239 -0.175 38 37 43 0 0
1.2163 2.5820 1.4973 0.037 -0.758 0.651 21 21 23 0 0
1.0787 2.6020 1.5361 -0.050 -0.998 0.029 14 14 16 0 0
1.0532 2.6194 1.5440 0.320 -0.945 -0.075 15 15 17 0 0
0.7990 2.7534 1.6209 -0.739 -0.661 0.132 89 90 88 0 0
1.4160 3.0136 1.4804 0.632 -0.245 -0.735 15 15 17 0 0
1.1851 2.5879 1.5211 0.768 -0.623 0.150 14 13 17 0 0
1.0562 2.6203 1.5583 -0.125 -0.978 -0.169 14 14 16 0 0
0.8617 2.6782 1.6150 -0.325 -0.645 0.691 70 71 73 0 0
0.8243 2.7150 1.6272 -0.477 -0.666 0.573 82 84 80 0 0
1.4270 2.9979 1.4919 0.090 -0.386 -0.918 15 15 17 0 0
1.4145 2.9905 1.4950 0.338 -0.252 -0.907 16 16 18 0 0
1.1984 2.5989 1.5329 -0.308 -0.943 0.124 17 16 22 0 0
0.8169 2.7342 1.6457 -0.451 -0.670 0.589 77 79 79 0 0
1.8078 3.4876 1.4298 0.001 -0.976 -0.218 78 76 81 0 0
1.6209 2.7589 1.4400 0.009 -1.000 0.010 34 34 36 0 0
1.1814 2.6077 1.5530 0.497 -0.377 -0.781 15 14 18 0 0
0.8899 2.6695 1.6372 0.364 -0.572 0.735 53 54 58 0 0
0.8442 2.7213 1.6528 -0.274 -0.725 0.631 73 74 78 0 0
1.8128 3.4844 1.4441 0.001 -0.976 -0.218 77 75 79 0 0
1.6516 2.8675 1.4527 0.006 -0.973 -0.230 31 30 34 0 0
1.1851 2.6070 1.5669 0.500 -0.819 -0.281 16 16 20 0 0
0.9759 2.6092 1.6250 -0.376 -0.926 -0.032 28 28 28 0 0
1.6707 2.8670 1.4623 0.442 -0.888 -0.127 28 27 32 0 0
1.6585 2.8599 1.4653 0.612 -0.608 -0.505 29 29 31 0 0
1.6514 2.8416 1.4662 0.877 -0.476 -0.062 54 54 56 0 0
1.5505 2.8585 1.4953 -0.641 -0.755 -0.137 32 31 36 0 0
1.5139 2.9032 1.5082 -0.532 -0.612 -0.585 28 27 30 0 0
1.4653 2.9394 1.5238 -0.694 -0.664 -0.278 17 17 19 0 0
1.1748 2.5438 1.5809 -0.159 -0.909 -0.385 19 19 21 0 0
1.0033 2.5952 1.6317 -0.041 -0.822 -0.568 36 36 36 0 0
1.8193 3.9464 1.5026 0.994 0.066 -0.090 107 107 107 0 0
1.6743 2.8668 1.4763 0.442 -0.888 -0.127 30 29 34 0 0
1.1847 2.5611 1.5940 0.517 -0.353 -0.780 16 16 18 0 0
1.1814 2.5379 1.5935 0.103 -0.979 -0.175 21 21 23 0 0
0.9355 2.6358 1.6681 -0.622 -0.637 -0.455 61 61 63 0 0
0.9068 2.6579 1.6775 0.447 -0.128 -0.885 61 61 63 0 0
0.7682 2.7565 1.7223 0.991 0.116 -0.068 175 174 172 0 0
1.6784 2.8655 1.4901 0.430 -0.757 -0.492 52 52 54 0 0
1.0577 2.5672 1.6448 0.565 -0.800 -0.203 48 48 48 0 0
1.0369 2.5759 1.6512 0.225 -0.722 -0.654 48 48 48 0 0
1.7075 2.8771 1.4977 0.807 -0.408 -0.427 42 42 44 0 0
1.6952 2.8700 1.5007 0.278 -0.956 -0.091 56 56 58 0 0
1.6850 2.8585 1.5028 0.345 -0.758 -0.553 55 55 58 0 0
1.6665 2.8314 1.5062 0.582 -0.478 -0.657 45 44 48 0 0
1.0170 2.5890 1.6726 0.611 -0.420 -0.671 38 38 39 0 0
0.9928 2.5746 1.6785 -0.088 -0.651 -0.754 40 40 42 0 0
0.9766 2.5748 1.6830 -0.316 -0.564 -0.763 47 48 50 0 0
0.9461 2.6003 1.6932 -0.373 -0.449 -0.812 53 53 55 0 0
1.7304 2.8680 1.5057 0.711 -0.301 -0.635 49 48 51 0 0
1.6902 2.8205 1.5138 0.337 -0.574 -0.747 45 44 49 0 0
1.4313 2.5872 1.5711 -0.561 -0.814 0.154 14 13 17 0 0
1.0068 2.5556 1.6884 0.524 -0.828 -0.199 29 29 31 0 0
0.9813 2.5724 1.6966 -0.336 -0.939 -0.075 45 46 48 0 0
1.3718 2.4679 1.5945 -0.177 -0.803 -0.569 41 39 44 0 0
0.9867 2.5690 1.7100 -0.356 -0.934 -0.014 44 44 46 0 0
0.9569 2.5933 1.7200 -0.627 -0.705 -0.332 49 46 50 0 0
0.9263 2.6188 1.7304 -0.557 -0.603 -0.571 50 50 52 0 0
0.8843 2.6642 1.7453 -0.536 -0.516 -0.668 60 62 63 0 0
1.3793 2.4599 1.6065 0.220 -0.972 0.087 50 48 52 0 0
1.3642 2.4593 1.6107 0.230 -0.964 0.136 50 48 53 0 0
1.0198 2.6613 1.7221 0.514 -0.275 0.812 35 35 36 0 0
0.9911 2.5671 1.7236 -0.356 -0.934 -0.014 39 38 40 0 0
0.9666 2.5821 1.7316 -0.647 -0.689 -0.327 50 48 51 0 0
0.9434 2.5945 1.7390 -0.577 -0.760 -0.299 50 49 51 0 0
0.9048 2.6340 1.7527 -0.571 -0.672 -0.472 54 56 57 0 0
1.4779 2.5142 1.5970 0.748 -0.341 -0.570 33 33 38 0 0
1.4740 2.4913 1.5965 0.526 -0.838 0.142 39 40 44 0 0
1.0626 2.6483 1.7243 0.969 -0.147 0.197 27 27 29 0 0
1.0203 2.6963 1.7397 0.497 -0.241 0.833 36 36 38 0 0
0.9958 2.5648 1.7372 -0.283 -0.933 -0.225 31 31 33 0 0
0.9766 2.5703 1.7431 -0.692 -0.668 -0.275 48 48 50 0 0
1.8489 3.8968 1.6070 0.847 0.040 -0.530 84 83 85 0 0
1.0516 2.7348 1.7488 -0.137 -0.698 0.702 23 22 25 0 0
1.0397 2.7268 1.7516 0.074 -0.718 0.692 28 28 31 0 0
1.0320 2.7109 1.7527 0.995 0.028 0.099 34 33 38 0 0
1.8569 3.9298 1.6237 0.866 0.082 -0.492 95 95 97 0 0
1.8527 3.8538 1.6193 0.777 -0.068 -0.625 70 69 72 0 0
1.8627 3.3339 1.5777 0.909 -0.062 -0.413 42 43 47 0 0
1.4944 2.5253 1.6225 0.522 -0.826 -0.215 43 44 48 0 0
1.4830 2.5174 1.6251 0.522 -0.826 -0.215 42 43 47 0 0
1.4768 2.4991 1.6255 0.424 -0.896 0.130 40 41 45 0 0
1.3840 2.4703 1.6498 0.422 -0.817 -0.394 43 43 45 0 0
1.3637 2.4797 1.6563 -0.090 -0.850 -0.519 57 57 59 0 0
1.3416 2.4926 1.6635 -0.077 -0.551 0.831 64 64 66 0 0
1.0511 2.7725 1.7671 0.365 -0.710 0.603 24 24 26 0 0
1.0466 2.7506 1.7667 0.046 -0.980 0.194 25 25 27 0 0
1.0450 2.7234 1.7652 0.720 -0.026 -0.694 30 30 32 0 0
1.8600 3.8017 1.6297 0.767 -0.071 -0.637 61 61 63 0 0
1.8776 3.5053 1.6022 0.888 0.032 -0.458 45 44 48 0 0
1.7933 2.9125 1.5812 0.546 -0.593 0.592 39 39 43 0 0
1.7825 2.9020 1.5835 0.802 -0.355 0.481 38 38 41 0 0
1.5524 2.5383 1.6215 -0.065 -0.890 -0.451 45 45 47 0 0
1.5194 2.5433 1.6313 0.161 -0.832 -0.530 42 42 45 0 0
1.5063 2.5390 1.6348 0.254 -0.838 -0.483 38 39 42 0 0
1.4971 2.5266 1.6364 0.340 -0.865 -0.369 36 37 40 0 0
1.4856 2.5188 1.6391 0.134 -0.912 -0.387 36 37 40 0 0
1.4721 2.5153 1.6427 0.134 -0.912 -0.387 36 36 40 0 0
1.4124 2.4815 1.6572 0.681 -0.698 -0.221 46 46 49 0 0
1.4003 2.4750 1.6602 0.636 -0.641 -0.429 70 69 73 0 0
1.3892 2.4667 1.6627 0.422 -0.817 -0.394 80 80 82 0 0
1.0584 2.7653 1.7798 0.064 -0.965 0.255 26 26 28 0 0
1.0629 2.7268 1.7756 -0.041 -0.764 -0.644 27 28 30 0 0
1.8630 3.8038 1.6454 0.968 -0.045 -0.249 69 69 71 0 0
1.8610 3.7237 1.6398 0.891 0.193 -0.411 55 55 58 0 0
1.8852 3.4955 1.6152 0.881 -0.002 -0.473 51 49 54 0 0
1.7791 2.9178 1.6007 0.802 -0.355 0.481 40 39 44 0 0
1.5854 2.5399 1.6269 -0.096 -0.727 -0.680 45 45 47 0 0
1.5743 2.5316 1.6294 0.019 -0.821 -0.571 43 43 45 0 0
1.5594 2.5309 1.6336 -0.071 -0.907 -0.415 40 40 42 0 0
1.5445 2.5302 1.6378 -0.071 -0.907 -0.415 37 37 39 0 0
1.5151 2.5280 1.6461 0.177 -0.975 -0.135 34 35 37 0 0
1.5022 2.5231 1.6494 0.340 -0.865 -0.369 33 34 36 0 0
1.4889 2.5190 1.6529 0.178 -0.957 -0.227 28 28 30 0 0
1.4481 2.5087 1.6638 0.509 -0.845 -0.163 41 41 43 0 0
1.4407 2.4928 1.6646 0.732 -0.676 0.082 53 53 55 0 0
0.9148 2.6180 1.8249 -0.761 -0.590 -0.270 48 48 50 0 0
1.8922 3.4873 1.6285 0.878 -0.041 -0.476 55 53 57 0 0
1.8102 2.9969 1.6131 0.914 -0.336 0.226 41 40 45 0 0
1.6905 2.8134 1.6330 0.568 -0.358 -0.741 26 29 30 0 0
1.6775 2.6088 1.6205 0.782 -0.537 0.316 38 37 42 0 0
1.6161 2.5463 1.6332 0.538 -0.788 -0.299 43 42 47 0 0
1.6057 2.5363 1.6354 0.523 -0.692 -0.498 40 40 42 0 0
1.5972 2.5225 1.6368 -0.029 -0.948 -0.316 37 37 39 0 0
1.5824 2.5216 1.6409 -0.029 -0.948 -0.316 32 32 34 0 0
1.5656 2.5250 1.6460 -0.065 -0.890 -0.451 31 31 33 0 0
1.5501 2.5257 1.6505 -0.174 -0.929 -0.327 30 30 32 0 0
1.5066 2.5210 1.6626 0.277 -0.925 -0.261 29 29 31 0 0
1.4925 2.5185 1.6665 0.264 -0.955 -0.134 38 38 39 0 0
1.4801 2.5126 1.6696 0.286 -0.955 -0.079 55 55 55 0 0
1.4423 2.4963 1.6791 0.732 -0.676 0.082 77 77 79 0 0
1.4303 2.4896 1.6820 0.643 -0.683 0.347 74 74 76 0 0
1.8990 3.4794 1.6418 0.878 -0.041 -0.476 59 58 62 0 0
1.8193 3.0202 1.6276 0.904 -0.415 0.101 45 44 49 0 0
1.5972 2.5293 1.6519 0.350 -0.822 0.450 31 31 33 0 0
1.4462 2.4952 1.6926 0.821 -0.559 -0.118 56 56 58 0 0
1.9007 3.5255 1.6610 0.979 -0.005 0.202 58 57 62 0 0
1.6110 2.5710 1.6660 0.180 -0.397 0.900 36 35 40 0 0
1.7947 3.0220 1.6654 0.734 -0.429 0.527 37 37 39 0 0
1.7853 3.0076 1.6669 0.685 -0.521 0.510 34 34 36 0 0
1.7759 2.9935 1.6684 0.794 -0.518 0.318 30 30 32 0 0
1.3180 2.7009 1.7763 -0.008 -0.563 0.826 20 20 24 0 0
0.9891 2.7747 1.8776 -0.813 -0.508 -0.285 49 47 50 0 0
1.9147 3.7186 1.7054 0.976 0.142 -0.163 70 71 70 0 0
1.8938 3.6042 1.7017 0.890 -0.455 -0.013 73 73 75 0 0
1.8046 3.0437 1.6797 0.623 -0.634 0.457 34 34 36 0 0
1.9186 3.7182 1.7206 0.927 0.138 -0.349 69 70 70 0 0
1.9043 3.6285 1.7169 0.898 -0.343 -0.277 73 73 75 0 0
0.9276 2.5742 1.9090 -0.773 -0.631 -0.069 46 47 51 0 0
1.9222 3.6761 1.7321 0.920 -0.060 -0.388 74 74 76 0 0
1.9151 3.6524 1.7321 0.876 -0.352 -0.328 75 75 77 0 0
0.9364 2.5648 1.9208 -0.756 -0.653 0.048 47 48 52 0 0
1.9065 3.8140 1.7654 0.914 0.182 -0.364 80 81 82 0 0
1.9166 3.7440 1.7561 0.926 0.142 -0.348 78 78 80 0 0
1.9177 3.6557 1.7478 0.942 -0.322 -0.100 76 76 78 0 0
1.8926 2.9698 1.6933 -0.456 -0.612 -0.646 44 43 48 0 0
0.9337 2.5468 1.9352 -0.407 -0.865 -0.295 47 47 50 0 0
0.9377 2.5459 1.9491 -0.656 -0.709 -0.258 48 46 50 0 0
1.8973 3.0209 1.7422 -0.254 -0.863 0.436 52 52 54 0 0
1.9366 4.0433 1.8447 0.914 -0.085 -0.397 176 176 176 0 0
1.9323 3.9640 1.8383 0.234 -0.925 -0.299 172 172 171 0 0
1.9545 3.6942 1.8220 0.727 0.145 -0.672 72 73 75 0 0
1.9460 3.9482 1.8662 -0.115 -0.955 -0.274 169 168 166 0 0
1.8911 3.2526 1.8130 0.576 -0.158 0.802 45 44 49 0 0
1.0678 2.4305 1.9751 0.927 -0.338 0.164 22 21 26 0 0
1.9567 3.8403 1.8688 0.877 0.208 -0.433 91 91 92 0 0
1.9591 3.7897 1.8629 0.879 0.183 -0.441 81 79 82 0 0
1.8301 3.2566 1.8472 0.434 -0.206 0.877 50 49 54 0 0
1.9662 3.7810 1.8764 0.900 0.185 -0.395 81 79 82 0 0
1.9768 3.7086 1.8657 0.901 0.180 -0.395 75 75 77 0 0
1.9661 3.8360 1.8986 0.910 0.194 -0.365 93 93 93 0 0
2.0115 3.2926 1.8282 0.480 -0.194 0.856 57 57 60 0 0
1.4714 2.5461 1.9115 0.943 -0.238 -0.232 13 13 15 0 0
1.4632 2.5315 1.9124 0.614 -0.776 -0.140 14 14 16 0 0
1.3728 2.4660 1.9326 0.704 -0.680 0.206 48 48 48 0 0
1.9608 3.9055 1.9241 0.247 -0.620 -0.744 116 116 116 0 0
1.8107 3.4889 1.9249 0.733 -0.037 0.679 42 41 46 0 0
1.4797 2.5362 1.9228 0.824 -0.334 -0.458 14 14 16 0 0
1.4935 2.4469 1.9092 0.116 -0.967 0.225 22 22 25 0 0
1.2152 2.4751 1.9955 -0.360 -0.932 -0.051 52 51 56 0 0
1.2157 2.4157 1.9891 0.920 -0.102 -0.377 54 53 58 0 0
1.2078 2.4014 1.9899 0.130 -0.784 0.606 55 54 59 0 0
1.0487 2.4603 2.0438 0.293 -0.821 -0.489 58 57 62 0 0
1.4946 2.5440 1.9340 0.579 -0.232 -0.781 13 13 15 0 0
1.4954 2.5113 1.9302 -0.009 -0.983 0.182 14 14 16 0 0
1.4449 2.4589 1.9398 0.175 -0.940 0.293 50 49 54 0 0
1.4314 2.4551 1.9434 0.382 -0.876 0.295 51 51 53 0 0
1.0828 2.4914 2.0520 0.295 -0.385 -0.874 57 57 59 0 0
1.9779 3.9255 1.9546 0.966 -0.030 -0.256 178 177 177 0 0
1.5080 2.5551 1.9461 0.380 -0.237 -0.894 13 13 15 0 0
1.5100 2.5198 1.9416 0.071 -0.871 -0.486 13 13 15 0 0
1.4984 2.5122 1.9443 0.013 -0.988 0.152 14 14 16 0 0
1.4106 2.4723 1.9663 0.013 -0.997 -0.078 50 50 52 0 0
1.3989 2.4649 1.9690 0.384 -0.916 -0.112 49 49 51 0 0
1.0768 2.4794 2.0676 0.328 -0.935 0.133 56 56 59 0 0
0.9424 2.5754 2.1185 -0.670 -0.718 0.185 69 67 72 0 0
1.9925 3.8960 1.9636 0.492 -0.827 -0.272 184 184 184 0 0
1.9812 3.8820 1.9655 0.636 -0.703 -0.318 161 161 161 0 0
1.9768 3.8490 1.9631 0.945 0.009 -0.326 111 111 111 0 0
1.5118 2.5857 1.9632 0.532 -0.214 -0.819 12 13 17 0 0
1.5157 2.5151 1.9542 -0.202 -0.979 0.022 12 13 15 0 0
1.2951 2.4915 2.0181 0.010 -0.880 0.475 40 40 40 0 0
2.0104 3.9027 1.9756 0.492 -0.827 -0.272 193 193 193 0 0
1.9983 3.8907 1.9779 0.451 -0.857 -0.248 191 191 191 0 0
1.9851 3.8820 1.9810 0.560 -0.782 -0.273 182 182 182 0 0
1.9804 3.8498 1.9788 0.944 -0.055 -0.324 120 120 120 0 0
1.4981 2.4646 1.9686 0.123 -0.987 0.102 46 45 50 0 0
1.5189 2.3925 1.9542 0.387 -0.753 -0.532 48 47 53 0 0
2.0175 3.9397 1.9944 -0.264 -0.891 -0.369 196 196 196 0 0
2.0012 3.8937 1.9941 0.729 -0.586 -0.355 195 195 195 0 0
1.9901 3.8789 1.9958 0.729 -0.586 -0.355 184 184 184 0 0
1.9264 3.6556 1.9896 -0.460 -0.561 0.688 57 57 59 0 0
0.9608 2.5612 2.1573 -0.578 -0.808 0.114 51 51 53 0 0
0.9394 2.5702 2.1648 -0.563 -0.817 -0.124 52 52 54 0 0
2.0422 3.9276 2.0023 -0.694 -0.718 0.053 199 199 198 0 0
1.9981 3.8678 2.0087 0.897 -0.142 -0.419 177 177 179 0 0
1.9890 3.8030 2.0040 0.893 -0.100 -0.439 86 87 87 0 0
1.1536 2.5987 2.1184 -0.459 -0.366 -0.810 39 39 42 0 0
1.1322 2.6086 2.1260 -0.459 -0.366 -0.810 41 40 45 0 0
1.0717 2.6310 2.1470 -0.090 -0.231 -0.969 53 52 58 0 0
0.9422 2.5712 2.1794 -0.501 -0.866 -0.004 49 49 54 0 0
2.0377 3.9051 2.0177 -0.520 -0.854 0.033 201 201 201 0 0
2.0051 3.9502 2.0329 0.874 0.056 -0.483 201 201 201 0 0
1.9865 3.7760 2.0181 0.810 -0.071 -0.582 77 78 77 0 0
1.7872 3.7389 2.0745 0.980 0.030 -0.198 38 37 42 0 0
1.4574 2.4436 2.0229 0.483 -0.809 0.336 44 42 47 0 0
1.0752 2.5131 2.1475 0.012 -0.848 0.529 51 50 55 0 0
0.9708 2.5556 2.1843 -0.693 -0.703 -0.158 47 46 52 0 0
2.0170 3.9279 2.0434 0.858 0.019 -0.513 200 200 200 0 0
1.7930 3.7339 2.0887 0.948 -0.117 -0.298 38 37 42 0 0
1.5665 2.3844 1.9973 0.374 -0.924 0.082 46 45 51 0 0
1.3729 2.4644 2.0659 -0.292 -0.899 0.327 32 32 34 0 0
0.9502 2.5694 2.2075 -0.615 -0.667 -0.420 46 45 51 0 0
1.6284 2.5774 2.0162 0.133 -0.212 -0.968 16 16 18 0 0
1.6609 2.4771 1.9941 0.315 -0.422 -0.850 16 16 18 0 0
1.6520 2.4640 1.9953 0.241 -0.670 -0.702 18 17 22 0 0
1.5719 2.3802 2.0097 0.460 -0.846 -0.270 37 36 42 0 0
0.9618 2.5549 2.2176 -0.680 -0.680 -0.275 45 44 50 0 0
2.0395 3.9331 2.0707 0.855 -0.073 -0.513 202 202 201 0 0
1.9655 3.8202 2.0796 -0.594 -0.756 0.275 72 70 73 0 0
1.6666 2.4722 2.0065 0.518 -0.800 -0.304 23 22 27 0 0
1.6603 2.4538 2.0062 0.294 -0.956 0.014 30 29 34 0 0
1.5883 2.3845 2.0198 0.537 -0.836 0.110 35 34 38 0 0
1.4047 2.5680 2.0986 -0.068 -0.886 0.459 27 27 29 0 0
0.9418 2.5675 2.2406 -0.693 -0.692 -0.201 45 44 50 0 0
2.0535 3.9512 2.0854 0.817 -0.039 -0.575 202 202 200 0 0
1.6845 2.4732 2.0158 0.266 -0.956 -0.123 30 30 32 0 0
1.6477 2.4555 2.0249 0.255 -0.934 0.248 47 46 51 0 0
1.6339 2.4528 2.0288 0.255 -0.934 0.248 48 47 52 0 0
1.6190 2.4523 2.0334 0.269 -0.948 0.171 48 48 52 0 0
1.6047 2.4506 2.0376 0.437 -0.898 -0.047 47 47 49 0 0
1.5926 2.4442 2.0405 0.359 -0.926 -0.112 43 43 45 0 0
1.5037 2.5008 2.0748 0.544 -0.723 -0.427 35 34 39 0 0
1.4140 2.5875 2.1132 -0.235 -0.925 0.298 25 25 27 0 0
1.6757 2.4672 2.0325 0.244 -0.969 0.039 46 45 50 0 0
1.6621 2.4639 2.0362 0.244 -0.969 0.039 50 49 54 0 0
1.6488 2.4602 2.0399 0.266 -0.956 -0.123 49 48 53 0 0
1.6358 2.4558 2.0433 0.259 -0.926 -0.274 48 47 52 0 0
1.6203 2.4566 2.0482 0.339 -0.924 -0.178 45 45 49 0 0
1.6077 2.4514 2.0514 0.339 -0.924 -0.178 41 41 43 0 0
1.5576 2.4296 2.0641 -0.126 -0.640 -0.758 36 35 40 0 0
2.0568 3.9177 2.1137 0.875 0.033 -0.483 202 202 201 0 0
1.6835 2.4897 2.0476 0.617 -0.739 -0.271 46 46 49 0 0
1.5903 2.4942 2.0770 0.413 -0.910 -0.042 26 26 28 0 0
1.5802 2.4835 2.0787 0.521 -0.852 0.048 29 29 31 0 0
1.0324 2.5402 2.2553 0.912 -0.381 0.150 50 49 54 0 0
1.0478 2.4836 2.2433 -0.214 -0.974 0.076 46 45 51 0 0
1.5701 2.4799 2.0962 0.275 -0.852 0.446 34 34 36 0 0
1.0519 2.4822 2.2570 -0.056 -0.892 -0.449 49 48 53 0 0
2.0674 3.8638 2.1369 0.914 0.076 -0.398 199 199 200 0 0
1.9399 2.8843 2.0488 0.228 0.057 -0.972 37 37 39 0 0
1.8968 2.7704 2.0474 0.244 -0.266 -0.933 47 46 51 0 0
1.8868 2.7585 2.0489 0.204 -0.261 -0.944 48 47 52 0 0
1.0634 2.4512 2.2949 -0.265 -0.840 -0.473 52 51 56 0 0
2.0738 3.8789 2.1870 0.962 0.176 -0.210 199 199 197 0 0
1.7597 2.4914 2.0977 0.067 -0.538 0.841 35 34 39 0 0
1.0684 2.4482 2.3081 0.236 -0.920 -0.313 52 51 56 0 0
1.7456 2.5294 2.1221 0.075 -0.618 0.782 42 41 46 0 0
0.9599 2.5037 2.3649 -0.504 -0.851 0.146 46 45 50 0 0
2.0136 3.0473 2.1243 0.420 0.058 -0.906 40 40 43 0 0
2.0238 2.8707 2.0966 0.780 -0.226 -0.583 49 48 53 0 0
1.8203 2.5046 2.1099 0.806 -0.561 0.187 54 54 58 0 0
1.7406 2.5476 2.1409 -0.483 -0.860 0.167 55 55 58 0 0
0.9681 2.4953 2.3765 -0.566 -0.804 -0.182 46 45 50 0 0
2.1073 3.5486 2.1804 0.959 -0.232 -0.163 78 78 80 0 0
2.0228 3.1897 2.1567 0.690 -0.118 -0.714 38 37 42 0 0
1.7289 2.5475 2.1594 -0.760 -0.596 -0.260 37 36 41 0 0
0.9737 2.4914 2.3895 -0.601 -0.777 -0.186 46 45 50 0 0
0.9515 2.5020 2.3980 -0.500 -0.866 0.005 47 46 51 0 0
2.0572 2.9941 2.1339 0.771 -0.005 -0.637 49 48 53 0 0
1.7587 2.5229 2.1614 -0.673 -0.564 -0.479 38 38 40 0 0
0.9559 2.5003 2.4117 -0.500 -0.852 0.154 46 45 50 0 0
2.1197 3.4919 2.2007 0.801 0.097 -0.591 60 59 64 0 0
2.0662 3.1366 2.1668 0.198 0.100 -0.975 57 56 59 0 0
2.0607 3.1112 2.1648 0.167 0.078 -0.983 55 54 59 0 0
1.6944 2.4740 2.1896 0.304 -0.919 0.251 23 23 25 0 0
0.9603 2.4986 2.4255 -0.581 -0.809 0.090 46 45 50 0 0
2.0656 3.1475 2.1841 0.791 -0.232 -0.567 59 59 61 0 0
2.0656 3.1079 2.1784 0.697 -0.058 -0.715 57 57 59 0 0
0.7981 2.6619 2.5633 -0.748 -0.655 -0.108 66 66 68 0 0
0.9641 2.4483 2.5242 -0.636 -0.772 0.024 49 48 54 0 0
2.1814 3.7167 2.3450 0.720 0.064 -0.691 203 203 203 0 0
2.1919 3.7438 2.3624 0.796 0.091 -0.599 205 205 205 0 0
2.0305 3.6103 2.3935 -0.363 -0.137 -0.922 39 38 43 0 0
1.9033 3.6889 2.4471 0.942 0.140 -0.305 52 51 56 0 0
2.0240 3.5946 2.4096 -0.380 -0.100 -0.920 37 36 41 0 0
0.9680 2.4594 2.5707 -0.370 -0.574 0.731 76 76 78 0 0
0.9746 2.4823 2.5877 -0.332 -0.551 0.765 78 78 79 0 0
0.9845 2.4997 2.6027 -0.383 -0.585 0.715 82 83 85 0 0
0.9538 2.5603 2.6381 -0.425 -0.616 0.663 104 105 105 0 0
1.0209 2.5052 2.6226 -0.384 -0.623 0.682 86 86 88 0 0
0.9213 2.6241 2.6749 -0.498 -0.641 0.584 79 80 79 0 0
1.7294 2.4107 2.3899 0.773 -0.265 0.576 15 15 17 0 0
1.1827 2.4220 2.5711 -0.461 -0.884 0.078 59 58 62 0 0
1.1601 2.4343 2.5805 -0.403 -0.907 0.122 60 60 61 0 0
0.8984 2.6709 2.7060 -0.690 -0.647 0.324 72 73 72 0 0
1.0738 2.4807 2.6320 -0.342 -0.644 0.685 72 73 72 0 0
1.1005 2.4678 2.6364 -0.366 -0.646 0.670 60 60 61 0 0
0.8659 2.7412 2.7604 -0.733 -0.657 0.176 70 71 70 0 0
0.8059 2.8178 2.7932 -0.736 -0.654 0.176 84 83 84 0 0
2.0076 2.7943 2.4086 -0.730 -0.597 -0.332 41 41 46 0 0
1.1859 2.4350 2.6179 0.217 -0.778 0.590 62 63 67 0 0
1.1488 2.4444 2.6318 -0.247 -0.955 0.163 63 63 64 0 0
1.0885 2.4957 2.6605 -0.505 -0.675 0.538 49 48 52 0 0
0.7179 2.9495 2.8612 -0.673 -0.736 0.073 103 102 101 0 0
2.1413 3.6321 2.5255 0.960 0.212 -0.185 144 144 142 0 0
1.8293 2.5838 2.4462 0.914 -0.141 0.381 39 38 43 0 0
1.8010 2.5460 2.4489 0.094 -0.652 0.752 39 38 43 0 0
1.7835 2.5513 2.4557 0.112 -0.632 0.767 39 38 43 0 0
1.6514 2.4442 2.4807 0.050 -0.766 -0.640 40 41 45 0 0
1.4859 2.4070 2.5290 0.045 -0.865 0.500 48 47 52 0 0
1.4397 2.4067 2.5442 0.446 -0.800 0.402 52 53 57 0 0
1.4049 2.4141 2.5570 0.386 -0.922 0.043 55 56 58 0 0
1.2233 2.4308 2.6200 0.097 -0.685 0.722 53 53 53 0 0
0.7246 2.9442 2.8744 -0.662 -0.743 0.105 106 105 103 0 0
2.0261 2.8402 2.4410 0.127 0.063 -0.990 52 52 56 0 0
2.0189 2.7839 2.4335 0.108 0.034 -0.994 50 49 54 0 0
2.0123 2.7634 2.4321 0.108 0.034 -0.994 51 50 55 0 0
1.9860 2.7539 2.4391 -0.233 -0.111 -0.966 50 49 54 0 0
1.9726 2.7498 2.4428 -0.233 -0.111 -0.966 50 49 54 0 0
1.7595 2.5448 2.4775 0.080 -0.306 -0.949 44 43 48 0 0
1.3679 2.3421 2.5717 0.320 -0.817 0.479 52 52 54 0 0
1.1647 2.4571 2.6593 -0.401 -0.913 0.071 49 49 49 0 0
1.7477 2.5448 2.4964 0.217 -0.060 -0.974 47 46 51 0 0
1.5706 2.4357 2.5359 0.462 -0.880 -0.107 52 51 55 0 0
1.5550 2.4362 2.5412 0.357 -0.674 -0.647 52 51 56 0 0
1.5452 2.4250 2.5424 0.626 -0.777 -0.066 53 52 57 0 0
1.5315 2.4216 2.5464 0.448 -0.539 0.713 54 53 58 0 0
1.5186 2.4168 2.5498 0.203 -0.588 0.783 54 53 58 0 0
1.3797 2.3556 2.5851 0.065 -0.915 -0.398 31 29 32 0 0
1.3680 2.3485 2.5878 0.338 -0.837 0.431 27 25 28 0 0
2.1182 3.2929 2.5220 0.935 0.241 -0.260 46 45 51 0 0
1.6228 2.4298 2.5324 -0.096 -0.995 -0.035 52 52 54 0 0
1.5733 2.4372 2.5502 0.442 -0.883 -0.160 50 49 53 0 0
1.5605 2.4320 2.5536 0.379 -0.918 0.115 49 48 53 0 0
1.3700 2.3509 2.6025 0.359 -0.931 0.067 31 31 32 0 0
1.0933 2.5417 2.7289 -0.418 -0.778 0.469 52 52 53 0 0
1.6024 2.4472 2.5573 0.360 -0.927 0.108 34 34 36 0 0
1.5887 2.4440 2.5613 0.445 -0.885 0.136 29 29 31 0 0
1.5763 2.4380 2.5644 0.400 -0.913 -0.075 29 28 32 0 0
1.5632 2.4334 2.5679 0.248 -0.968 0.040 30 29 33 0 0
1.5467 2.4356 2.5738 0.392 -0.905 0.162 27 27 31 0 0
1.4963 2.3826 2.5811 0.766 -0.277 -0.581 23 22 26 0 0
2.1792 3.4027 2.5535 0.995 0.102 0.007 87 87 89 0 0
1.5441 2.4477 2.5919 0.322 -0.872 0.369 23 23 25 0 0
1.4900 2.4944 2.6185 -0.107 -0.774 0.624 24 22 27 0 0
1.4680 2.5074 2.6283 -0.107 -0.848 0.518 24 22 27 0 0
1.5865 2.4624 2.5954 0.458 -0.711 0.534 30 30 32 0 0
1.5734 2.4577 2.5989 0.297 -0.768 0.567 29 29 31 0 0
1.5441 2.4546 2.6082 0.322 -0.872 0.369 29 29 31 0 0
1.5114 2.4895 2.6256 0.383 -0.871 -0.307 30 29 32 0 0
1.6011 2.4708 2.6071 0.371 -0.747 0.551 29 29 31 0 0
1.5840 2.4744 2.6135 0.458 -0.711 0.534 30 30 32 0 0
1.5689 2.4739 2.6185 0.114 -0.822 0.558 29 29 31 0 0
1.4798 2.5289 2.6587 -0.385 -0.849 0.363 26 26 29 0 0
1.4614 2.5343 2.6659 -0.211 -0.878 0.429 24 23 29 0 0
1.1344 2.5510 2.7789 0.388 -0.922 0.003 67 65 66 0 0
0.8221 2.8162 2.9331 -0.517 -0.271 -0.812 81 79 80 0 0
1.6341 2.4731 2.6115 0.112 -0.979 0.169 21 21 23 0 0
1.6187 2.4733 2.6167 0.234 -0.858 0.457 21 21 23 0 0
1.6011 2.4779 2.6235 0.138 -0.920 0.366 21 21 23 0 0
1.5152 2.4956 2.6558 -0.273 -0.754 0.597 20 20 22 0 0
1.3079 2.4313 2.7593 -0.261 -0.965 0.020 60 61 63 0 0
1.1843 2.5440 2.8228 0.115 -0.961 0.252 63 63 65 0 0
1.1685 2.5435 2.8281 0.115 -0.961 0.252 59 59 61 0 0
2.2163 3.9245 2.7552 -0.577 -0.581 0.575 206 206 206 0 0
1.6915 2.4452 2.6468 0.236 -0.959 0.156 32 31 36 0 0
1.6439 2.4175 2.6576 -0.298 -0.730 0.615 37 36 41 0 0
1.1628 2.5974 2.8717 0.093 -0.991 0.091 39 40 42 0 0
1.7285 2.4778 2.6705 0.148 -0.958 0.247 41 42 46 0 0
1.3363 2.5486 2.8184 0.347 -0.931 0.114 46 45 49 0 0
1.2697 2.5541 2.8423 -0.216 -0.850 0.480 37 36 41 0 0
1.1660 2.5979 2.8863 0.132 -0.985 0.107 47 46 51 0 0
1.5349 2.5043 2.7571 0.034 -0.758 0.651 50 50 55 0 0
1.1939 2.6438 2.9015 -0.188 -0.629 0.754 49 48 53 0 0
1.1659 2.6046 2.9033 0.294 -0.912 0.286 50 49 54 0 0
1.7434 2.4932 2.6986 0.323 -0.899 0.295 46 47 51 0 0
1.6858 2.4537 2.7104 0.375 -0.907 -0.190 50 49 54 0 0
1.6733 2.4479 2.7136 0.375 -0.907 -0.190 52 51 56 0 0
1.6399 2.4539 2.7262 -0.171 -0.925 -0.340 51 50 55 0 0
1.5384 2.5042 2.7711 -0.150 -0.928 0.340 46 46 49 0 0
1.5103 2.4981 2.7795 0.477 -0.816 0.325 41 41 43 0 0
1.7485 2.4895 2.7111 0.502 -0.865 0.014 45 46 50 0 0
1.7036 2.4554 2.7197 0.107 -0.974 -0.201 53 53 58 0 0
1.6765 2.4484 2.7276 0.225 -0.936 -0.270 41 41 46 0 0
1.5114 2.5027 2.7953 -0.349 -0.465 -0.814 27 27 29 0 0
1.3523 2.5377 2.8571 0.060 -0.871 -0.487 41 40 45 0 0
1.8132 2.4879 2.7036 0.177 -0.892 -0.416 36 37 41 0 0
1.8000 2.4836 2.7072 0.177 -0.892 -0.416 35 36 40 0 0
1.7858 2.4817 2.7118 0.002 -0.834 -0.552 35 36 40 0 0
1.7118 2.4776 2.7364 -0.052 -0.978 -0.203 27 28 33 0 0
1.6965 2.4777 2.7417 0.037 -0.995 -0.092 34 35 40 0 0
1.6938 2.4511 2.7372 0.162 -0.981 -0.111 37 38 43 0 0
1.6810 2.4459 2.7405 0.203 -0.979 0.006 38 39 44 0 0
1.6663 2.4449 2.7454 -0.052 -0.999 -0.013 43 44 49 0 0
2.1205 3.0332 2.7245 0.620 -0.339 0.707 56 56 56 0 0
1.8511 2.5116 2.7104 0.838 -0.539 0.081 29 30 35 0 0
1.7349 2.4680 2.7416 0.097 -0.913 -0.396 27 28 32 0 0
1.7198 2.4678 2.7467 0.330 -0.942 0.059 25 26 30 0 0
1.6818 2.4515 2.7565 0.264 -0.938 0.227 24 25 30 0 0
1.5281 2.4829 2.8160 -0.462 -0.711 -0.530 32 32 34 0 0
1.5085 2.4910 2.8244 -0.429 -0.692 -0.580 33 33 35 0 0
1.4920 2.4929 2.8305 -0.076 -0.918 -0.389 36 35 39 0 0
1.3619 2.5015 2.8772 -0.354 -0.904 -0.239 61 61 63 0 0
2.1851 3.0742 2.7263 -0.083 -0.613 0.786 48 47 52 0 0
1.8226 2.4820 2.7291 0.454 -0.755 -0.474 30 31 33 0 0
1.7994 2.4669 2.7341 0.691 -0.705 -0.162 23 24 26 0 0
1.7819 2.4720 2.7411 0.001 -0.961 -0.277 27 28 30 0 0
1.7714 2.4620 2.7427 0.201 -0.876 -0.439 27 28 30 0 0
1.7393 2.4657 2.7546 0.438 -0.872 0.217 33 34 38 0 0
1.7202 2.4741 2.7629 0.232 -0.823 0.519 29 30 35 0 0
1.3582 2.4847 2.8904 0.378 -0.784 -0.492 65 64 67 0 0
1.8508 2.4938 2.7368 0.862 -0.457 -0.221 32 32 35 0 0
1.8274 2.4790 2.7419 0.649 -0.759 0.049 33 34 36 0 0
1.8130 2.4777 2.7466 0.440 -0.880 -0.180 35 36 38 0 0
1.7403 2.4709 2.7704 -0.014 -0.957 -0.291 33 33 38 0 0
1.7048 2.4818 2.7850 0.151 -0.863 0.482 33 33 38 0 0
