ply
format ascii 1.0
element vertex 724
property float x
property float y
property float z
property uchar diffuse_red
property uchar diffuse_green
property uchar diffuse_blue
end_header
1.1161032818833025 2.5012208376679355 0.6247064149466506 42 43 45
1.1502283211028521 2.4871090421486084 0.6188947762431013 43 44 46
1.11070757206606 2.471601778595248 0.6303508912548274 45 45 47
1.1761132478413012 2.4582878662337033 0.6171744307702685 47 47 49
1.0883641076946062 2.4415441747882487 0.6399865336924894 47 47 49
1.065174246407246 2.426153848164274 0.6476421015438054 47 47 49
0.9494002397325072 2.4081741058778667 0.6771298076718759 46 46 48
0.8113430497705311 2.3891680936010515 0.7119318795761128 43 43 45
0.7757522167092141 2.3728248136249235 0.7226016319205593 42 42 44
0.7336693458005493 2.356154955115241 0.7348237771123212 42 42 44
0.6323747767805039 2.3373450399318196 0.761080361699107 41 41 43
0.5275026853817839 2.3180719494716895 0.788234431871266 41 41 43
0.482828990598592 2.3006844422859114 0.8011632406681318 41 41 43
0.7068809173088291 2.2935670277083893 0.7503155846387727 41 41 43
0.6850658228644966 2.277253787018595 0.7577896059767982 42 42 44
0.5386185780527917 2.2556222677183286 0.794924850207385 41 41 43
0.5084626401042847 2.238592533578194 0.8044374076810156 45 45 47
0.47100927552883054 2.2211314346749047 0.8157044804707216 50 50 53
0.4255746548177872 2.2031704105499443 0.8288946560092768 57 57 59
0.40674330694352384 2.186355252128054 0.8357519339081603 70 70 72
0.43896818748013133 2.1720509521294438 0.8304090455536907 85 85 85
0.45412510093296743 2.156965410907926 0.8291360167330285 107 107 107
0.4713743853606652 2.14204288376784 0.8273540852738398 136 136 136
0.33195293784584023 2.1185010829716875 0.8631451642253 156 156 156
0.3107720348794053 2.1012412099543574 0.8706127190392134 164 164 164
0.301562926757429 2.0846140239171564 0.8752130292506637 169 169 169
0.3018731696689048 2.0685311424681876 0.8775273386879946 169 169 169
0.2999268172789413 2.052309575356722 0.8803849852594962 170 170 170
0.2983344331931287 2.0361043397032317 0.8831582088188116 171 171 171
0.29461802167345374 2.0197552641200476 0.8864448236963659 170 170 170
0.3495979283270642 2.0073273594252226 0.8755521317858947 170 170 170
0.3286495169849698 1.9898682493657276 0.8829953881574747 170 170 170
1.5091513447707143 3.7805634582022423 0.35858388121467255 168 167 165
1.6149499003289933 3.752560422642446 0.3380454957808002 168 168 166
1.6130080917573633 3.7388595276556127 0.3405313623100209 168 168 166
1.5985942761549472 3.7267464254648224 0.3456925743397693 168 168 166
1.5936919173124342 3.7133857304483824 0.34881894792114154 169 168 166
1.5571697405353024 3.7039449488426577 0.35874368661906253 167 166 165
1.5240402072958226 3.693966110603587 0.3679564235726757 137 136 134
1.4971342121556193 3.6831232017066604 0.37584480816199234 77 77 77
1.5426244552812687 3.6635406766377523 0.3681328455273459 61 61 61
1.6396165293580558 3.6380418967694874 0.3492783227132433 55 55 55
1.694356785409656 3.6177740507992335 0.3395091230746811 51 50 50
1.7157865198940352 3.6015024196974275 0.3369215710284986 50 50 50
1.7532899104674142 3.583488835860404 0.33084093609912457 43 43 44
1.804838569349516 3.5640390493863996 0.32169527382819824 32 32 34
1.76127675708619 3.555175345648608 0.33317741639197107 29 30 30
1.7956472512886719 3.5377632606581373 0.32773874715068785 29 30 30
1.7935480953428038 3.5243376927884698 0.33022049045950663 30 29 30
1.7985903981342237 3.510159052716392 0.33114717524288606 31 29 31
1.8107155621851523 3.495269029348616 0.3305262929416081 39 37 39
1.814374722987078 3.481276120186993 0.33174824182223117 54 52 53
1.7813555109439734 3.4709454237103303 0.34098743180675767 80 79 77
1.8403945181620158 3.451497661772666 0.3300932560311263 77 77 74
1.8573039692391982 3.436298661473247 0.3284015826023381 73 73 69
1.8759599663539537 3.4209910903394958 0.32631838080204817 61 61 60
1.8867159679277563 3.4064793570996725 0.32596093186371317 39 39 38
1.8853440855280428 3.3931095398784596 0.3282646617076112 21 21 22
1.8788806167512466 3.3801911781966463 0.33168976689814145 21 21 23
1.8828530666120398 3.366334639219087 0.33281836373533535 22 22 24
1.8911774543775635 3.352116428327636 0.33298489555712485 22 22 25
1.8955260187373029 3.338262211702675 0.3340253644423907 20 19 24
1.9015100130917872 3.3242871628716073 0.33470205802425046 17 16 21
1.894413915822474 3.311394354983571 0.33827102467332204 15 14 19
1.8921912141812558 3.2980905289342815 0.34076354143438903 16 16 18
1.8771297096258863 3.285779302624295 0.3461053146979171 16 16 18
1.8280946869781993 3.276007212093822 0.35899964737372503 28 28 30
1.8904058561270827 3.2577719620325114 0.3471618763277693 42 42 44
1.8966951698478693 3.2438271686958173 0.3477628210732458 30 30 32
1.9062666806139004 3.2296697765282802 0.34762925704108866 16 16 18
1.9236947263362558 3.2149980180019693 0.34573832468672266 10 10 12
1.9527197243418872 3.199597185292463 0.3412488815973796 11 11 13
1.7114089473671568 3.202195747038136 0.39718419537073685 12 12 14
1.6595868538734637 3.191758144712006 0.41082775263782423 14 14 16
1.6414370844801167 3.1790304602482777 0.4169520983352416 15 15 17
1.6160517066980327 3.166685643198903 0.42470840003666704 14 14 16
1.5820954326299135 3.1547671170466978 0.43440186556432825 13 13 15
1.5470404791131283 3.14279943073349 0.44435905123984176 14 14 16
1.5211107460721056 3.130202110414681 0.45227986422295996 14 14 16
1.5003345937961696 3.1172374641370273 0.45905235123356697 17 17 19
1.497646669172107 3.103246814205031 0.4617553457318246 20 20 22
1.4936188687689478 3.0893161100301705 0.4647621676074477 24 24 26
1.483832284945355 3.0756577752297063 0.4690726547023854 29 29 31
1.5350938826181126 3.059041599177359 0.45957359832122274 32 32 34
1.5479088507381151 3.044374657862339 0.4587586225647779 32 32 34
1.5748403138124156 3.0291210700861875 0.454735955804357 32 32 34
1.6165473529553975 3.013322994659575 0.4473455168552539 32 32 34
1.70345887597284 2.9957984757010085 0.4296606917175817 32 32 34
1.6962963901745605 2.9822889568605655 0.43333664804512284 29 29 31
1.6553950794144203 2.9700358564287757 0.4447006907238749 24 24 26
1.6521408532431645 2.956281211488446 0.44750084384983174 18 18 20
1.6465752732544165 2.942595960119562 0.45083016122482583 19 19 21
1.5190862190219037 2.9329096538118336 0.4820225802217601 18 18 20
1.4509565594997444 2.920942337775894 0.49969919652406586 17 17 19
1.440566856948522 2.907038213584481 0.5041869139589985 16 16 18
1.4601931588074646 2.892260543903707 0.5017986315671734 18 18 20
1.467808357507238 2.877864225311975 0.5021571088437007 21 21 23
1.5000980340421464 2.862885685870065 0.4968430534750759 25 25 27
1.4655181530356187 2.8495506830144155 0.5068922137250857 28 28 30
1.4854149604285083 2.834940230759626 0.5044159882895682 28 28 30
1.4175761604908121 2.8221194903645563 0.5221513328608702 28 28 30
1.3769179467662305 2.808584635874599 0.5336487981288813 27 27 29
1.469843876539366 2.7927352666302947 0.5143117135876005 28 28 30
1.4805549852934428 2.778399868479837 0.5139385814515665 30 30 32
1.528970413284891 2.7636105759982175 0.504832772651248 32 32 34
1.5271715589199528 2.7495512775812188 0.5073384468567596 33 33 35
1.4097723557599415 2.7366032514182703 0.5366598475912925 33 33 35
1.3852699985253358 2.7225218007446292 0.5444677023352046 33 33 35
1.3372208996228483 2.708508287110617 0.5577611801092824 33 33 35
1.3318620407062938 2.694135663227026 0.5611442279378303 28 28 30
1.3292589734612912 2.6797371460968553 0.5638879280645104 32 32 34
1.3266549329531305 2.665330199963821 0.5666331058686136 33 33 35
1.2979699504438829 2.650906598533628 0.5754679275773682 34 34 36
1.2733526314893329 2.636395868904374 0.5833663014528201 35 35 37
1.3021584073866201 2.621998012954367 0.5787792227221549 35 35 38
1.2714519984774189 2.60738053660206 0.5881145993120253 35 35 37
1.3044206901064355 2.5931047805130554 0.5825378003640909 36 36 38
1.3226671355736226 2.5788118480936095 0.5803996548078139 36 35 38
1.4680159895187317 2.565888017923289 0.5483932674415211 36 36 39
1.6259845863972369 2.553598651490367 0.5133473609286457 38 38 40
1.5897085422952448 2.5391896168203525 0.5239517406813418 38 38 40
1.5008800202662687 2.523857130265777 0.546958631957726 38 39 41
1.4880291093309228 2.509516792045679 0.5520855006803647 39 40 42
1.1472008017900346 2.4890315812838772 0.634672448112014 40 41 43
1.2457262390399824 2.4763183658258123 0.6135631860043351 42 42 44
1.2319489906349612 2.461470058347721 0.6189816197087135 44 44 46
1.1745321031371905 2.4455465397012572 0.6347448639195179 44 44 46
1.1362222842695004 2.429914909373398 0.6460053010495312 44 44 46
1.032509097404609 2.412395534699852 0.6728106507460097 43 43 45
0.7229285563313325 2.3886475452954867 0.7485885760232877 42 42 44
0.7035350841565047 2.37264685951836 0.7554887769577396 41 41 43
0.6518643146284814 2.3555520814473763 0.7700846708423257 41 41 43
0.6924554402326109 2.341382877257286 0.7627130225816517 40 40 42
0.4159594888057767 2.3161774907584345 0.8309853741345864 39 39 41
0.4673388286712652 2.3021495869500574 0.8210748426124849 39 39 41
0.6786407513231933 2.294458733816309 0.7728989481540801 39 39 41
0.6698377327718903 2.278618379844192 0.7773035987666671 39 39 41
0.6249018622948534 2.261235736505488 0.7903703054570885 41 41 43
0.6138299943725227 2.245178483879744 0.7953366741321664 42 42 44
0.48141568353706243 2.2235993627839448 0.8294430370380153 45 45 47
0.4018951184924103 2.2040592756805597 0.8509017309074844 51 51 53
0.37078980846371234 2.186604653015912 0.8607511266699545 60 59 64
0.40193136311261823 2.1721711570177424 0.855624175367809 69 69 71
0.4262290692152844 2.1574865566774815 0.8521318008108161 81 81 81
0.46459961732776145 2.1436361017437418 0.8452311357460653 97 97 97
0.3364337104364549 2.1207242813093963 0.8785436590867614 119 119 119
0.30568699796340526 2.102923994950889 0.8883606422909216 144 144 144
0.2919503745166499 2.086016885349208 0.8940750370687852 158 158 158
0.2884683164862556 2.0696813269980137 0.8973112680093696 166 166 166
0.29609618299027685 2.0540213334328636 0.8978542668038916 169 169 169
0.2936820755134866 2.0377494022405593 0.9008318032647378 170 169 170
0.2646543475409352 2.019735820945964 0.9102792276447481 170 170 170
0.24167746797385692 2.0020302806331505 0.9182687108077521 170 170 170
0.28625375279776866 1.988874254282804 0.9098166300490913 170 170 170
0.2272464829428037 1.9686017317029403 0.9265962780873968 170 170 170
1.5293543946069061 3.7945550659929617 0.36651697680422696 169 168 166
1.597580936186726 3.7713708473698473 0.3539140257133096 169 168 166
1.5956250413961743 3.7576391067835053 0.35641104267009116 169 168 166
1.5907522768949356 3.744279611374991 0.3595386909160854 169 168 166
1.5889016382658072 3.730516936363331 0.3620155477634758 169 168 166
1.5738285009279398 3.718420231231235 0.36735431075522507 169 168 166
1.5501768597366081 3.707343945403089 0.3745587884955318 166 166 165
1.5045056912460808 3.6988999760850354 0.3865502914003789 106 106 106
1.4614048989823551 3.689991909923285 0.39800626160892594 65 65 65
1.4906321788109436 3.67227690718409 0.39376198569565946 56 56 56
1.5753537947343124 3.6481047338204715 0.3774270513481927 50 48 49
1.674192947606378 3.6225710313155406 0.3579745930720505 48 46 47
1.7322061886741396 3.6020529976567652 0.34737760117038174 44 44 46
1.7369048043274846 3.5877593335777824 0.3483932806243938 34 33 38
1.7552082071464459 3.5719652398088684 0.3464326069563632 28 28 31
1.7505077942666754 3.5587578724689304 0.3494971611495919 26 25 28
1.7931658413240632 3.5404145617200875 0.3421880697630986 25 24 29
1.7985792319798366 3.5261785073943375 0.3430271350644155 26 25 30
1.8311106945663667 3.5091189646072785 0.33790869622887204 29 28 32
1.8250849872743637 3.496144235264729 0.3412503596476392 34 32 33
1.851482504754129 3.479859978739682 0.33745920324831913 36 34 35
1.8409658406668519 3.467347710441727 0.34178823521263035 48 46 47
1.8332590705894252 3.4545248942408153 0.3455026366130501 78 77 76
1.8488085399025436 3.439433229545097 0.34408529926715187 87 86 85
1.8690880685810092 3.42394516551216 0.3416145719748766 79 78 76
1.8834101537265797 3.409079696852469 0.3404522775311002 72 71 69
1.8907872796584013 3.3948973858673903 0.3408216296415701 56 56 56
1.8809762395137744 3.3822834068169856 0.344999834564018 31 31 31
1.885498518214913 3.3683736589002917 0.34600002235046795 22 22 22
1.8909812280373373 3.3543961345040665 0.34678443515532886 24 24 26
1.8841909178399208 3.3414779257270495 0.3502974975750406 21 20 25
1.8889650806290799 3.327575820057137 0.3512373251924891 19 18 23
1.8906735585929388 3.3139396100876883 0.35285855261743093 16 15 20
1.8894458849721578 3.3005436431497333 0.35513452782659677 15 15 17
1.8862964673601825 3.2872939795393403 0.35784066549765425 14 14 16
1.7956140858471157 3.2807287307343094 0.380137110108496 12 12 14
1.8288578905357722 3.264589945975932 0.3747145800931563 11 11 13
1.8666907880793628 3.2482263771900612 0.36824634676833984 14 14 16
1.9453079284180372 3.2290734628316464 0.352602167123527 17 17 19
1.9887716108208513 3.2126370328029537 0.34482075568734133 12 12 14
1.9313970189914733 3.2032183854604512 0.3597087222446884 11 11 13
1.674658273907017 3.20686506906552 0.41953565823715117 12 12 14
1.6585324030825044 3.1940588001405894 0.42522721896884347 14 14 16
1.6507147659170782 3.1806742872658442 0.4290510173321869 15 15 17
1.6165716684926092 3.168882919698679 0.4388284730186918 14 14 16
1.5966319473174164 3.1561282603317387 0.44540914207772614 12 12 14
1.5536010435543521 3.1446506040463635 0.45722988092863165 13 13 15
1.521162884038876 3.132431372482818 0.46666992242873184 16 16 18
1.5118331645686043 3.1188371250890308 0.47088037663656046 17 17 19
1.5012378496484038 3.1052793355029227 0.4753830064001309 19 19 21
1.5031887847756016 3.091040243800192 0.4770366622096662 26 26 28
1.4876507261441858 3.0776796061772487 0.48267224975987527 30 30 32
1.452217263695561 3.0652260275058847 0.49285135353592024 32 32 34
1.5518380677518686 3.0463725731558995 0.4722240798990913 32 32 34
1.5837436549304997 3.0308880918518697 0.46701914318757753 33 33 35
1.6417712724088194 3.0143819260336664 0.4558236054924114 33 33 35
1.695184439842422 2.9982607558617755 0.44565596584988915 32 32 34
1.7127439706504988 2.983746654936325 0.4436803130686173 30 30 32
1.670832769058959 2.9715626028274036 0.45534256689690866 26 26 28
1.653164051826075 2.958353705072384 0.4614566332527988 20 20 22
1.639897001137987 2.9449327495977022 0.4665671785741517 20 20 22
1.5415185901255646 2.934293551299711 0.4912775942241969 19 19 21
1.4593766490997822 2.9228150752820556 0.5122947767970478 18 18 20
1.4367272889812612 2.909286276302649 0.519627417773633 17 17 19
1.4669016434290183 2.8941923073320526 0.5147716192108367 19 19 21
1.4952820527009734 2.8792466153532708 0.5103156405087264 22 22 24
1.527432721301397 2.8643018115791703 0.5049730150905561 25 25 27
1.4714282196462256 2.8515107137568405 0.520039134384869 28 28 30
1.4948950793433406 2.836820807695168 0.5167005505271551 28 28 30
1.4291009441337623 2.8239842840669143 0.5340752813562308 27 27 29
1.3734142545793153 2.810744827099031 0.5491331869398378 28 28 30
1.4639958670981734 2.7948983650776444 0.5301852407464994 28 28 30
1.5285779284275633 2.779740830541513 0.5172484614780357 29 29 31
1.4915729123481682 2.7661424290336494 0.5279669262858582 31 31 33
1.4414430308746584 2.7525728950249904 0.5417672064629173 33 33 35
1.379009704569874 2.73895857892809 0.5584670843743842 33 33 35
1.3331883048370672 2.724999868142427 0.5713120302277974 33 33 35
1.3179675359520404 2.7106877314725173 0.5770141682993913 33 33 35
1.3144217339876292 2.6962678468770633 0.5799871129712451 27 27 29
1.3099794992364766 2.681839300547224 0.5831721241616727 33 33 35
1.3103381249877837 2.6673886038701053 0.5852315773864283 33 33 35
1.277824075108016 2.652936645353167 0.5950206909937351 33 33 35
1.2981420260812606 2.638468935813298 0.5923895585107017 34 34 36
1.3101006817400616 2.6240405658888246 0.591718141816548 34 33 38
1.3049782374077425 2.609565565025998 0.5950699847746462 34 33 38
1.3320149095197287 2.595290394053443 0.5908304913386541 35 34 39
1.3517416021264845 2.581044006550082 0.5883055502209888 35 34 39
1.3682168168633202 2.5668307611576755 0.5865402243877869 35 34 39
1.2574302381220164 2.5511800687212407 0.6149116793536243 35 34 39
1.2126386285933741 2.536044750650298 0.6276890379515674 35 34 39
1.6479370692260324 2.5279883642632135 0.5265308883817776 37 37 39
1.6134147158487149 2.5135257986539763 0.5367937953555741 38 38 40
1.3710348737062106 2.4951277430189776 0.5965148332181882 38 38 40
1.3267875401720353 2.4798951830906875 0.6091786401450994 39 39 41
1.2907869756144912 2.4646946692672698 0.6198985998576336 41 41 43
1.1974934375329997 2.448035529195879 0.6443064562201469 42 42 44
1.1489869550063874 2.4321875294014785 0.6580630337663149 41 41 43
1.0850254865360696 2.415765749231434 0.675538720037431 41 41 43
0.7354310003097589 2.391030068605747 0.7614097259787218 40 40 42
0.7646109227741293 2.376504753541309 0.7567033913771973 40 40 42
0.8226060984580852 2.362989893974301 0.7450717179635256 40 40 42
0.6059429212014458 2.340507582989191 0.7993518059676963 38 38 40
0.4599491042707964 2.319779332183907 0.8367549302914405 38 38 40
0.5169618071485215 2.306011819919624 0.8253917506552853 38 38 40
0.6411358577616328 2.295009346091129 0.797826479408877 38 38 40
0.6403427091850624 2.2794207670753215 0.8003255597820125 38 38 40
0.6600829381846172 2.264685399367121 0.7978699766034882 39 39 41
0.7377865160395757 2.252527612019404 0.7814028707692008 39 39 41
0.7391147535925846 2.2371920068101745 0.7833656128471387 41 42 44
0.25200846474264904 2.1990715343467033 0.9035559249133578 46 47 49
0.24962148149382926 2.182753424831658 0.9065379962242583 53 54 56
0.2930648469249156 2.1687184354470452 0.8984051053870562 59 59 61
0.31732925158103453 2.153837651954432 0.8949073087445548 66 66 68
0.37201655926663635 2.140659684545389 0.8840034481492639 74 74 74
0.40623908877666687 2.126538839066689 0.8780514232480479 87 87 87
0.31865820117178323 2.105633565964872 0.901745962020005 104 104 104
0.3032083153232307 2.08864244955597 0.9078994030699346 130 130 130
0.2937454737495584 2.0719592003582363 0.9125994158974486 152 152 152
0.28759198602787034 2.0554486737678865 0.9164956645695104 164 163 163
0.2809970697355747 2.0388900003224957 0.920502850609566 169 167 168
0.27451495046648233 2.022316975780873 0.9244856432728531 172 170 171
0.2540227638768967 2.0047893907908665 0.9319042848095243 171 169 170
0.2468153347739201 1.988100946605084 0.9360747448859817 170 170 170
0.2408730487787148 1.971477272845337 0.9399381184374571 170 170 170
0.12239667239143137 1.9467764702669415 0.9714602985359746 170 170 170
1.6735187581046675 3.7915336574207283 0.347556074991697 169 168 166
1.603580485467688 3.787110776933908 0.36477871867442363 169 168 166
1.5943602916302075 3.7743544291585733 0.3688550546959351 169 168 166
1.5671171948886882 3.76394200258394 0.3768528390579661 169 168 166
1.5552831367047444 3.7514345934943902 0.38151140261933036 169 168 166
1.58560794326187 3.733474253979736 0.3769925417448739 168 167 165
1.5416071558071485 3.7250356408026954 0.38866698177817144 168 167 165
1.5360002820690528 3.7116483213547746 0.3919810173301888 158 158 157
1.4978804482445833 3.7022550225974755 0.40240403472064346 83 83 83
1.4852599219006233 3.6896304622009364 0.4072662705102589 60 60 60
1.4764174398809438 3.6765103961408907 0.41130709155978923 52 52 52
1.5760377996663524 3.6505177659602897 0.39156546710505075 51 49 50
1.6833998980747755 3.623953591973767 0.370074812518667 47 46 46
1.7752450448380404 3.5995331594531375 0.3519417074638593 39 38 41
1.7338938922680662 3.590525196139273 0.36307297763366897 37 36 41
1.7395879609283866 3.5761225098874347 0.3638607391356497 32 31 34
1.76449569935622 3.5596239856896412 0.36040818949027636 28 28 29
1.8322908919664394 3.538559126841855 0.3474741114725356 27 27 29
1.8327556378371592 3.5249077414574956 0.3493891120665693 28 27 30
1.8540268990096425 3.5090717625026966 0.3466996644965845 29 28 31
1.8723073462796005 3.4936161812778206 0.34466223289801273 32 30 31
1.811171925490047 3.486302123652779 0.3602285978215883 34 32 33
1.8594109018163316 3.4678381902618907 0.35154104505942274 36 34 35
1.8439702249029546 3.4558022766929066 0.3569839788734707 39 37 38
1.8402855531085023 3.442577740314528 0.35981854753237835 56 54 55
1.8586803062135084 3.4272417670492556 0.3577362968857809 80 78 79
1.869811447879092 3.412645848410996 0.3572648232029737 95 93 94
1.8815531442331883 3.3980312179193257 0.3566515009158528 84 84 84
1.887600297969639 3.383968916669965 0.35730513212032583 79 79 79
1.8957340479963105 3.369742486458291 0.3574888508201519 57 57 57
1.9066673445800273 3.3553005061762655 0.35704140577399673 31 31 31
1.9001453244428177 3.3423803739915465 0.36050291154726033 24 24 26
1.9179050802248458 3.327413136877212 0.3585163756887992 25 25 26
1.8916301020947726 3.316105304916609 0.36641766523999286 23 23 25
1.8879995776312768 3.3028965887729185 0.3692370609976446 18 18 20
1.8896949955341342 3.2892583179232493 0.3708586022496222 14 14 16
1.7641619031820863 3.285391483121459 0.40116771363904163 12 12 14
1.7297349978731766 3.274265422757193 0.4109730161781549 12 12 14
1.7302735835029033 3.2604575571539387 0.41289373880817726 12 12 14
1.7320796480193092 3.2465607511104633 0.41452742265402304 12 12 14
1.857413721172036 3.2240117619126565 0.3881840547713768 13 13 15
1.9273297354923793 3.2056726401099107 0.3743432659161179 12 12 14
1.6816115476747657 3.208638776786954 0.4321074478859133 14 14 16
1.6251426117322207 3.198467254915321 0.44699232972372144 14 14 16
1.6302900724127574 3.1841995175177678 0.4478895495947868 14 14 16
1.6114095444716632 3.171433214784819 0.45425564188312806 13 13 15
1.5974413665790617 3.158309010839918 0.45951121953691026 13 13 15
1.4922532115241707 3.150468732135399 0.4855905817965107 12 12 14
1.536325049774548 3.133805203487374 0.4776230372983834 14 14 16
1.4832271980645384 3.1226429131759206 0.4918563712951695 16 16 18
1.5117960475808387 3.106940026259762 0.48741857337842287 18 18 20
1.5137441051025504 3.0927106996939364 0.48906794988232455 26 26 28
1.4871376501659812 3.0799188094702625 0.4972679071570011 30 30 32
1.4581213855027801 3.067155247823126 0.5060344827424463 31 31 33
1.562284879485462 3.048065898547342 0.48419265606706735 32 32 34
1.5929834279143371 3.03263763175931 0.47920965043461117 33 33 35
1.6112549337291169 3.01785170870389 0.47707499776810597 34 34 36
1.706871067856383 2.9998955682367265 0.457089712703224 33 33 35
1.7264282020189798 2.9853090366544004 0.45462095011701953 33 33 35
1.6794134135341072 2.973347367592109 0.4675319483420771 28 28 30
1.6545198259735185 2.9604156686992935 0.4753469119358441 19 19 21
1.6543588453066482 2.946532752646343 0.4774444766591745 20 20 22
1.5658140239351155 2.9356060876063785 0.5000393137697742 20 20 22
1.5427133203000698 2.922304528046979 0.5074844564532867 19 19 21
1.316259747775068 2.9150514593383052 0.5622013038544915 18 18 20
1.446673193668944 2.896889480010736 0.5340039839705777 20 20 22
1.5074683465901029 2.881027167551429 0.5219562705263234 23 23 25
1.553101800594618 2.8657484884109765 0.5134133876038538 26 26 28
1.606323892321008 2.850443965409002 0.5030767893976376 27 27 29
1.5317733360848018 2.8381017718580606 0.5225667361798951 26 26 28
1.4242919527445537 2.826174455684646 0.5497955871798743 26 26 28
1.3717423943900495 2.8128751055169317 0.5642160626253048 26 26 28
1.481513276441091 2.7966739249181605 0.5406175534948204 27 27 29
1.49618616659697 2.782277859771495 0.5392774857273345 29 29 31
1.4104852390258746 2.769282978163218 0.5615054843957124 31 31 33
1.3881958974961397 2.7552543320224565 0.5688662948621817 33 33 35
1.3402949050424138 2.7414114190327252 0.5822662808017575 33 33 35
1.3134226862732368 2.7272309963226666 0.5907351695468017 33 33 35
1.2956432105372229 2.712899393883973 0.5970726526412593 32 32 34
1.2898103331886577 2.6984473391511057 0.6005981684809999 31 31 33
1.2934631584845646 2.6839430663597446 0.6018845165898767 32 32 34
1.2959227342924509 2.669453352609069 0.6034513544430048 33 33 35
1.2883072058085625 2.65497359044913 0.6074032437348595 33 33 35
1.2639663322279975 2.640443405879049 0.6153244079684488 32 32 34
1.1859053508995 2.6256617370089854 0.6360077612387197 32 31 36
1.246739289383525 2.611292905885847 0.6237293130956532 33 32 37
1.290266807158289 2.5970142338741873 0.6155369271742238 34 33 38
1.3454788016503307 2.582976175022371 0.6045411022275936 33 32 37
1.467331368180233 2.5697775939491763 0.5776353447947524 33 32 37
1.2594399547304733 2.5531928349665005 0.6293395944584642 34 33 38
1.2166763725336602 2.5380900566032536 0.6417095549275555 34 33 38
1.7909487963610986 2.5319951680137103 0.5065836288368311 35 35 37
1.7831435907012883 2.5182117449609844 0.5104771506789795 36 36 38
1.3932177737991929 2.4974640646906625 0.6059181112425922 37 37 39
1.3235233882383288 2.48176632648883 0.6247555300597205 37 37 39
1.2806290284002977 2.4664126620658005 0.6371936854950362 39 39 41
1.2248130340085357 2.450617295542688 0.6527581602909661 39 39 41
1.1819694326707295 2.43495828074647 0.6652295889433502 39 39 41
1.1533843077461052 2.4195344464903985 0.674288671513187 39 39 41
1.1506692327149843 2.4047437799417275 0.6771258925145824 38 38 40
0.7115973971154448 2.376937355546104 0.785255369469334 38 38 40
0.7660817903227946 2.363203087950597 0.774386828874898 38 38 40
0.7515777202524133 2.347364374697389 0.7801720236164617 37 37 39
0.8891618236879284 2.3367703935995614 0.7491535040922082 37 37 39
0.6793325155693251 2.3139662256610856 0.802239395554483 37 37 39
0.6239852266092187 2.296354164636336 0.8179623401489936 37 37 39
0.64127633836381 2.2814486397574325 0.8160776591818362 37 37 39
0.6469240513504657 2.2661182075381796 0.8170140256933562 37 37 39
0.7694244551197416 2.2558456249980257 0.7895207613926479 38 38 40
0.753118069346956 2.2397645039999103 0.7957688368830689 40 41 43
0.7838068418033859 2.2258122368618904 0.7905691927893221 42 43 45
0.2538253151286125 2.184986839605831 0.9221640614988523 46 47 49
0.22328638208588492 2.1672586786174426 0.9320277805250082 51 52 54
0.2640138767573692 2.153095146250545 0.924481566408929 57 57 59
0.3211990437525354 2.1399413799356126 0.9128871701438129 63 63 63
0.3572849279219336 2.1258225880296204 0.906433794759517 69 69 69
0.38828629780158797 2.111537200171467 0.9012095206515102 77 77 77
0.4158862626640007 2.0971576168719666 0.8968049233179395 90 90 90
0.3024747257993041 2.0744432990506882 0.9270386475675216 114 114 114
0.2930446765532494 2.0577387752041 0.9317503768849701 144 143 143
0.2872663820203339 2.04123350766837 0.9355675431192865 161 159 160
0.2806682712662662 2.0246561846550084 0.9395895912139295 168 166 167
0.2740607317561274 2.008056536527492 0.943617184506481 171 169 170
0.2696334645372875 1.99158358782683 0.9471095335699088 170 170 170
0.2574012927152308 1.974551835321183 0.9525335542189162 170 170 170
0.25847334615191214 1.9584296344113286 0.9546712276428837 170 170 170
0.3591801187363016 1.9495914678305337 0.9321275168972653 170 170 170
1.6545835140862044 3.7966769074174307 0.36581538836208183 169 168 166
1.590093938548554 3.7914988070096434 0.38197170148667053 169 168 166
1.5500808575071332 3.7828329110237506 0.3928049012646505 169 168 166
1.5528058211182056 3.7683902599174584 0.3942970283091104 169 168 166
1.5738133605836706 3.751573211658177 0.39177885226659626 164 163 161
1.5859560025250157 3.735967486030912 0.3911962982609546 164 163 161
1.6004613658318818 3.7201023056759963 0.3900884481199357 167 166 164
1.5622729442836643 3.7108924004644135 0.400566951039406 147 147 146
1.491532291589133 3.705582428179728 0.4182344301064647 76 76 76
1.4250593763990569 3.6995159062983274 0.43499578280135953 60 60 60
1.405641905881126 3.6875635715192647 0.4414020406482803 52 52 52
1.5442413318220576 3.656788733431066 0.4128950257091951 52 50 51
1.6892966751844982 3.6257207242591036 0.3828910153470138 54 52 53
1.8044294727371524 3.5985889490727114 0.3594431123796614 47 47 49
1.7206763595272923 3.5944559411941643 0.38004098339338904 36 35 40
1.7413126853462164 3.5783481603816787 0.3775061757751719 33 33 36
1.7730607117972421 3.5610829950162524 0.37249162287323945 31 31 32
1.7869867596830256 3.545861242775374 0.3714265637505469 32 32 34
1.8546370093967028 3.524935657859155 0.35838814605237695 26 26 28
1.8694123617269893 3.5098072929299593 0.35710657703028975 23 23 25
1.8696507841994368 3.496235929150098 0.3590627895538739 30 28 29
1.876533388045944 3.481987632249815 0.3595340091485336 33 31 32
1.8926345738712496 3.466837244859194 0.35793934221450024 33 31 32
1.8406521522972126 3.4584606904591793 0.37158569444169365 33 31 33
1.8483822322819579 3.444116881003801 0.3718688608000313 33 31 33
1.856237239004032 3.429787146169557 0.37212012993074095 34 32 35
1.8652919838028423 3.4153714003929254 0.37209788119892906 49 47 50
1.8752326188062713 3.4009045273986085 0.3718718291491391 75 75 75
1.8825310553812922 3.3867097756088262 0.3722358819549259 94 94 94
1.8906790438454724 3.3724642163774443 0.3724047548992154 90 90 90
1.8976321684587685 3.358350027050186 0.37283925433260057 81 81 81
1.9175394993857668 3.3431533965480846 0.3703432411099392 50 50 50
1.912415217428426 3.3301184447257737 0.37349951028373296 24 24 24
1.9041463546090338 3.317324576446026 0.377370364580078 20 20 20
1.8812836331807823 3.305676181123469 0.3845536284135969 22 22 24
1.8604958055162728 3.2937884936652573 0.3912772854673035 16 16 18
1.7805903772444132 3.2863855927264116 0.41144207720971016 13 13 15
1.7928737541948325 3.271768825961164 0.41067924473720524 11 11 13
1.8595669796933711 3.2531833693438053 0.3975220658097993 11 11 13
1.874969746276725 3.238514922866465 0.39602256408007996 11 11 13
1.750020216424164 3.2337737513297395 0.4265407561353326 12 12 14
1.807106400954576 3.216110968456011 0.4155391029163713 12 12 14
1.6926047945691278 3.2101402960065144 0.4437466346571884 13 13 15
1.5910678810501433 3.202940756602772 0.46904287150707075 14 14 16
1.5991577245471413 3.1884200718885074 0.46926642939932484 14 14 16
1.5974730365418455 3.160538627546551 0.47380420732746664 12 12 14
1.5315641591323934 3.1504132778439713 0.49103303669821324 12 12 14
1.4810031996017545 3.139193167652896 0.5047620037796032 13 13 15
1.4848194972451276 3.124794184707096 0.5059872439541186 16 16 18
1.514560981448576 3.10901600783287 0.5012309114561815 19 19 21
1.4870147578394073 3.096317963815502 0.5096874314548517 24 24 26
1.4714424736878522 3.08292526515051 0.5153898236107246 29 29 31
1.4677074714592913 3.068904427552442 0.5183608299617579 32 32 34
1.5695281778701402 3.0499067868239553 0.49688282592638966 32 32 34
1.601660109736812 3.0344102341446364 0.4915143205979635 33 33 35
1.6224047043988075 3.0195186138487236 0.4887732795639311 34 34 36
1.713413121171398 3.0017428782542557 0.46969400602714273 34 34 36
1.710792234578096 2.988050248216258 0.47235048240173266 32 32 34
1.6904230249482752 2.9750359902989967 0.4791413601100437 28 28 30
1.6723182791180002 2.9618702082497075 0.48541437762489836 20 20 22
1.6706500703574085 2.948062966877954 0.48786053100476695 21 21 23
1.6533693867901376 2.934776575174913 0.49395480497010774 21 21 23
1.5441849898905284 2.924377143414978 0.5215505059507526 20 20 22
1.271086052546765 2.9185923598820582 0.5875742673911417 19 19 21
1.3992754952669495 2.900378854165002 0.5596879560782904 20 20 22
1.4594624338059154 2.8844314231332246 0.5476919682998276 23 23 25
1.5563565906829575 2.867753389304883 0.5270454378907399 25 25 27
1.599146493182336 2.852681072353346 0.519070845219858 26 26 28
1.5651683543491575 2.8394435964025235 0.5291421372410348 26 26 28
1.41844087538203 2.8283904175201764 0.5657931781074463 26 26 28
1.410793632160083 2.8142465104536947 0.5697159618128449 26 26 28
1.4698962114798286 2.7989397058087726 0.5578836919946235 27 27 29
1.430918220605274 2.7853382794428447 0.5692020133726468 29 29 31
1.3450111716625077 2.772250699966619 0.5916421206176523 31 31 33
1.3622460874266018 2.7576346927142357 0.589697660884946 33 33 35
1.3011877021593965 2.7438890369066216 0.6063061039081139 32 32 34
1.300598129311486 2.729413237533836 0.6085940482251376 32 32 34
1.279765143031931 2.715078395881273 0.6156914786560798 31 31 33
1.3346239034374627 2.700266918743212 0.6047983761544871 31 31 33
1.3413024225722394 2.685817533381091 0.6053481219449566 32 32 34
1.3502834805077262 2.671385899115367 0.6053458128650113 32 32 34
1.3346514781387935 2.6569939192058305 0.6112106827814977 32 32 34
1.3127696722683064 2.6425420998496105 0.6185757298191505 32 32 34
1.233355170922583 2.627848198585746 0.639704886893004 31 30 35
1.2549318847126236 2.6133555914761595 0.6367061017296394 31 30 35
1.2284942049515382 2.5986337598090046 0.6451983037157036 31 30 35
1.2982754995280286 2.584588191963224 0.6306308402802634 32 31 36
1.4209739033481434 2.571283642698836 0.6033266082566526 33 32 37
1.503380535365907 2.5579338366330395 0.5856433362614839 33 32 37
1.1167978556495088 2.5387912171764446 0.6807275236740911 33 32 37
1.3655125130884853 2.527638336214726 0.6230346757462709 33 33 35
1.571197691330952 2.516614062826067 0.5755902575304522 34 34 36
1.5596346317501382 2.5023790705755244 0.5804609273498667 35 35 37
1.6561039224776273 2.490223080233992 0.559245000791396 36 36 38
1.2699479583355757 2.468126094078202 0.6546656022227616 36 36 38
1.2141956554732736 2.4523191319889923 0.6703136942024279 36 36 38
1.17767128393693 2.4367996210385656 0.6813310620902718 37 37 39
1.2056491925994082 2.422852501084181 0.6767239370613634 38 38 40
1.2182984896097957 2.408570741430855 0.675824097168394 37 37 39
0.6479835835041434 2.377081562723687 0.8165810900582815 37 37 39
0.6803687915485388 2.362530670599582 0.8110118748204473 37 37 39
0.7140778620780077 2.3481314527435857 0.8051042667363024 37 37 39
0.8460227054837449 2.337242213636311 0.7752354153719122 37 37 39
0.7110877806622411 2.317118215093362 0.8104180854940862 37 37 39
0.8011683260188254 2.305076578813943 0.7907096508219689 37 37 39
0.7097360049840092 2.2861508848406134 0.8153341692224673 37 37 39
0.6371653738688136 2.2676989231260003 0.835387722508709 37 37 39
0.6167723828922189 2.251244488555295 0.8426945723088253 37 37 39
0.8224783681227147 2.2448006731666346 0.7945657484652009 38 39 41
0.19225217771460731 2.184069638601896 0.9539560919679381 42 43 45
0.1898679850065428 2.1676323733878617 0.9569632140504466 46 46 48
0.2104467960401182 2.152363911478388 0.9543176302616381 50 50 52
0.24587774529006937 2.1379498822291723 0.9480013520295274 53 53 53
0.2906976135860469 2.124166366500292 0.9393512038606527 58 58 58
0.3313920534539514 2.1103003653067325 0.93169768288704 65 65 65
0.36289249722710637 2.0960378396048935 0.9262968115012377 71 71 71
0.4097779241496193 2.0827967308337203 0.917073330980247 82 82 82
0.39039918729509854 2.0656551457581758 0.92424009213266 101 100 101
0.29298268704695696 2.0435417717591617 0.9507653727650794 133 131 132
0.289003417438557 2.0271358160050252 0.95414846086283 156 154 155
0.285965490493452 2.010779199817734 0.9572996111107712 168 166 167
0.2749739853259672 1.9938728354655126 0.9624301562247897 170 170 170
0.26088028471754077 1.9767143950656243 0.9683383253052333 170 170 170
0.2620057828907321 1.9605930391055106 0.9704611199584414 170 170 170
0.2511517841765107 1.9436026975480056 0.9755713106138146 170 170 170
0.2275601907543859 1.9256270470432613 0.9838670460536756 170 170 170
1.6703328257899699 3.7970702266132297 0.3765238534289905 168 168 166
1.5721700579721705 3.796499885223706 0.40020279056658414 168 168 166
1.5630308502458536 3.783671104751231 0.4043023315567676 170 169 167
1.5654798490121662 3.769278314525471 0.4058485225405221 163 162 160
1.5931654629270868 3.7515958861067427 0.4018167969475309 165 164 162
1.5966283072670622 3.7371311909510974 0.40312996605333323 168 167 165
1.594394157032723 3.7234037709034316 0.40570310378928814 163 162 160
1.5391102496767077 3.7163363597274013 0.4200393922688569 148 148 146
1.4869602453035082 3.708696059482036 0.4337073923939318 88 88 87
1.395809616314675 3.705653391876692 0.456067607550433 67 66 67
1.4342334785974185 3.6866705505606308 0.4496477289725386 59 58 59
1.5983312365532343 3.6528602587251857 0.41522025511203753 56 54 57
1.6486797074349298 3.6329447485974695 0.40607252460187837 53 51 53
1.7347154675616796 3.6090695421283088 0.38893434744802297 50 49 51
1.7325241629040513 3.5955395584725527 0.39146790181902924 53 52 55
1.7620937460811503 3.5784347047488256 0.38689767699654076 49 49 50
1.7887717648623394 3.561748718343304 0.3829603376718695 35 35 37
1.8212380427471961 3.5445210597825754 0.3777120803508574 26 25 28
1.821291581175688 3.5308807253627426 0.379722433596801 23 22 26
1.8820020055288604 3.51083179547845 0.36810390021155576 21 20 24
1.896094981145013 3.4958334480230775 0.3669411724482265 23 22 25
1.8949632146238147 3.4824401806413188 0.3691997782736716 26 24 27
1.9084002641262137 3.4675769200226676 0.36817467154967815 26 24 27
1.9402984167333783 3.4509312820623754 0.36297663943836345 28 27 30
1.9207208345735862 3.4394018608077785 0.3693924121937576 29 28 31
1.8847622753667777 3.4293742073856635 0.37952275435845084 31 30 32
1.8835447379731785 3.415961728673344 0.3818048255637601 30 29 31
1.878649223334534 3.40288493730067 0.38492114174606196 25 25 26
1.8850743138958261 3.3887658423792986 0.38547104559494255 28 28 29
1.8856133763634706 3.3751921320763763 0.3873548164761148 53 53 54
1.8919055048482378 3.3611181220745965 0.3879299917213117 77 76 77
1.9054477595328994 3.346444382908461 0.38685148691170523 83 82 83
1.9147153988867216 3.3321749957249844 0.38674044985064504 75 73 74
1.9108597616122505 3.319016893863522 0.3896188822630797 44 43 43
1.898333244945722 3.3065453726860405 0.3944796036908464 21 21 22
1.8762177242928908 3.294789558261792 0.40153897381257525 17 17 19
1.8385808982495149 3.284160077137455 0.41216197006381566 17 17 19
1.6045243686882036 3.2882620512689904 0.467811217616738 13 13 15
1.6613367881629382 3.270067950194725 0.4568544861241084 11 11 13
1.7151309343997534 3.2522817807753053 0.44656271783357343 10 10 12
2.0741823113053646 3.213113374052387 0.3660710659867251 10 10 12
2.0321968839204327 3.202801175814381 0.3776922278626701 12 12 14
1.52122793361074 3.223911757297133 0.49737714327229926 13 13 15
1.5375355184589923 3.2087119882368516 0.49571198958386203 14 14 16
1.5958753656602824 3.1628693663323926 0.48848913211303213 13 13 15
1.5274044443264263 3.1529025018969477 0.5064251083527564 13 13 15
1.4775971572723905 3.141638186217034 0.5200675515981211 14 14 16
1.4862388686252572 3.1269565970814046 0.5201681026252667 18 18 20
1.52365334525188 3.1107514489884043 0.5135788341038496 21 21 23
1.505508676950487 3.097576667753989 0.5198942429190425 25 25 27
1.4889325879288835 3.0842621949864104 0.5258533489583062 29 29 31
1.4774604440076642 3.0706427897439688 0.5306309035352275 32 32 34
1.5873717983286086 3.0512449140822615 0.5070898973797424 33 33 35
1.614720582135249 3.0359806315857716 0.502780457176425 34 34 36
1.6339235463640738 3.021165829558703 0.5003622711667945 35 35 37
1.7036797964089074 3.0042773615653204 0.48610070893367 34 34 36
1.719458174177575 2.9898144504373505 0.48445345963745295 33 33 35
1.6957476264422506 2.9769427016757892 0.49206173197811987 30 30 32
1.674379443439186 2.96390477323222 0.4991316438553216 21 21 23
1.679586693471131 2.949849149208402 0.49996485266964363 20 20 22
1.675872669333992 2.936114028083537 0.502894834228903 22 22 24
1.5539824876727546 2.926182428211864 0.5336653992464158 21 21 23
1.5063070798304052 2.9135721370308962 0.5469950690615719 21 21 23
1.3933044712284155 2.9026946263924356 0.5757697262094703 21 21 23
1.474892578887909 2.886130747618797 0.5586161210531626 24 24 26
1.5666887279618944 2.8695775532028187 0.5390073327813266 24 24 26
1.606128950161652 2.8545847177520445 0.5317513393713782 25 25 27
1.5679279915837425 2.841453960099692 0.5428809355044006 26 26 28
1.4571842465219933 2.8296919144711916 0.5712438535395007 26 26 28
1.4334675235567658 2.8159114757159944 0.5789883928705906 25 25 27
1.4183689105342805 2.801903225682784 0.5846952792029013 27 27 29
1.3485564543999269 2.788699494069391 0.6034338187521926 29 29 31
1.3110140641897345 2.774813008524954 0.6145172162092534 30 30 32
1.3014848455583663 2.7604574260393706 0.6189369650197278 32 32 34
1.2703615571161446 2.7462996360692555 0.6285177128666206 32 32 34
1.3326721719095254 2.7312017933077484 0.6157801817923311 32 32 34
1.3512951586050457 2.7166302108454357 0.6134653229311893 31 31 33
1.343766342708261 2.7022679067267625 0.617405253208055 32 32 34
1.3471846471191067 2.687837455436093 0.6187240486336639 31 31 33
1.3757478618381396 2.673361114878151 0.6140058359967961 31 31 33
1.3691084538167209 2.6590020517173785 0.6177315080426828 31 31 33
1.2624187744940971 2.6445164599295925 0.6455239672135537 31 31 33
1.2227717022608298 2.6298573473311104 0.6572278456933329 29 28 33
1.2909140950789668 2.615538291979587 0.6429730774279545 29 28 33
1.2092134496129632 2.600540779004291 0.6648351197384585 30 29 34
1.2917273162228906 2.5865375136940068 0.6470791931709505 30 29 34
1.3769191673943022 2.572834580355867 0.6286350407767057 32 31 36
1.4791877354127085 2.559604376732523 0.6060162212829122 33 32 37
1.113065336171211 2.5407619126964125 0.6968120032220589 32 31 36
1.3552569960649625 2.529444912339418 0.6402775797863032 33 32 36
1.509992004500189 2.517532200891685 0.6048525411643874 33 33 36
1.5171756928361726 2.503522404196712 0.6052038971220044 34 33 37
1.4653403158297418 2.4883932823715234 0.6199070635635444 34 34 37
1.2744637534780763 2.470166089801246 0.6684896065826682 34 34 37
1.2195324552443305 2.454390005929373 0.6840328682335064 34 34 37
1.2113467646134457 2.439570451493483 0.6881985067975243 35 34 38
1.2252727649369026 2.425299623984484 0.6869680026943008 36 36 38
1.2653868900815635 2.4118009782238223 0.6793284026223743 36 36 38
1.1455302603509758 2.3937376847038103 0.710816329241242 36 36 38
1.0284353133708035 2.3753609814984946 0.7416869464809016 36 36 38
0.7665564730052767 2.3518594761942637 0.8081178717178065 36 36 38
0.8120986148613176 2.338051441315696 0.7992194875750134 36 36 38
0.7253340570298292 2.3196277207493607 0.8228068856815659 36 36 38
0.8383055427079262 2.3084453772928333 0.797311767977309 36 36 38
0.7074205054551483 2.2880398483063966 0.8317978909716555 36 36 38
0.6272619329317937 2.2692799328648405 0.8538473452259826 36 36 38
0.6252512938455448 2.253589987695077 0.856657854252116 36 36 38
0.7725586886892574 2.244517935734132 0.8225967673126899 36 37 39
0.15154651373876826 2.1349898723579144 0.9881087622034794 45 45 47
0.2080579592348151 2.1216670024832798 0.9765018404342577 47 48 50
0.2547508444863512 2.1079825690167553 0.9673085309881009 52 53 56
0.3054333925357275 2.094684091733406 0.9570990212373642 59 59 62
0.3007800107138517 2.0782702531273647 0.9606521107348229 67 67 68
0.3347792931484062 2.0641997595780532 0.9545670904925677 74 74 75
0.3576085603629763 2.0495425717581495 0.9512539102551624 90 89 91
0.29126775202868965 2.0292234938391687 0.9702134004539126 121 120 121
0.2861464562341549 2.012725194291301 0.9738914852437979 153 152 153
0.27840355746440026 1.9960326574958498 0.9782285073695721 167 165 165
0.26130905986125197 1.9786660797684472 0.984913251909716 170 169 170
0.25091819483007416 1.9617188636574008 0.9899245131884852 170 170 170
0.2480928720836165 1.9452871431095067 0.9930408639330899 170 170 170
0.2539372523219805 1.929490802001732 0.993979126835807 170 170 170
1.5650953104269172 3.814112299460844 0.41401484431973223 168 168 166
1.5618146834772206 3.8004853547938526 0.41683022301983746 168 168 166
1.5663869098982406 3.785792831824295 0.41790243182269243 169 169 167
1.5848000398912538 3.7692797023037716 0.4158937186605051 166 165 163
1.5985697384271547 3.7534365065418136 0.4149098398024804 169 168 166
1.6223016022320391 3.736351215498249 0.4116982969174576 168 167 165
1.5800615902671207 3.7277666279762975 0.42319806162925716 167 166 164
1.5430294098250439 3.7183851555766814 0.433555177153055 156 156 154
1.4539196102195837 3.7153540606342763 0.4555786646534554 98 98 96
1.4019429193291506 3.707471644222635 0.46933158257436125 74 73 73
1.589426248324735 3.6704479966345787 0.4294322232361059 68 66 67
1.70448429746957 3.6426910089402784 0.40569296718913006 64 62 65
1.668844288660146 3.633045488857084 0.4157521941614734 56 54 56
1.7529974508821138 3.609389477667865 0.3988869142856889 55 53 54
1.7504985151281618 3.5959185294723697 0.40148990459592115 53 53 53
1.7810843052984477 3.5787132553709453 0.39663678805429586 49 51 50
1.8178990838050937 3.5609191506008178 0.39036293702418795 40 41 42
1.7816901362400228 3.55122876394238 0.40056656139631464 35 35 36
1.8381960726043507 3.5314398563846097 0.3898212494931064 32 32 33
1.8171866694529362 3.520052521335308 0.3965966775179137 30 30 31
1.7941320230640885 3.5088085527315065 0.4038460051589329 28 28 31
1.8640830821299943 3.4879443547757614 0.3900050479001528 21 20 23
1.91622246669106 3.4691118238502017 0.3801750517062762 20 20 23
1.9701638802335153 3.4502746446158645 0.36990946485228604 23 23 26
1.9430560510767223 3.439528547192075 0.3780662446813203 24 24 26
1.9358097140015689 3.4267867454857273 0.38171045859103675 24 24 26
1.9290061313347282 3.4139792334124968 0.38525722551647756 25 25 27
1.899054025192766 3.403292749426391 0.3940937770543704 22 22 24
1.8865066251087137 3.3909239035822454 0.39896608830689145 17 17 19
1.8898887025547895 3.3770915110788686 0.4001988651056644 16 16 18
1.8912127351292791 3.363450889463117 0.4019014616036294 19 19 20
1.8885015058152688 3.3501616255993327 0.4045289021521215 37 36 36
1.9010485108190025 3.3355779438693753 0.40365423466939165 68 67 67
1.9110509435006195 3.321246496378844 0.4033582097665561 70 69 70
1.9202598581585646 3.3070128528957423 0.40323979337791654 58 58 60
1.9507206609201904 3.291125959083268 0.3982213972222884 23 23 25
1.9868010485994299 3.274904959009249 0.39189202590195443 13 13 15
2.014404439316596 3.2594480812046167 0.38750164410623555 14 14 16
2.0274917930252325 3.245161251095052 0.3864521270685394 13 13 15
2.048223338412945 3.230363525655733 0.38362768862280283 11 11 13
2.044578017091737 3.2173636726053303 0.38643835257847914 11 11 13
1.9475861661123983 3.2108150151432895 0.41089184176986565 11 11 13
1.9233170309166452 3.199029062246386 0.4185155892198675 12 12 14
1.5204755021786274 3.2121108147282813 0.5141052457941914 13 13 15
1.5101837844353185 3.1986339234684773 0.5185957884551851 13 13 15
1.5405451259266365 3.182579466392768 0.5136263250303479 13 13 15
1.5283969738531944 3.1692152156163726 0.5185496129583316 13 13 15
1.5250553549182615 3.155289060064499 0.5214241365131684 13 13 15
1.4792979527482448 3.1437934297270216 0.5342072390979871 14 14 16
1.48765960595647 3.1291205479069615 0.5343590958804754 18 18 20
1.5361783666135724 3.112298327776069 0.5251075050493407 22 22 24
1.5233708542888265 3.0988612328204646 0.530201231451906 26 26 28
1.5063689858301093 3.085595070976501 0.5362850796478975 31 31 33
1.4894589781101415 3.072267889403301 0.542355738238067 33 33 35
1.602643067414908 3.0526984076975765 0.5178558216293435 34 34 36
1.6262299303945156 3.03761773416279 0.5143820630652454 34 34 36
1.645145474447014 3.022822511746026 0.5119969162400861 35 35 37
1.6925207183856814 3.0068797399045333 0.5028917383228292 35 35 37
1.7293256764854836 2.9915273328593086 0.49625811685447374 34 34 36
1.7038138162521952 2.9787414276016007 0.5043310452050327 33 33 35
1.683663933560022 2.965669331519715 0.5111482596776313 23 23 25
1.6836986665873632 2.9518061118446886 0.5131960172685475 21 21 23
1.6819688690899188 2.9380035872489154 0.5156619742071924 23 23 25
1.5637669052321757 2.9279854505850293 0.545765122772158 23 23 25
1.5318729523037364 2.914908785813787 0.55542631208919 23 23 25
1.504289416917036 2.9016000776643476 0.5640783443341786 24 24 26
1.5216428752348947 2.886962199857912 0.5620480490999482 25 25 27
1.551700626433322 2.872053790010447 0.5569821068136516 25 25 27
1.6190224049104949 2.8563440484591736 0.5430132120660387 25 25 27
