ply
format ascii 1.0
element vertex 733
property float x
property float y
property float z
property uchar diffuse_red
property uchar diffuse_green
property uchar diffuse_blue
end_header
0.7319141902834767 3.7560508968490725 1.4000394091843642 37 38 42
0.7985639644553473 3.8245344220466224 1.3979411989398167 42 46 49
0.8008043786657135 3.844707457625269 1.3970410116894525 55 56 59
0.8863876639436332 3.965722630599097 1.3928111504289904 88 88 88
0.8957665777611203 3.9917573004810087 1.3917546313200926 118 118 118
1.1377775691931287 2.1956284964560684 1.4931684820730513 169 169 167
1.1233484889335725 2.2040718388399716 1.492528427782559 169 169 167
1.1450203851032659 2.58654804040056 1.4754600527557313 86 85 83
0.9412099568959823 2.618552236018978 1.4704005795557755 10 11 13
0.841712220258637 2.609560832189134 1.4690537271333701 15 16 18
0.8374640718606999 2.623274812472511 1.46835298363756 15 16 18
0.8379473103837083 2.6397825569134286 1.4676083249947203 13 14 16
0.8487074759492486 2.662389127533755 1.466766884965042 34 35 37
1.0647611815843028 2.908096808070357 1.459371518066034 34 35 39
1.0926875789325954 2.942087312062636 1.4583138181265263 34 35 39
1.075836583118359 2.9489026851887106 1.457705272270063 33 34 38
1.071599955008305 2.9634023862368353 1.4569688824407743 31 31 35
0.6219530108544127 3.1335258046074657 1.4412660987153136 20 21 23
0.6604734106987258 3.5243314350993673 1.4241152194928914 35 35 38
0.6575120819980367 3.5399195998447013 1.4233516881496475 37 38 43
0.6633870662830041 3.561986502582844 1.4224486005241532 40 41 46
0.7444445593510407 3.766417390408968 1.4145525619103583 41 42 46
0.8178416395755514 3.840027877114256 1.4124901347182448 47 50 54
0.8681484498178682 3.952786959269468 1.4082337225244286 85 85 85
0.890599580929575 3.9887944315370687 1.4069873036166534 110 110 110
1.3105557457768786 2.5958095181214675 1.4926334700355592 167 167 165
1.1113329363906463 2.5685611371859327 1.4900500990555385 81 80 78
0.9308503879026722 2.5970897548311296 1.4853242486652176 14 15 17
0.8207252632345402 2.614261937470532 1.482451215074786 14 15 17
0.8179383206001246 2.628811444060942 1.4817457578562878 16 17 19
1.0856690482658933 2.9386655148999816 1.472968781299014 34 35 39
0.6455966278695704 3.5144504630526603 1.4387525283075824 35 35 38
0.6403877933933422 3.5460995486971214 1.4372342702406717 40 41 46
0.7747831264671825 3.790162411736369 1.4288600902063662 44 45 49
0.8502890479849872 3.9401366679417973 1.4235790448593857 79 79 79
0.876257293261089 3.978799575943712 1.4223418063340134 93 93 93
1.127261939359742 2.5782425790777954 1.5043165977288466 74 73 72
1.026023780455787 2.61973061550753 1.500410690421944 11 11 13
1.0135884054683328 2.6290368046889876 1.4997455459541957 12 12 14
0.9404215612565692 2.6033897881143737 1.4993721147790635 12 13 15
0.8367907421442637 2.608276178132977 1.49702863997665 13 14 16
0.8056600925533702 2.6223843399383404 1.495768108651738 16 17 19
0.6392137728173672 3.510734370462801 1.4532356153498003 37 37 41
0.637650290526548 3.5272930600634957 1.4524744254262938 46 47 52
0.6370302213398316 3.5445684732327742 1.451701053562822 40 41 46
0.6273519883451699 3.5730027061185115 1.4502503255991597 53 52 56
0.864716840830734 3.970948414348516 1.4376036610553198 87 87 87
1.0975614866598207 2.562471370596258 1.5187433325068982 68 68 68
1.0433099284303209 2.5648170454584225 1.5174496530319108 39 40 41
0.9652354801134997 2.5695576955021444 1.5155288855155078 11 12 14
1.0004262066793101 2.605918467948044 1.5147303269354593 10 11 13
1.0025123702804022 2.6234915407063593 1.514016461235868 10 11 13
0.9479205157769359 2.6084999757129737 1.5134648204802887 11 12 14
0.9086555943761505 2.6021500412380583 1.5128764238036512 12 13 15
0.8082488034546483 2.624702938458477 1.5096948116523576 18 18 20
0.8124206037581782 2.643362666812133 1.5089798035332482 22 22 24
0.811075189278266 2.6587999302140117 1.5082828574947738 28 28 30
0.8069192231195745 2.672588803181089 1.5075954073303208 31 31 33
1.0497407732237787 2.9525526310967445 1.5008285365624316 29 29 31
0.9992708689649139 2.9385763571381744 1.5003235901168552 20 20 22
0.9505505714128695 2.9254841074846887 1.4998188764927838 14 14 16
0.6305292477959636 3.5230241302840657 1.4669532173251814 39 40 45
0.628179264267319 3.5390193434071313 1.4662100730574759 39 40 45
0.6228710143238221 3.5706311530803063 1.464726784666009 52 52 55
0.6856874241779878 3.70701556238828 1.4602111624904155 43 44 48
0.875228526850742 3.961164915992299 1.4533893635368518 71 71 73
0.8951505607082146 3.99526939222634 1.4523527923344721 83 83 83
0.8956157553224504 4.014548869530662 1.4515295323616422 111 111 110
1.13126531047364 2.5656203089274214 1.5337425787499823 71 71 71
1.0622975892613313 2.5435897397908174 1.5330624560450514 72 72 72
1.0317935369597224 2.54283717707062 1.5323801061879945 55 55 55
1.0326316337529322 2.559606664825115 1.5316881486330958 27 28 28
0.9750158777509692 2.559648834817612 1.5303372275762306 11 12 14
0.9824052198862818 2.5801166203091364 1.5296417436291305 11 12 14
0.9916634070640075 2.6017135082920753 1.52894210920085 10 11 13
0.9936948928596181 2.6192386004209602 1.5282460333804793 10 11 13
0.9496078441603248 2.610268171295746 1.5275943339019493 11 12 14
0.8374759929077473 2.658962719389281 1.5229023885090809 24 23 25
0.8562293070101016 2.6863756138697603 1.5221783005905045 27 27 29
0.8411668358335134 2.6937750796835953 1.5215116147199004 31 31 33
0.9637499334092883 2.9175624962514606 1.5148860144557148 20 20 22
0.6759724243230489 3.0885370287961122 1.5008924201705118 26 27 29
0.6652125428936595 3.1321831594879455 1.4987884231026039 22 23 25
0.6305417153482276 3.541670035720144 1.480600746039373 39 40 45
0.6180267225765961 3.5679910655451965 1.4791908101190716 53 53 56
0.6884808219337324 3.7100566456508717 1.4748122724235408 38 39 43
0.8038313205656744 3.8333511975245607 1.4722815438202923 42 43 45
0.9003960318245103 3.962524168419266 1.4690614869327323 56 56 58
0.8941785822685484 3.976636148676553 1.4683170830236885 65 65 67
0.8914946082666972 3.9934629391637326 1.4675402210549895 79 79 79
0.8893397218569565 4.010720562655647 1.4667574666034255 106 106 105
1.0354718143885395 2.5456887847834437 1.5465874684990113 37 37 37
0.9807815619887322 2.6126358717938722 1.5424408020610842 11 12 14
0.9062719130717639 2.586127754449728 1.541692487242028 13 14 16
0.8410844573586387 2.6618961464182194 1.5369176365683825 28 26 29
0.6653101466509415 3.0486130010425745 1.5164478815560374 25 26 28
0.6680517472138265 3.067262205950259 1.5157395727811578 26 27 29
0.6638518658858639 3.0813479338344862 1.5150487290307588 27 28 30
0.6558555530495818 3.1267686315330057 1.512958903909932 21 22 24
0.6366844434094834 3.547087051759357 1.494982602051939 39 40 45
0.620362286631575 3.5706381822062405 1.4935963654279734 57 57 60
0.8907965926695482 3.9750451066245187 1.483480802463469 64 64 66
0.8887064318559257 3.9923211226188524 1.4827095703272966 79 79 80
0.8848800397342218 4.008288203815074 1.481949680394909 110 110 108
1.1933287078041834 2.568632960927917 1.5640449446656435 71 71 71
1.1428204150401986 2.557187038317 1.5631842348982257 68 68 70
1.0986403663714275 2.549072990967745 1.5623538658602494 66 66 68
1.0570937978922197 2.542268757131326 1.5615392566422004 47 47 48
1.0313820586055327 2.544188425502057 1.560784775014405 33 33 33
0.9755868821409337 2.561555669900544 1.5586084324949812 11 12 16
0.9617489260733011 2.586221882963361 1.5572372942980341 11 12 15
1.0495955536104797 2.652891591960773 1.5568246974859352 12 13 15
0.9705712338352958 2.6239295920713923 1.5559294452510446 13 14 16
0.9095334029517949 2.6050438860097724 1.555095672239522 14 15 17
0.8386489164630992 2.644988997792818 1.5516005668373163 37 36 41
0.8277682315338559 2.654828456904907 1.5509126552317956 39 37 41
0.6661848098451095 3.0500415177208886 1.530524903701896 25 26 28
0.6654468453657254 3.1001660933705466 1.5284586123140094 39 40 42
0.6320483678882944 3.1116544899442324 1.5271112594605418 21 22 24
0.6693871499317199 3.57193971654567 1.509296880163141 40 41 45
0.6240145849541774 3.5742560926563938 1.5080092172573718 53 54 56
0.8444246838370282 3.9218658088837834 1.499609913323022 64 62 65
0.8698213035477038 3.96000508558565 1.4987202622463824 72 72 72
0.8787254113080203 3.9856622199697855 1.4979066612657248 87 87 87
0.8881699217832477 4.011818152559496 1.4970869012540904 124 124 124
1.151590834108985 2.5299852712335724 1.578925218977597 76 76 75
1.1504316959196443 2.562199777551701 1.5776032891841782 65 65 67
1.072142546900667 2.535129837084698 1.5765157710971938 55 55 57
1.051154925666501 2.5397446124076173 1.575748922893792 42 42 44
1.0277273111054162 2.5429311595985693 1.5749715846186318 40 40 40
1.010150499388317 2.549338097225447 1.5742275808334791 36 36 36
0.9696120182047637 2.542730249387414 1.5733678190316247 24 23 26
0.9862878904310141 2.568414556315399 1.572801989150251 15 15 19
0.9874924687908664 2.585395903522963 1.5721555106707192 14 13 18
1.0160411536949105 2.618034335138713 1.5716405452476665 12 13 15
1.0014476565734087 2.626085707669964 1.5709134440471133 13 14 16
0.9958047042975172 2.639256108636799 1.5702296313964252 13 14 16
1.0061604899474357 2.661677119653369 1.56961916940625 15 15 17
0.9542541870293183 2.6480582938407684 1.568724825163471 16 16 18
0.8384760307900545 2.6456866788648146 1.5656087072132494 41 40 44
0.6747882051070431 3.056567080365332 1.5446183396717872 25 26 28
0.6579365308454321 3.096019780538703 1.5425713846445905 22 23 25
0.6269869514436037 3.109117324479248 1.5411886175968856 19 20 22
0.6551411768159694 3.5624427005843406 1.5238195477285064 42 43 47
0.6188939717081321 3.571411217052913 1.52245516774828 52 53 56
0.6358878369971279 3.6375648436782972 1.5202778755088642 41 41 45
0.842587181071295 3.9401745573123828 1.5138949450515382 85 85 85
0.8779276390183 3.9860451344115098 1.513038568115555 101 101 101
1.169910357981786 2.5408503886866685 1.593434264564695 81 81 79
1.1050944764096524 2.5215293283209297 1.5923014222854992 72 72 73
1.1385707868447383 2.5564245573385875 1.591908840579631 65 65 67
1.064532188252014 2.531687586961132 1.5907194422480089 50 50 52
1.0358433843048052 2.531985571337994 1.5898707678378856 43 43 44
1.0093477699602509 2.5334190210383145 1.5890415247023864 41 41 41
0.9936577421041666 2.5408483501023578 1.588292259934768 42 41 41
0.9816216953246987 2.5503036141920106 1.5875701036194827 44 43 44
0.9762910804291971 2.5798151396846287 1.586256597191585 18 16 20
0.9790874966657097 2.59771921949695 1.585635651843927 13 14 16
0.9929143701518662 2.621992493989934 1.5850865970223573 13 14 16
0.9540825047583756 2.616036328273167 1.5841874072501863 14 15 17
0.9924608984679316 2.654565613943576 1.5837952464747684 16 16 18
0.9866651943829714 2.6676651463939565 1.5831121534675079 17 17 19
0.9742501842388088 2.6769147407400236 1.58238701125431 15 19 20
0.9195375803046653 2.6614144783145433 1.5813990047794855 30 30 32
0.8870688741604272 2.6587553559514827 1.5805560860210979 44 43 46
0.8354447508029513 2.726338541305493 1.5763981136762935 69 66 69
0.7936415649482327 2.717578165234372 1.5755222701094673 66 65 67
0.6478450437357424 3.107049389846327 1.5559864562890071 20 21 23
0.6704230089216574 3.574555250442449 1.5383009235457528 41 42 46
0.6237641571260433 3.5759277542065893 1.5368858191605563 52 53 57
0.7705312230379973 3.7937109770884216 1.532622187732759 46 45 50
0.8488096159945075 3.927176978878463 1.529668914696205 77 76 80
0.8769719596953971 3.967454771688778 1.5289100967975917 89 89 89
0.887738177594819 3.9945669059084965 1.528160356203995 114 114 114
1.1399073728223181 2.541538547443433 1.6069266173777994 74 74 74
1.1356045689106236 2.555576556103186 1.606255273009301 65 65 67
1.05850512531903 2.529124778503303 1.6049117110491575 56 56 57
1.028838018619398 2.52886259808138 1.6040135461674545 46 46 47
1.003603796179939 2.530987593903726 1.603159329485338 39 39 40
0.969985929788399 2.5283146562033965 1.602232882843318 39 39 40
0.9637764647030072 2.541011620745639 1.6015547163157524 42 41 42
0.9699858233344674 2.5770197271704993 1.6003606732521258 34 33 35
0.978891186573704 2.5984039969089108 1.5998113022635745 24 24 26
0.9833970434720999 2.6173330605025997 1.5992216199692313 17 17 19
0.9782665012154819 2.6471652812947335 1.5979178106901244 16 17 19
0.9956264281878769 2.6736718760111042 1.5974303713365998 17 18 20
0.9729656184631565 2.676974225323158 1.5966096812763957 16 18 20
0.8603710745662855 2.725664014913367 1.591291039083066 80 75 79
0.6560793744193116 3.1134188994457874 1.5701315895316006 21 22 24
0.6124486379341034 3.1010750069571804 1.5692703522975893 20 21 23
0.7662120097979328 3.5915168478856456 1.5551253205272064 32 33 38
0.7275569667216972 3.581405535882947 1.5543305919202104 37 37 42
0.6915003402642019 3.590914738118643 1.552861206601776 40 41 45
0.6288399620242318 3.5805972957427525 1.5513394907527047 52 53 58
0.7789938791462474 3.8010397996641307 1.5474626399215183 46 46 50
0.8792386421786136 3.9513571544828325 1.5447534331897548 72 71 75
0.8964263437987281 3.983325651198328 1.5440507675950896 82 82 82
0.8969108242412305 4.0026020302485525 1.5433246222688661 111 112 111
0.8973965355162035 4.02191944719576 1.5425969371411603 157 157 157
1.125951540039683 2.5346265362300846 1.621135478061389 90 90 90
1.0904319267472837 2.531332401984172 1.6201209054646288 68 68 70
1.0528899280398054 2.5267900460778847 1.6190884901334486 65 65 65
1.0281497539312674 2.5292671620857563 1.6182022138287078 60 60 60
0.999553722823555 2.529505008098111 1.6172766274160835 48 48 50
0.9785011633311617 2.5338955018319966 1.616436535104177 39 39 41
0.9600513152382834 2.5396953489648757 1.6156268225147392 37 37 37
0.9622087469177518 2.557134881494374 1.615039541307413 38 38 38
0.964541154604403 2.574713184613845 1.614452645455604 38 38 38
0.9833182174082576 2.6017317090484915 1.614037539246471 37 36 38
0.9797564706980115 2.616043881577502 1.6133846483079326 31 30 33
0.956749344031531 2.6355281375014674 1.6119137629126217 19 20 22
0.9884257593058101 2.6703006460851584 1.6116202743665415 16 17 19
0.9549877585669438 2.6673084439484045 1.6106610620365116 18 19 21
0.7593713039743297 3.56954596213468 1.5704297784986703 26 27 32
0.7375921152457212 3.571707231939679 1.5696503040135323 31 32 37
0.7289200413598989 3.583328133035841 1.5689349051197297 37 37 42
0.6823613799805026 3.5851550346516348 1.5673737209547767 40 40 44
0.5935060330861448 3.555478508210941 1.5656425464693036 53 54 58
0.7718622870417631 3.7966402726651793 1.5622821756156386 45 46 50
0.7973072657883755 3.834251867164951 1.5616820757282157 49 50 53
0.8787669661493369 3.951987369220351 1.5598615815844268 72 71 75
0.8744489588152848 3.9675093759530906 1.559138909985603 80 79 80
0.8889879730172856 3.9975192672300057 1.5584753576786987 96 97 96
0.8984921493309852 4.023763978685368 1.5577921398916177 145 145 145
1.073371033209719 2.5226646991474446 1.6341867703755386 63 63 65
1.0453888740412944 2.5234046745565237 1.6332222511997991 68 68 70
0.99988951753686 2.5142665877892836 1.6320349216594767 69 69 70
0.9796674593992807 2.519139467871491 1.6311780622650884 63 63 63
0.9661385096664292 2.5277230889212414 1.6304086771740247 52 52 53
0.9631304610222848 2.5422243016467405 1.62977367339184 43 43 43
0.9583110720782112 2.5557144363510007 1.629115248966938 39 39 39
0.9574786925745633 2.5714842086628633 1.6285063828879054 37 37 37
0.9371643099932154 2.592399119670082 1.627055414942549 34 33 35
0.917429722127298 2.597317343902901 1.6262132127170625 28 29 31
0.9426968562629795 2.6282032885307083 1.625921639050523 24 25 27
0.9612899474944565 2.6553559219595133 1.6255440612024001 23 24 26
0.9367534554503504 2.657489505823095 1.6246436110588454 25 26 28
0.6591806948002008 2.9493373025637366 1.6045941856870116 17 17 19
0.658851687342547 2.9991516313009856 1.6027479196284178 25 23 26
0.7684362748933209 3.5770251118935152 1.585128576600119 26 27 32
0.7473381660216052 3.5797023510121413 1.58432326525984 32 33 38
0.737153103712787 3.5902483825689027 1.5835935844576339 37 37 42
0.7246737727095287 3.5991046106410836 1.5828493128360106 39 38 43
0.6798064680136793 3.5842149412334656 1.5818950520038735 40 40 45
0.6347827741555983 3.6404939904517954 1.5783135742788608 43 44 48
0.8699919644966503 3.9650916941876333 1.5742331215011955 76 75 76
1.0092761480382473 2.504090491927877 1.6469049014645543 48 47 51
0.9574307857813417 2.5074513460171444 1.644972540067403 54 54 54
0.9505096113048344 2.519708830904476 1.6442889553058504 58 58 58
0.9418766188455567 2.5309981962129697 1.643580461463278 54 54 54
0.9285015123706518 2.5557698955110713 1.642220361929758 41 41 41
0.9103664187453507 2.5778116882042106 1.640792364437768 34 33 35
0.8995232151047705 2.58779473995624 1.640053739463332 30 31 33
0.9031708940070764 2.6061417090563146 1.63951989839066 24 25 27
0.9107540229257439 2.626819522672366 1.6390395331751042 23 24 26
0.8999051619628504 2.636818669763537 1.6383001304423732 25 26 28
0.8660690849458615 2.633352736054083 1.6372429822828465 29 30 32
0.8627520246722512 2.7130954341250244 1.6342529619132264 36 35 40
0.8290652043223511 2.7093683228185643 1.6332104415959725 39 38 43
0.8208233757344288 2.720801879708133 1.6325104160886166 45 44 49
0.8208694612473966 2.7372247346628784 1.631920102860848 50 48 53
0.6822081623142147 3.015248758594077 1.6170552218406107 27 25 28
0.6862637391679922 3.0347025487143515 1.6164957379941762 27 27 29
0.7796403466881856 3.5860524149563413 1.5998857560767021 28 29 34
0.7470043413824936 3.580391847589503 1.5989496330595763 33 34 39
0.7377671894150417 3.591628031574005 1.5982219495889225 38 38 43
0.7108981600894109 3.589982499284584 1.5973425844336573 40 39 44
0.6816824024852486 3.5865198491161787 1.5964467296385787 42 42 46
0.6100298346118622 3.5695137954930694 1.5945564772069303 55 56 60
0.8627664477045653 3.9605545310549948 1.589291732604333 68 67 68
0.8783942951622874 3.9913802043370548 1.5887266553497637 82 83 83
0.8875863087279212 4.017365683602259 1.5881111944745323 110 111 110
0.9377942344133112 2.5133324844825364 1.6581609868263831 49 49 50
0.8694380231807692 2.5874231375616 1.653063268585834 27 27 29
0.8812174339801766 2.610466755652469 1.6526796150996097 23 23 25
0.8807643190408265 2.6264617229295153 1.65209941413643 23 23 25
0.8374868144002083 2.6174279882343106 1.6508435453741563 25 25 27
0.8652295639477323 2.6826027168874815 1.6495557216766836 39 39 41
0.8649296719454698 2.6987991912985687 1.6489739924876088 38 38 40
0.8293424601287903 2.693987098610059 1.6478490780162955 37 37 40
0.7403294651906165 2.7383148486606332 1.6430489037848894 33 33 35
0.6329738451142355 2.8352030855169152 1.6357290884742297 56 54 55
0.6406605366907434 2.8564828681734276 1.6352587232251228 51 50 51
0.6415469749576612 3.022977645063251 1.62942310972987 32 32 34
0.7962607830812711 3.580986855837069 1.6153847351488198 24 25 30
0.7668853164428557 3.5777675557904978 1.6144296416217478 29 29 34
0.738204248326912 3.5749419772837454 1.6134859311971048 34 34 38
0.7267717742594635 3.5845604685552637 1.6127310777680153 38 38 42
0.7143992929284635 3.5934711118678537 1.6119669779623826 39 40 45
0.6764649449102831 3.583628782350174 1.6109339679285184 42 43 47
0.6434335848259194 3.5772370466352488 1.6099576964776265 49 50 52
0.6109082889634065 3.5710890200013368 1.6089912443024463 54 55 59
0.8548716025178393 3.9555033616225286 1.6043174726112808 65 64 68
0.8814850989124765 3.994749618645562 1.6039023815816003 79 79 81
0.8861509084558974 4.0172599165566485 1.6032787619970232 107 107 107
0.8466265532971003 2.575016754095354 1.666676444165013 41 41 43
0.8664835620196231 2.6027053427591866 1.666473650262998 32 32 34
0.8680229329502581 2.6198317334581294 1.665941957623047 24 24 26
0.865885871619148 2.6348433911809477 1.6653440762208307 22 22 24
0.8509815657780059 2.6423759469910455 1.664520996622235 24 24 26
0.8389584422349529 2.651571560255565 1.6637495899800965 27 27 29
0.8344922280335142 2.6652165970708177 1.6631107008109909 32 32 34
0.7829794499302434 2.7651294859052546 1.6577212499341405 22 22 24
0.7404760689407355 2.755555634518856 1.656443692156951 23 23 25
0.6396426898175653 2.8238532771381686 1.6502780809577935 83 81 85
0.6287297204459434 2.8333398466456363 1.6495386345024927 81 79 81
0.6254528071952941 2.847654095952689 1.648921669801388 65 64 65
0.6208374496874673 2.8611315750488178 1.648282911982198 45 45 47
0.6086662935161791 2.8697880690853186 1.6475244768562778 44 43 46
0.6057958815167948 2.9173493965213475 1.64577771324333 56 55 58
0.5721859144512067 2.9450714438566763 1.6435518418207382 43 48 51
0.5680082762202805 2.958876457243701 1.6429183552611137 46 46 49
0.6237541775909605 3.012119076847444 1.6431925578285054 51 49 52
0.6396978509687927 3.0393741034187456 1.6428567096559228 45 45 45
0.6974931905523325 3.094467883733337 1.643144652587769 38 38 38
0.7848639322231774 3.573709815564984 1.6299415558437451 23 24 29
0.7602422902833008 3.573897533964275 1.629003989763978 29 30 34
0.7357014957367882 3.5740574661085294 1.6280704381135527 36 35 38
0.7111318584317197 3.5920180715768986 1.6265226645570943 39 40 45
0.675839260725736 3.5841010909396815 1.6254607224736364 42 43 47
0.6478607448269917 3.581421142559404 1.6244949864097888 50 51 53
0.6116850598219268 3.5725896424040746 1.6234311491575046 56 57 60
0.691090313717788 3.721518486669222 1.6213042196704122 39 40 44
0.8600815312867658 3.9604815999647593 1.6194639384126863 69 68 71
0.8753924836123004 3.991066968770967 1.6189894518454322 80 80 81
0.882333647422854 4.015318538213534 1.6184166136413263 109 109 108
0.8213440295984956 2.6419843379981183 1.6774378392747853 25 25 27
0.706572953772187 2.7519141977894153 1.6692336718381748 20 20 22
0.7355149723322125 2.7860881158032833 1.6692200716957175 21 21 23
0.7187471543857191 2.792135316379096 1.6683583577074665 21 20 24
0.7103669336924743 2.8033470594253767 1.6676521557313808 23 22 28
0.6059782322866019 2.90179978048632 1.6602417182761648 39 37 40
0.6104964603624088 2.921219784906165 1.6597657055092632 41 40 42
0.61343127493548 2.9396648731384833 1.6592603335187435 44 44 46
0.6266671207102252 2.9648614530845405 1.6589321965837427 44 46 48
0.6040355341682777 2.9667163140855966 1.6579813390804077 47 51 54
0.6088111978290516 2.986468368111461 1.6575042606943493 55 55 57
0.6119576303458263 3.0052022925989004 1.656997478327972 67 66 69
0.6216933792606156 3.0283342765789576 1.656601400950052 60 59 60
0.6442243214152383 3.060023793162271 1.656419708049088 48 48 48
0.6644426413875539 3.090313222877417 1.6561943341488108 38 38 40
0.6318964415663677 3.0855122144826184 1.6550781940328514 33 33 35
0.7470866482520315 3.565317667389828 1.6434571916223304 27 28 32
0.7261691596947979 3.5680730636276436 1.6425433261826623 35 35 38
0.7035260815062145 3.5873957400748644 1.6410043135182424 39 40 45
0.6774471438896308 3.586210317863517 1.6400204131821488 43 44 48
0.6474174873116356 3.5820251025971426 1.6389823469529208 51 52 54
0.6146133656431094 3.575678149969799 1.6379080948085898 55 56 60
0.7677604637403515 3.7983761859570015 1.6364275403464132 50 51 55
0.8619240665307595 3.962883339247819 1.6345892942786766 80 80 80
0.8853590433758249 3.9997188883630472 1.6342699530881948 91 91 91
0.8884840419235254 4.021058586169937 1.633674658134982 122 122 120
1.086284107185812 2.5337799344093908 1.7057998756734314 45 45 46
1.093555535408313 2.5541836546392087 1.7054256363454328 45 45 46
1.0756251912840786 2.5605545657182853 1.7044866503815628 44 44 44
0.7759818761848719 2.632179733067409 1.6899391875706826 35 35 38
0.7793798866162244 2.6503823696487494 1.6894796036531825 32 32 34
0.7008148689773308 2.749187276045239 1.6830368573579828 18 18 20
0.6961719133345647 2.7626412895642445 1.6824059932724584 18 18 20
0.7188850608570978 2.7930378046459365 1.6823319822917406 17 16 20
0.6047215778855877 2.9018200268831116 1.6741127378514191 44 42 45
0.6072052099210317 3.0029191048003816 1.670893158438169 44 45 46
0.6029771927711665 3.016820232799417 1.6702644957948336 53 53 54
0.5987044541298574 3.030703695317105 1.6696345933080132 65 65 66
0.5961895753496784 3.045768319000912 1.6690374363233353 57 57 59
0.598124251700163 3.063823482373775 1.6685231414368937 39 39 41
0.6098975519378333 3.0885111217177403 1.6681914115975638 33 33 36
0.6112764056243856 3.1062984290064595 1.6676632937140168 31 31 33
0.7619261491527445 3.5590437251502625 1.6589237572926185 21 22 27
0.7304492357712402 3.5542170060328337 1.6578012453742286 27 28 33
0.717331291933154 3.562590268847183 1.6569923462025011 34 34 38
0.7019687516400894 3.5871900620541775 1.6555591264985914 39 40 45
0.6742924919638071 3.5848292446856376 1.6545102997094447 44 45 49
0.6444758221828311 3.580791598295613 1.653429438877883 51 52 55
0.606267612843421 3.570447622273419 1.6522141940118036 55 55 59
0.7549385296230557 3.771341686753902 1.6516663242404461 46 46 50
0.8656311727163168 3.9667135487686735 1.649754193558404 84 84 84
0.8892888046221352 4.003735653920656 1.6495009998496077 102 102 99
0.891618348501094 4.024475533607003 1.6489145942157915 143 144 140
1.0855455603081472 2.5341616364016275 1.7200785938229732 46 46 48
1.0883562975968553 2.552081262904394 1.7196227810319769 45 45 45
0.8190811665989448 2.561441252138151 1.7079758233402733 37 36 41
0.755494224599569 2.7018442577660733 1.7007969551882498 24 24 26
0.75861822926542 2.7200266670505746 1.7003459220251986 23 23 25
0.7559456888235514 2.7347303133633925 1.699762108673863 24 24 26
0.7195236120299342 2.7288633222629213 1.6984153302267995 22 22 24
0.7031208969187674 2.751415154136449 1.6970014359758743 18 18 20
0.7036109723383663 2.8336531931236832 1.6943866764434732 16 16 18
0.6096201315187941 2.922318597823567 1.6875846058366548 50 50 52
0.5965931992025897 2.9304086360282855 1.6867764084815922 54 54 56
0.5901670423639445 2.942768407228889 1.68610953331469 54 54 57
0.5778666681442997 2.9512901951893156 1.6853181165406703 38 38 42
0.5614388510209383 2.9570786299588674 1.6844403665110406 39 40 42
0.5701091849090065 3.062707305031226 1.6814207361873206 49 48 53
0.5745074396290202 3.0824333418005447 1.6809739314626169 37 37 39
0.5869410406415003 3.1076346176689924 1.6806902686154002 31 31 33
0.7368856106516748 3.5419248593816723 1.6730914734409836 22 23 28
0.7243280131146701 3.5507176875637536 1.6722805317229548 30 31 36
0.724135714045824 3.568456701777093 1.6717039616677554 35 36 40
0.7001338203707912 3.586781339011007 1.670105310251552 39 40 44
0.6719002721920766 3.584006492591956 1.6690044975967842 44 45 49
0.6376705019565103 3.576715364544401 1.667795739008208 53 54 58
0.6029494928715198 3.56892602845119 1.6665822457061252 56 55 60
0.6496467446709608 3.6752194825290156 1.6651437311208452 50 49 54
0.7521062338487297 3.7701762143318427 1.6664182839843176 49 48 53
0.8904160239794867 3.9866878700772883 1.6653081706920407 77 77 78
0.8919264239912166 4.006760758255739 1.6647285591817857 99 100 96
0.8781966664840197 4.015129039712659 1.663881828800502 148 149 145
1.0812290265639994 2.5489034348829014 1.7337525115997 46 46 46
1.075869253076354 2.562281164169515 1.7331009226978873 47 47 47
0.9295884125006846 2.6099012749233714 1.725237998113425 37 36 41
0.889859093134547 2.603212674802935 1.7237155797761918 37 36 41
0.7826573379353814 2.621553846831007 1.718470599421389 34 33 38
0.7685296338838896 2.629358794599304 1.7176110322345566 34 33 38
0.7627213199760241 2.642076904511356 1.7169605066835882 36 35 40
0.7454717913532918 2.647971872882615 1.7160245699089358 40 40 42
0.7270935548502119 2.6531439685548626 1.7150620310569207 42 42 44
0.7381938960012675 2.6922102614462773 1.7143250980990272 39 39 41
0.7451134961772337 2.7126553923005567 1.7139878153165073 33 33 35
0.7650361257220415 2.7410666861224624 1.7139682925250224 29 28 31
0.7757000329994703 2.763948692027478 1.713718043587946 25 25 28
0.6799607669525993 2.836098119885138 1.7072912765774446 14 15 19
0.6726881801656714 2.847971039661465 1.7066033469407917 14 15 19
0.6568030249359149 2.953666878002562 1.7026084321592283 46 45 50
0.6343582737337405 2.955754534360095 1.7015650517495382 51 50 55
0.6296480053796898 2.9693215404306916 1.7009358541990536 61 61 64
0.6159609933214889 2.977029829324108 1.7000985127480273 59 61 60
0.6012111362412815 2.9840085511333485 1.6992376487173544 56 58 57
0.5842810359518711 2.989514446970433 1.69832778990819 55 56 58
0.5569039220140144 2.988069781874385 1.6971798288458584 52 52 54
0.5490425150274796 2.999469119763709 1.696481036091047 47 47 49
0.5588846517501778 3.123207446017099 1.6930435571755242 29 29 31
0.7375987380922653 3.543364900765872 1.6877034732585978 23 23 28
0.7220866459776776 3.5500234330526643 1.6868193956552724 31 32 37
0.7228940436873987 3.5684851332700793 1.686277716919473 36 37 41
0.6984185854385114 3.5864597948405246 1.684649422873461 39 40 44
0.6665523355818479 3.581016021318514 1.6834307826068224 44 45 49
0.6021311678005687 3.5692491917880456 1.6809909643225758 53 53 58
0.6568700354096784 3.68156857642654 1.6798669000131323 50 49 54
0.7618563532478944 3.778456879644639 1.681414801810634 48 47 52
0.8914205185809414 3.9884530777992424 1.680499575726045 78 78 81
0.8937767960202652 4.009181722840431 1.679954563266451 93 93 92
0.8893104215224696 4.0246989910851445 1.6792750556152303 137 137 136
1.0794856602991707 2.58150475923508 1.7470109927858328 57 57 57
0.8835173109159873 2.6165830046320897 1.7371201590207561 39 38 43
0.7503381761351375 2.6678671447159035 1.7295627747714002 34 34 36
0.7461932674513176 2.681597924448853 1.7289581034393915 37 37 39
0.739718196164509 2.824866492738229 1.724304488356909 15 15 17
0.7072502541123531 2.8211155676366806 1.7229569343717777 16 16 18
0.6926173567942955 2.8284150151260983 1.7220758918426249 15 15 17
0.6811844430142044 2.837689555734651 1.721278782014176 13 14 18
0.6604179623991799 2.841055864575042 1.720241348057064 13 14 18
0.6441374949135565 2.9962938622142916 1.7147818453170784 50 51 56
0.620523249321832 3.014222789214423 1.7131728125214476 64 65 66
0.5957432532855793 3.0145786307683355 1.7120463433946325 68 69 70
0.584157248518441 3.023600464402345 1.7112500353339868 66 66 68
0.5568828338301539 3.0221578129300735 1.7100660222177033 49 49 51
0.5275880137880213 3.01926892062134 1.7088350809244028 44 44 47
0.4990449474369474 3.083389124204565 1.705597759312412 41 40 45
0.7254680317849131 3.5712833599394553 1.7009367742618584 35 36 40
0.6903797471085711 3.581516100901136 1.6990454877044754 40 41 45
0.6606326043844086 3.577605003910601 1.6978253051835033 44 45 49
0.6276109180743812 3.5711712598759107 1.6965345045203741 52 53 57
0.6017583760034917 3.569901291365018 1.6954092486931975 52 52 57
0.6597304463379223 3.6846545925906327 1.694525350530075 44 43 48
0.7044198308895464 3.7362886649545253 1.694965235445032 45 44 49
0.8685653027364759 3.971938780104175 1.6951804882008228 75 74 79
0.8879588869567587 4.005708783044959 1.6950254231591648 85 85 86
0.8950554399633128 4.03013145872503 1.69460132422658 112 112 113
1.2255000445261812 2.531408378439722 1.7696349822378517 79 78 76
1.075957146308602 2.563921044944135 1.7617228500701267 67 67 68
1.087013388680476 2.586532078029653 1.7615662004663584 64 64 65
0.8847021832410573 2.6343516914161 1.7507484820300254 40 39 44
0.712674769457301 2.7271083648888594 1.7400055778845873 38 37 41
0.7231331141367188 2.8318472712886518 1.73738627750681 13 14 16
0.7010771397542139 2.834534785338993 1.7362818121203576 13 14 16
0.6829089412688076 2.8395962174821667 1.735287604367703 13 13 16
0.6632560030215331 2.8436688837461626 1.734253725328374 14 14 17
0.6465948657097094 2.8495766568655885 1.7333044484986722 13 14 16
0.6699006500418954 2.880835022307008 1.7334605798105365 12 14 16
0.5982460551093456 3.0505391271215885 1.725100018427997 76 77 77
0.5588168591616138 3.0409763972238335 1.72355152699027 60 61 60
0.5362708236573255 3.042578150996901 1.7224564817427561 46 46 50
0.6110728190541377 3.262922233421542 1.719399400929912 28 26 30
0.5449934207996059 3.3025786701502597 1.7151534438802007 16 16 21
0.67967718096577 3.5746232626437187 1.7133458713296306 41 42 46
0.6586976572004886 3.5771155145631015 1.7122972101182445 46 47 51
0.6232822251453625 3.568913530066432 1.710894867946901 54 55 59
0.657031396604761 3.6835801294873205 1.7090634009923678 34 35 39
0.6925157882409669 3.7283026220985716 1.7093862123642705 39 40 44
0.8509579033925532 3.959439819434092 1.7098953197056384 66 66 71
0.8699154474061124 3.9928350650174878 1.709786065763328 79 79 82
0.8835441977756733 4.02225428548503 1.7095470982744814 97 97 98
1.2364582683226417 2.5216673730279626 1.7849672129646617 78 78 80
1.2175744566731983 2.527886407963499 1.78388318673736 67 67 67
1.0869324865074517 2.538099673112182 1.7773302019063684 59 59 60
0.6644595673613292 2.7797141222490134 1.7501218010774888 32 33 35
0.6640180631515551 2.7957767559459232 1.7496372832795766 28 29 31
0.6934482520374139 2.830579053222014 1.750043164853669 19 20 22
0.6947041499746478 2.8478345097574524 1.749605550480384 15 13 16
0.6733287524935294 2.8508474634802785 1.748494653321553 14 13 15
0.6911142910264856 2.8785919577565857 1.748546302416907 14 14 16
0.68780248137177 2.8930410058408498 1.747970831656005 14 14 16
0.6610267189279615 2.8925396863687727 1.7467026101209329 13 14 16
0.6664629771039243 2.9125667814299545 1.7463852994253966 13 14 16
0.6989509048872198 2.966727589549127 1.7463792152034103 18 19 21
0.6689020618770967 2.9640122657740298 1.7450180665171253 30 31 33
0.6696307141031856 2.9811766054192144 1.7445578231250174 34 35 37
0.6842359929098265 3.007420143463552 1.7445004219256224 35 35 38
0.5753604447336595 3.0696377817944964 1.7374899508249184 79 81 80
0.5444641050592225 3.065638058298177 1.736125254902927 70 72 71
0.5288266705959639 3.0718279335531893 1.7351975864054532 53 55 53
0.4867343655858676 3.0934330554175715 1.7325579145827543 44 44 47
0.6186423959331548 3.2347179481538726 1.734801198259197 37 35 40
0.5704733657928478 3.3042301836766503 1.730488420023939 17 16 22
0.5898428639249198 3.3872115917231835 1.729022498277951 21 20 26
0.5795762739742938 3.3972774715359226 1.7282403049249728 21 20 26
0.6886633534327593 3.5642524431538893 1.72864926312419 40 40 45
0.6766920857873371 3.5733704955259427 1.7278127502960436 41 42 46
0.6671406441040213 3.692094219979512 1.7239303028064683 34 35 39
0.6799591157710154 3.7198233749505922 1.7237444488318385 37 38 42
0.8625846526457872 3.988194370156622 1.724751213392149 73 73 76
0.8765324003338419 4.017845654886049 1.724564008241285 90 90 90
1.2285439523455792 2.5181666365982522 1.7992105135727254 77 77 80
1.080568005432471 2.5353562061227892 1.7914263086587432 64 63 68
0.6723175336456262 2.867515680396848 1.7619643110906473 17 17 19
0.6886861691418424 2.8944335434686126 1.7620170591966802 13 14 16
0.6896405618705244 3.0117902346405003 1.758772567219158 32 33 35
0.5663322078358459 3.0980118733055333 1.7502694263527643 77 80 79
0.5386657455309649 3.096096209182351 1.7489579167267364 76 78 79
0.6217323387473932 3.237727556259265 1.749084515444287 47 46 51
0.5757591588576021 3.257279887724356 1.7462675072934455 25 24 29
0.5006629071114699 3.273024619374503 1.7421201756001 17 16 22
0.48280161345030126 3.294556284861396 1.7406348713359323 20 19 25
0.6143324979641454 3.4055975899171678 1.7440109881560277 21 20 26
0.5808138156890617 3.539501496854056 1.7386012631711052 55 56 60
0.6569379720326805 3.685401733898802 1.738265545153983 42 43 47
0.6920063729752362 3.729826287540833 1.7387500361261703 48 49 53
0.8662692558723253 4.010926371871335 1.7394650608945965 89 89 88
1.2207700192101647 2.514740625159576 1.8134318568762176 70 69 74
0.6375465550776109 2.8627513661938893 1.7743284301076814 30 31 33
0.6449112589169526 2.883917074260792 1.7741257512103779 20 21 23
0.6562882310576019 3.0243846227217572 1.7708761340765804 22 23 25
0.629443456841694 3.0234876731809672 1.7695371750746187 24 25 27
0.6018983587920299 3.022033582338172 1.7681778287378949 29 29 31
0.5885309234321954 3.0466221282901667 1.7668289360691167 30 31 32
0.572336021735605 3.0861043256648375 1.764930621917118 46 49 52
0.6049655473950066 3.1588603995354765 1.7646053742650105 79 80 81
0.6115123629479262 3.1803253705959165 1.7643530019964546 77 78 80
0.5289383094024338 3.1408007323732345 1.7612361708705995 69 70 72
0.5199453658958118 3.1514973552321046 1.7604879754862026 55 56 57
0.5016580109837074 3.1557714597583697 1.7594427328584912 45 46 47
0.5572164988681023 3.2452345920263492 1.7598267761003767 43 42 46
0.5312842898053487 3.2442056845434815 1.758537760244545 31 31 33
0.5078815881875087 3.244859745146112 1.7573313564269832 25 24 26
0.6133326269642634 3.405786959586161 1.7583021146857514 22 21 27
0.5883534076076149 3.4753979511500868 1.755136716709781 38 37 43
0.5737817592163061 3.5175855910286717 1.753247127348371 47 48 52
0.6653953753306627 3.6926817458821546 1.7531290345772026 46 48 51
1.2264694815791 2.502166756786809 1.8285723294937346 79 80 82
1.214096441257539 2.5119105799219694 1.8276683795712922 57 56 61
1.2141625907542704 2.528411706908954 1.827235415577088 49 49 51
1.102232317055781 2.5653856017768017 1.820411390509017 70 70 72
0.8964478632007452 2.6118079184166714 1.8084354482233627 45 44 49
0.7412746968764521 2.7478113705440457 1.796733719333741 20 21 23
0.7151747202447987 2.74817563327423 1.795360877161457 17 18 20
0.5846526512716812 2.8299420058354574 1.7863811342148233 38 39 41
0.6358120616709044 3.011785214023152 1.7842438446039068 13 14 16
0.6168914778054482 3.0160625018883183 1.7831424928627184 15 16 18
0.5954343073334034 3.0186050379554183 1.7819545349981243 17 17 19
0.5822918112421658 3.0265980284507625 1.7810567019348844 23 23 27
0.5732777822407611 3.0373113060939985 1.7803025540338822 26 25 30
0.5638959187502581 3.047768087500894 1.77953597781565 26 26 32
0.5606126202443256 3.0623040441823273 1.7789800458164167 29 30 35
0.5456225474163381 3.068974687777562 1.7780206865705592 37 38 42
0.5610054162956704 3.0961276244484086 1.7781060013555412 50 51 53
0.5618403864271846 3.1135221050817976 1.7776895657873921 52 54 54
0.5878845491498403 3.1650627431329545 1.777686720801705 75 76 78
0.5389032987247886 3.1484913305027526 1.7755666959187146 76 77 79
0.515787519143069 3.1495025402762895 1.774332608748688 79 79 79
0.5000547196122178 3.1555294817949253 1.773351481227035 72 72 72
0.5414839639890758 3.2693283346740576 1.7725056081769086 48 46 49
0.6193784835481142 3.4636126090693 1.7714356607059991 31 30 35
0.5960419295792623 3.4818975638391434 1.7697331893669401 39 38 43
0.5789756354989193 3.5223173260160423 1.7677727976277378 47 48 52
0.6291062131576926 3.6484695664089375 1.7670546770690432 45 46 50
0.6842487162378004 3.707751330434006 1.7683669095909524 44 46 50
1.218580449024326 2.498691289976864 1.8427478106544815 74 74 76
1.2194422518709804 2.5156062373170607 1.8423602349793344 50 49 54
1.1284077128606949 2.5643254098736943 1.836224655878492 70 69 74
1.1086665552545307 2.5697727978817784 1.835025387484938 71 71 73
0.7240851675498718 2.7381212697091613 1.8100662237183973 20 21 23
0.6987571626913403 2.738919486767698 1.8086863367717978 17 18 20
0.6703282973181994 2.7377252725042434 1.807191120663727 17 18 20
0.5441251647617809 2.8375283068056456 1.7978577720566071 36 37 39
0.5603731802116425 2.864292129026129 1.7980434094421716 36 37 41
0.6084838521665612 3.0113666261472263 1.7968534910335205 14 14 16
0.5926909041526978 3.0176366430931103 1.79584503387167 14 14 18
0.5812787441445666 3.026772853388171 1.7949981925858085 15 14 19
0.5723265263952613 3.0375262585429734 1.7942419048280018 16 15 20
0.5514145842486091 3.0402724309622213 1.7930490777923964 18 18 23
0.545548094662855 3.0530475088482794 1.792406557029711 20 21 26
0.5600910254285258 3.0795703313747698 1.7925068595564804 29 30 34
0.5527492212051701 3.091405354944252 1.7918092654343278 39 40 42
0.5413375831208131 3.1004777533605834 1.7909640887937925 30 31 31
0.5334432324945477 3.11192167122654 1.7902468691771016 37 38 37
0.5456396689445029 3.137080584411637 1.7902562109887432 48 48 50
0.5339396229995703 3.145953761820266 1.7894006643848501 62 62 64
0.520712916836628 3.1537534944633117 1.7884907097493148 76 76 76
0.5070580207024116 3.1612267778668914 1.7875661458315037 76 76 76
0.6167051603503402 3.445030437200707 1.7861722382854353 31 30 35
0.6128889557855015 3.4598408844232464 1.7855875585262386 35 34 39
0.6120361142688262 3.476813018967417 1.7851064870723279 38 37 42
0.5850972640315697 3.4748584180054283 1.7837107458557482 39 38 43
0.5761211038156222 3.521141781065455 1.782041908836173 48 49 53
0.6068266452625193 3.5792151848477602 1.7822004951727652 52 53 57
0.6393321688772735 3.6570450416129505 1.78194898187197 52 52 56
0.6830177207808124 3.7077791097231834 1.7829924739409437 50 50 54
1.2107052971031373 2.4952218621655815 1.8568969588444626 63 61 64
0.8730138944045709 2.5351507727086373 1.8372930722700367 53 53 55
0.7116279614666239 2.731319216552581 1.8235240190341342 17 18 20
0.681025135685003 2.7288536173917004 1.8218986189434452 18 19 21
0.651729481718031 2.727084820199952 1.8203279493039073 17 18 20
0.5769967464400483 2.991451303821365 1.8096401977076089 22 20 25
0.5744907444325023 3.0064399474123884 1.80912964789427 17 16 22
0.5657265552349648 3.017292789703713 1.8083769450939589 14 13 18
0.5604204696989927 3.030440710934663 1.8077578072223242 14 13 17
0.5512885880340146 3.0410368878071026 1.8069912167048212 14 15 17
0.5566850013641165 3.0613723797493004 1.8067833493008918 14 15 20
0.5481060901797534 3.072352938537268 1.806037684582649 14 15 19
0.5533528076539573 3.092669463008878 1.8058220380390142 17 18 20
0.5448634022272849 3.1037264040564834 1.8050794084817774 24 24 25
0.4971526283280898 3.0880791151041382 1.802838643441375 20 20 20
0.5006545432695184 3.107216570218481 1.8025561297819503 26 26 28
0.5252322541601799 3.1408490910245854 1.8030750333783343 45 45 47
0.5066683848360904 3.144957713292806 1.8019498024435452 64 64 64
0.5153279367161416 3.1678002281954507 1.801859488224177 59 59 59
0.5010704902102803 3.17484374928003 1.800898679030323 68 68 68
0.5788603714884484 3.4187131345159347 1.7991264643412614 37 36 41
0.5596783307033242 3.4923895974947143 1.7962385667144123 54 55 59
0.5871836294292629 3.547886367135365 1.79637554842929 54 55 59
0.6128949841619526 3.584630634058788 1.7968796128881848 49 48 53
0.6128367691971093 3.6024231219833016 1.7964343031271999 48 47 52
0.6466128866861296 3.6634238811787427 1.796780137770237 53 52 57
0.6936807089243053 3.7167191676720654 1.7980500030093878 51 50 55
0.8240043139855997 3.944713288913476 1.7995676295340497 78 80 80
0.8545248263609688 3.9869715058536634 1.8001997404684713 92 94 93
0.8648762275666133 4.013848843914101 1.8001024161359311 140 142 141
0.8576005608377968 4.027159996540879 1.7993706695481486 169 170 170
1.220835478406633 2.4850674840990514 1.8721982897933998 84 80 82
1.2070184432574516 2.4940172988349376 1.8712016187075848 50 49 51
0.7234110629643768 2.739329575900675 1.837951071503806 15 16 18
0.6783435530839359 2.728016330709799 1.835674239430696 29 30 32
0.6417704890740543 2.7217598057188392 1.8337562272589154 41 42 44
0.498731880237552 2.875130565822044 1.8219782101000404 33 34 37
0.5613075076782086 2.98194696818639 1.822948644999201 39 39 44
0.55393986863235 2.993683316504358 1.8222497239274902 38 37 43
0.5517286318536654 3.008841478587576 1.8217601480686638 31 30 36
0.5516578151190337 3.0254476569962043 1.821356807039897 26 25 30
0.5370252568674301 3.0323450726802426 1.8203633672672477 17 16 20
0.5428774225719533 3.0529558084780533 1.8201987134989648 13 13 18
0.5577309075208661 3.079689856617018 1.8203958981117094 13 14 17
0.5555754602742906 3.095028384418626 1.8199051402143729 14 15 17
0.5463264226283553 3.1055766978969395 1.8191283819221433 16 16 19
0.5426846555914084 3.1199305187840904 1.818577241792634 17 17 20
0.4836430601173687 3.1132001214296916 1.8153998706321373 26 26 29
0.47898154190461284 3.1267733593807288 1.8148098273699633 32 33 35
0.49520021169829764 3.154771365793492 1.8150538279004698 35 35 38
0.4985417092620694 3.1739590694648796 1.814781398347414 53 52 55
0.5019769518917705 3.1932606869735114 1.8145115314064622 52 50 55
0.52965316507979 3.2295220042489077 1.8152048257138307 58 57 61
0.582821201124228 3.4574753249217816 1.8127301637265318 45 45 48
0.5361400337233955 3.441094747721486 1.8104839241954511 45 45 48
0.5429689204785335 3.4635498271261795 1.810330159196159 57 58 61
0.556117633698987 3.490698779444137 1.810420949530499 50 51 55
0.5705248222228168 3.5188718404618933 1.8105582883679694 52 52 57
0.581926414907254 3.544936474527732 1.8105763417392782 53 53 58
0.6208616429499509 3.5914514880081327 1.8116598379865416 47 47 52
0.6349032985004932 3.6197274736060505 1.8117740282773582 38 38 42
0.6483296073146669 3.647651032293486 1.8118618913171471 36 36 40
0.6399062796658344 3.6593571994505796 1.8111039893661038 41 42 46
0.6784690989652313 3.7062704245605844 1.8121568472998972 44 44 49
0.7424179076824877 3.7725035408228225 1.8141808688715257 44 44 48
0.8508526813230295 3.9663005191137417 1.8156533039639289 78 79 80
0.8612309205370472 3.993129295249115 1.8155951038075278 89 91 91
1.2111551036670094 2.480638307422762 1.886231862935841 75 70 72
1.1964064081483103 2.489064126425263 1.885180567972436 48 48 50
1.1649207853048835 2.5211311030804913 1.8826089482459156 52 52 54
1.1732101339017742 2.542116913204169 1.882601867270986 62 62 64
1.1799548049534132 2.5623157104965983 1.8825234913791176 70 70 72
0.7471746532827075 2.754666232616667 1.8529508065212277 13 14 16
0.7057052403389168 2.745611446915696 1.8507560941002814 15 16 18
0.6769272263167936 2.7442151970067417 1.8491194389713754 17 18 20
0.6958574195443958 2.804965530551431 1.8488051115288722 17 18 20
0.5397762872769218 3.051724193168668 1.8340160316542127 31 30 35
0.5433873808210226 3.070880499487915 1.8337801443837076 23 23 25
0.5518899698079549 3.093393338321775 1.833749932220863 16 16 18
0.5469529127023667 3.1068599182893015 1.8331505253050395 14 13 17
0.5421040780041808 3.120395349145551 1.8325546346692896 15 15 19
0.545019765782887 3.1392453851046414 1.8322855340368986 17 17 19
0.5354048366543429 3.1495498782911326 1.8314883217839308 19 19 22
0.5313953806606915 3.1636978220060303 1.8309268756239716 19 20 24
0.5333085779394762 3.2671129553439653 1.8286337342742318 57 57 57
0.5420099027025476 3.2903794396352124 1.828597528609994 61 59 63
0.5891070140883621 3.427897256023563 1.828132247372817 50 49 54
0.5851373831436699 3.4425352442234995 1.8275617189179718 48 49 51
0.585892799900847 3.460611740660039 1.827185305963592 49 50 52
0.5326412767773026 3.4394580925289824 1.824588499548687 53 54 56
0.5391084846282006 3.461644112268639 1.8244478336577692 65 66 69
0.5558956425384609 3.491451349292121 1.8247285494689887 53 54 58
0.572942145594713 3.5215670610784904 1.8250171360447798 54 54 58
0.5759135860079558 3.5414284755125847 1.8247277573872673 53 52 57
0.6103597220592833 3.5846163374427222 1.8257216260033449 49 50 54
0.6307479072593285 3.6175799550512577 1.8261378232165697 42 43 47
0.6376647114543403 3.6406508733711975 1.8260026623827623 31 32 36
0.6438320565179256 3.663232039365299 1.8258354185431716 31 32 36
0.66465048734378 3.696862022838803 1.8262610787397517 34 35 39
0.8604204996602414 3.9935020196452182 1.8307196340284932 83 84 85
0.8668733754335038 4.017391508114957 1.8305385361066517 106 108 107
0.8598312552103902 4.030892606832229 1.8298162338627437 157 158 157
1.2043053542865625 2.461367582633999 1.9007331871706452 83 81 83
1.1929939576752357 2.471634543855245 1.8998303514582453 58 56 59
1.1439561278828247 2.510441156657888 1.8960443462915302 59 59 61
1.1702293104283585 2.5412736331334296 1.896913995101637 66 66 68
0.5413866484007497 3.1207670050869822 1.846526377278117 21 20 24
0.5348366419240136 3.1331492169683997 1.845859089016209 18 18 20
0.5311170546258097 3.1474736424083223 1.8453164509621744 16 16 19
0.5308285527164576 3.1641740343693447 1.8449244317445475 16 17 20
0.527438954336757 3.1787640266901027 1.8443954478721252 18 17 21
0.5353650154763008 3.2012122935085516 1.8443626999584026 19 17 22
0.6034209128604777 3.4391070546805054 1.8430681284926316 57 56 61
0.5820313466489153 3.441200356490925 1.8417496954523085 51 52 54
0.5689096930600184 3.4492144843721007 1.840789822740054 49 50 52
