ply
format ascii 1.0
element vertex 732
property float x
property float y
property float z
property uchar diffuse_red
property uchar diffuse_green
property uchar diffuse_blue
end_header
1.666193014757864 2.9654056082932323 0.41395399942833516 23 23 25
1.6384739090506928 2.952556999040213 0.42223372316216534 17 17 19
1.595047691950323 2.9401522387226993 0.4340590389627253 17 17 19
1.4173353907041204 2.718188921459716 0.5078534501814953 35 35 37
1.3878372721389405 2.7041122284368555 0.516724430489612 36 36 38
1.3719026256360363 2.6898807573939205 0.5224998026082011 34 34 36
1.3518309713965362 2.6756070795340063 0.5292326363293172 30 30 32
1.3360349928236293 2.6612631798502937 0.5349928070073108 35 35 37
1.28347680574152 2.6323673996555117 0.5513646560833917 36 36 38
1.2650798819017925 2.617821237889878 0.5577528584309972 37 37 39
1.140700728046828 2.4996564644505113 0.603883471451713 46 47 49
1.133465110895536 2.4553780262117777 0.6121169707873856 50 50 52
1.1028879594405898 2.4399260099853715 0.6214401119648787 51 51 53
1.0832525268095512 2.4246538259819994 0.628220801955671 50 50 52
1.5289979108645324 3.6626589261559386 0.35673575965823984 70 70 70
1.6247839034802167 3.6373153044669797 0.3383062448736765 59 59 59
1.788009432252217 3.5225501980018445 0.317521012386192 52 50 51
1.779848397463451 3.509746962473701 0.32131117624069394 63 60 61
1.7719028259262417 3.4968946915223524 0.3250587013614679 69 67 70
1.756130460008713 3.484805815348914 0.3305061108987535 68 66 68
1.8455764231664697 3.448667531907466 0.31514690019715025 70 70 67
1.850267397617905 3.4346608071606 0.31613833906777206 38 38 37
1.8582736402325715 3.4203574999567574 0.31640576941000215 21 21 21
1.8635583944077323 3.406332967884687 0.3172622958817946 22 22 23
1.8752114536124318 3.3917473224133614 0.3167267981335333 22 22 24
1.8768339477979812 3.3780958010724493 0.3183763774344769 23 23 25
1.8778843183984455 3.364499996212732 0.32015022780034025 23 23 25
1.8637450983659278 3.2981135378146766 0.33327531133302263 34 34 36
1.8739213226432747 3.283799579657881 0.33304162610101934 58 58 60
1.8119187933508445 3.275000529047161 0.34871056628419345 65 65 67
1.8087263332035461 3.2616275546367963 0.3514342458355762 42 42 44
1.8006090620716753 3.248601755019709 0.3552472927643644 17 17 19
1.7925075322406248 3.2355480520646345 0.35906083303265224 14 14 16
1.63603211050283 3.01034549307469 0.42872256032034034 32 32 34
1.6550315095768748 2.967935421088083 0.43061346260978584 21 21 23
1.6274565740201892 2.9550627667354554 0.43891133125637605 18 18 20
1.6157318066915565 2.94155401586164 0.4436317415924655 18 18 20
1.4549885516071996 2.734128553997603 0.5116446041054488 34 34 37
1.4037461668248388 2.720331512102146 0.5255624001592065 34 34 36
1.3536897350247346 2.70635711119959 0.5392317738505701 35 35 37
1.350628969373506 2.692007979020722 0.5420697754591703 32 32 34
1.3473309874377584 2.6776495570416077 0.5449641086666681 30 30 32
1.3320548882343117 2.6632937357291397 0.5506328949608835 35 35 37
1.296114182941848 2.6344185215825453 0.5632430325181639 36 36 38
1.305709111642106 2.619998405601615 0.5631597600429193 37 37 39
1.4167643418663038 2.577659588318772 0.5437145265459775 38 38 40
1.1502283211028521 2.4871090421486084 0.6188947762431013 43 44 46
1.11070757206606 2.471601778595248 0.6303508912548274 45 45 47
1.0883641076946062 2.4415441747882487 0.6399865336924894 47 47 49
1.065174246407246 2.426153848164274 0.6476421015438054 47 47 49
0.7068809173088291 2.2935670277083893 0.7503155846387727 41 41 43
1.5426244552812687 3.6635406766377523 0.3681328455273459 61 61 61
1.7985903981342237 3.510159052716392 0.33114717524288606 31 29 31
1.8107155621851523 3.495269029348616 0.3305262929416081 39 37 39
1.814374722987078 3.481276120186993 0.33174824182223117 54 52 53
1.7813555109439734 3.4709454237103303 0.34098743180675767 80 79 77
1.8403945181620158 3.451497661772666 0.3300932560311263 77 77 74
1.8573039692391982 3.436298661473247 0.3284015826023381 73 73 69
1.8759599663539537 3.4209910903394958 0.32631838080204817 61 61 60
1.8853440855280428 3.3931095398784596 0.3282646617076112 21 21 22
1.8788806167512466 3.3801911781966463 0.33168976689814145 21 21 23
1.8828530666120398 3.366334639219087 0.33281836373533535 22 22 24
1.8921912141812558 3.2980905289342815 0.34076354143438903 16 16 18
1.8771297096258863 3.285779302624295 0.3461053146979171 16 16 18
1.8280946869781993 3.276007212093822 0.35899964737372503 28 28 30
1.5003345937961696 3.1172374641370273 0.45905235123356697 17 17 19
1.5748403138124156 3.0291210700861875 0.454735955804357 32 32 34
1.6165473529553975 3.013322994659575 0.4473455168552539 32 32 34
1.6962963901745605 2.9822889568605655 0.43333664804512284 29 29 31
1.6553950794144203 2.9700358564287757 0.4447006907238749 24 24 26
1.6521408532431645 2.956281211488446 0.44750084384983174 18 18 20
1.6465752732544165 2.942595960119562 0.45083016122482583 19 19 21
1.4097723557599415 2.7366032514182703 0.5366598475912925 33 33 35
1.3852699985253358 2.7225218007446292 0.5444677023352046 33 33 35
1.3372208996228483 2.708508287110617 0.5577611801092824 33 33 35
1.3318620407062938 2.694135663227026 0.5611442279378303 28 28 30
1.3292589734612912 2.6797371460968553 0.5638879280645104 32 32 34
1.3266549329531305 2.665330199963821 0.5666331058686136 33 33 35
1.1472008017900346 2.4890315812838772 0.634672448112014 40 41 43
1.032509097404609 2.412395534699852 0.6728106507460097 43 43 45
0.6698377327718903 2.278618379844192 0.7773035987666671 39 39 41
0.6138299943725227 2.245178483879744 0.7953366741321664 42 42 44
1.7322061886741396 3.6020529976567652 0.34737760117038174 44 44 46
1.7985792319798366 3.5261785073943375 0.3430271350644155 26 25 30
1.8311106945663667 3.5091189646072785 0.33790869622887204 29 28 32
1.8250849872743637 3.496144235264729 0.3412503596476392 34 32 33
1.851482504754129 3.479859978739682 0.33745920324831913 36 34 35
1.8409658406668519 3.467347710441727 0.34178823521263035 48 46 47
1.8332590705894252 3.4545248942408153 0.3455026366130501 78 77 76
1.8488085399025436 3.439433229545097 0.34408529926715187 87 86 85
1.8690880685810092 3.42394516551216 0.3416145719748766 79 78 76
1.8809762395137744 3.3822834068169856 0.344999834564018 31 31 31
1.8841909178399208 3.3414779257270495 0.3502974975750406 21 20 25
1.8889650806290799 3.327575820057137 0.3512373251924891 19 18 23
1.8906735585929388 3.3139396100876883 0.35285855261743093 16 15 20
1.8894458849721578 3.3005436431497333 0.35513452782659677 15 15 17
1.8862964673601825 3.2872939795393403 0.35784066549765425 14 14 16
1.7956140858471157 3.2807287307343094 0.380137110108496 12 12 14
1.5118331645686043 3.1188371250890308 0.47088037663656046 17 17 19
1.5837436549304997 3.0308880918518697 0.46701914318757753 33 33 35
1.6417712724088194 3.0143819260336664 0.4558236054924114 33 33 35
1.653164051826075 2.958353705072384 0.4614566332527988 20 20 22
1.639897001137987 2.9449327495977022 0.4665671785741517 20 20 22
1.4414430308746584 2.7525728950249904 0.5417672064629173 33 33 35
1.379009704569874 2.73895857892809 0.5584670843743842 33 33 35
1.3099794992364766 2.681839300547224 0.5831721241616727 33 33 35
0.6403427091850624 2.2794207670753215 0.8003255597820125 38 38 40
0.6600829381846172 2.264685399367121 0.7978699766034882 39 39 41
1.6833998980747755 3.623953591973767 0.370074812518667 47 46 46
1.8327556378371592 3.5249077414574956 0.3493891120665693 28 27 30
1.8540268990096425 3.5090717625026966 0.3466996644965845 29 28 31
1.8723073462796005 3.4936161812778206 0.34466223289801273 32 30 31
1.811171925490047 3.486302123652779 0.3602285978215883 34 32 33
1.8594109018163316 3.4678381902618907 0.35154104505942274 36 34 35
1.8439702249029546 3.4558022766929066 0.3569839788734707 39 37 38
1.8402855531085023 3.442577740314528 0.35981854753237835 56 54 55
1.8586803062135084 3.4272417670492556 0.3577362968857809 80 78 79
1.869811447879092 3.412645848410996 0.3572648232029737 95 93 94
1.8916301020947726 3.316105304916609 0.36641766523999286 23 23 25
1.8879995776312768 3.3028965887729185 0.3692370609976446 18 18 20
1.4832271980645384 3.1226429131759206 0.4918563712951695 16 16 18
1.5929834279143371 3.03263763175931 0.47920965043461117 33 33 35
1.6112549337291169 3.01785170870389 0.47707499776810597 34 34 36
1.6794134135341072 2.973347367592109 0.4675319483420771 28 28 30
1.6545198259735185 2.9604156686992935 0.4753469119358441 19 19 21
1.6543588453066482 2.946532752646343 0.4774444766591745 20 20 22
1.5658140239351155 2.9356060876063785 0.5000393137697742 20 20 22
1.5427133203000698 2.922304528046979 0.5074844564532867 19 19 21
1.4104852390258746 2.769282978163218 0.5615054843957124 31 31 33
0.64127633836381 2.2814486397574325 0.8160776591818362 37 37 39
1.6892966751844982 3.6257207242591036 0.3828910153470138 54 52 53
1.8546370093967028 3.524935657859155 0.35838814605237695 26 26 28
1.8694123617269893 3.5098072929299593 0.35710657703028975 23 23 25
1.8696507841994368 3.496235929150098 0.3590627895538739 30 28 29
1.876533388045944 3.481987632249815 0.3595340091485336 33 31 32
1.8926345738712496 3.466837244859194 0.35793934221450024 33 31 32
1.8406521522972126 3.4584606904591793 0.37158569444169365 33 31 33
1.8483822322819579 3.444116881003801 0.3718688608000313 33 31 33
1.856237239004032 3.429787146169557 0.37212012993074095 34 32 35
1.8652919838028423 3.4153714003929254 0.37209788119892906 49 47 50
1.8812836331807823 3.305676181123469 0.3845536284135969 22 22 24
1.5695281778701402 3.0499067868239553 0.49688282592638966 32 32 34
1.601660109736812 3.0344102341446364 0.4915143205979635 33 33 35
1.6224047043988075 3.0195186138487236 0.4887732795639311 34 34 36
1.6904230249482752 2.9750359902989967 0.4791413601100437 28 28 30
1.6723182791180002 2.9618702082497075 0.48541437762489836 20 20 22
1.6706500703574085 2.948062966877954 0.48786053100476695 21 21 23
1.5441849898905284 2.924377143414978 0.5215505059507526 20 20 22
1.4594624338059154 2.8844314231332246 0.5476919682998276 23 23 25
1.3413024225722394 2.685817533381091 0.6053481219449566 32 32 34
0.8460227054837449 2.337242213636311 0.7752354153719122 37 37 39
0.7097360049840092 2.2861508848406134 0.8153341692224673 37 37 39
1.6486797074349298 3.6329447485974695 0.40607252460187837 53 51 53
1.8212380427471961 3.5445210597825754 0.3777120803508574 26 25 28
1.821291581175688 3.5308807253627426 0.379722433596801 23 22 26
1.8820020055288604 3.51083179547845 0.36810390021155576 21 20 24
1.896094981145013 3.4958334480230775 0.3669411724482265 23 22 25
1.9084002641262137 3.4675769200226676 0.36817467154967815 26 24 27
1.5873717983286086 3.0512449140822615 0.5070898973797424 33 33 35
1.614720582135249 3.0359806315857716 0.502780457176425 34 34 36
1.6339235463640738 3.021165829558703 0.5003622711667945 35 35 37
1.6957476264422506 2.9769427016757892 0.49206173197811987 30 30 32
1.674379443439186 2.96390477323222 0.4991316438553216 21 21 23
1.679586693471131 2.949849149208402 0.49996485266964363 20 20 22
1.5539824876727546 2.926182428211864 0.5336653992464158 21 21 23
1.474892578887909 2.886130747618797 0.5586161210531626 24 24 26
1.3471846471191067 2.687837455436093 0.6187240486336639 31 31 33
1.3691084538167209 2.6590020517173785 0.6177315080426828 31 31 33
0.7074205054551483 2.2880398483063966 0.8317978909716555 36 36 38
1.70448429746957 3.6426910089402784 0.40569296718913006 64 62 65
1.7529974508821138 3.609389477667865 0.3988869142856889 55 53 54
1.8178990838050937 3.5609191506008178 0.39036293702418795 40 41 42
1.8381960726043507 3.5314398563846097 0.3898212494931064 32 32 33
1.8171866694529362 3.520052521335308 0.3965966775179137 30 30 31
1.7941320230640885 3.5088085527315065 0.4038460051589329 28 28 31
1.8640830821299943 3.4879443547757614 0.3900050479001528 21 20 23
1.5063689858301093 3.085595070976501 0.5362850796478975 31 31 33
1.602643067414908 3.0526984076975765 0.5178558216293435 34 34 36
1.6262299303945156 3.03761773416279 0.5143820630652454 34 34 36
1.645145474447014 3.022822511746026 0.5119969162400861 35 35 37
1.6925207183856814 3.0068797399045333 0.5028917383228292 35 35 37
1.7038138162521952 2.9787414276016007 0.5043310452050327 33 33 35
1.683663933560022 2.965669331519715 0.5111482596776313 23 23 25
1.6836986665873632 2.9518061118446886 0.5131960172685475 21 21 23
1.5637669052321757 2.9279854505850293 0.545765122772158 23 23 25
1.5318729523037364 2.914908785813787 0.55542631208919 23 23 25
1.504289416917036 2.9016000776643476 0.5640783443341786 24 24 26
1.7200471467247722 3.6432958387086862 0.4163026926309013 55 53 56
1.7163553712282906 3.629911902291854 0.4191879098931629 55 53 56
1.7986273214537176 3.5928340709975584 0.404624710579806 47 47 48
1.8205183213211011 3.5766747176275637 0.4016831303204615 50 51 53
1.8215842442485193 3.5629054859946865 0.40346531485055204 50 50 51
1.865084980184947 3.530914228857178 0.39760217716892 53 53 53
1.847750421720628 3.519180279356056 0.403569509438582 33 33 33
1.8224160001424918 3.5082252007477757 0.4113721126821638 33 33 33
1.7870227979928224 3.4982207825771376 0.4214865806209736 32 32 32
1.600085701675362 3.0549986710963357 0.5328058181916111 34 34 36
1.621241732665788 3.040012390620797 0.5298694835643438 34 34 36
1.6484829815718203 3.0248263212219313 0.525478885091817 36 36 38
1.6889474334681718 3.0091653948807844 0.5179342038441832 36 36 38
1.7215617399396748 2.980156168390159 0.5142834828038796 35 35 37
1.6918763689426253 2.967471918637918 0.5234035282231448 27 27 29
1.682187161113358 2.953966378734384 0.527769268264151 22 22 24
1.615449556151358 2.9423945946242767 0.5457595973065146 24 24 26
1.5658428985548158 2.9300385544199523 0.5596888179762588 24 24 26
1.471600451363926 2.890461995106952 0.5885396498598605 26 26 28
1.721099192120254 3.6456338188182333 0.43018009160881626 51 50 52
1.8383315361681838 3.577063304155497 0.41155675712024364 39 40 44
1.8189461611793794 3.5519372219996557 0.42004407159291485 40 40 40
1.873442636118009 3.5188117432510504 0.41157221143549033 59 59 59
1.8448986615746041 3.5082362871536685 0.42015101223038687 38 38 38
1.8781763580670936 3.423387247428272 0.42456119986033125 21 21 23
1.8890732145423388 3.35465114621827 0.43207858333195814 12 13 17
1.8886529977751483 3.341146893154889 0.43418449049753477 11 12 16
1.8954101089052044 3.327044707403762 0.43461630908968824 12 12 16
1.9012499383078307 3.313040043363004 0.4352589508835301 15 15 17
1.9175866113054525 3.284726024840123 0.43544565059447515 31 31 33
1.9290139532838926 3.2703610793922024 0.43476942088539644 36 36 38
1.6304755984328239 3.0417520031445022 0.5419939792072634 35 35 37
1.657670874776605 3.0265689876858035 0.5375664413077093 36 36 38
1.7311991684579238 2.9818862373515396 0.5261342978089403 35 35 37
1.702461914981062 2.9691822543871838 0.5350762319832161 30 30 32
1.6869190398788776 2.9559024869194257 0.5408629960138605 23 23 25
1.6222693331946176 2.9442756580022245 0.5584653409976549 24 24 26
1.5835968355476642 2.931574806585072 0.569846922187762 25 25 27
1.5427984457902737 2.9188117386407746 0.5817598525940568 26 26 28
1.5016398522319134 2.8775647198930394 0.597985462851841 26 26 28
1.5916288678484465 3.705809308082518 0.46777724516941915 59 57 60
1.735449765562842 3.6463753441965703 0.4410164204199903 48 49 51
1.812635728865061 3.56870431127818 0.43344235583064034 32 32 33
1.892752125427436 3.505569080231111 0.4229878801213976 61 61 60
1.868830356127026 3.494501199815646 0.4305462843249269 53 52 51
1.8235926450350854 3.444548976128391 0.4491435270182694 34 32 35
1.869742726485319 3.4265013302831586 0.4404045260944569 31 29 32
1.8654479514293776 3.4133222298515755 0.4434212211406729 27 26 31
1.8720913566868234 3.3991251013562933 0.4438832951096756 22 22 25
1.8811510557550015 3.384732671354361 0.44377665432408714 18 18 19
1.9363218583012602 3.272019217951454 0.44684465081265035 19 19 21
1.6672346661213024 3.0282922704078756 0.549547128552967 36 36 38
1.6903997301157163 2.9717569850079375 0.5522009879153571 33 33 35
1.6865502756810544 2.958025285913752 0.5551894783622076 28 28 30
1.6408882017388071 2.9457429453825363 0.5683055004039473 26 26 28
1.6014491597551035 2.9331010721089172 0.5799355553550707 26 26 28
1.5547840081683293 2.920556178919295 0.5933386260724316 27 27 29
1.6104708639229928 3.705974380491237 0.47779779815212947 53 54 56
1.8996767337687954 3.4801146227082755 0.439246597487476 68 67 63
1.8825696742358617 3.468294132388643 0.4452608612643296 66 65 63
1.878496406813817 3.45512953687182 0.44822764544486193 50 48 49
1.85508118683336 3.4438292218993545 0.4557361729209951 34 32 35
1.854103034000672 3.4303101688717463 0.457984507540356 28 26 29
1.856719787341983 3.416451095690021 0.45938775089384437 31 30 34
1.853961799948179 3.4030957976704985 0.4620551698055985 33 33 35
1.8305428609996408 3.391599020106956 0.46959375613133747 30 30 32
1.8370265384840254 3.3773712620571916 0.47008839757428655 22 22 24
1.8401752566407006 3.3634556959168282 0.4713675025865022 15 15 17
1.842323127485978 3.3496363217507077 0.4728816604127666 11 11 13
1.8968745224505092 3.317897387729945 0.463999008976624 11 11 13
1.9296746011559778 3.2882356645243327 0.4602267123891545 11 11 13
1.6824986534036923 3.0297549619242434 0.5601283983087953 36 36 38
1.674285467767759 2.988403582864278 0.5683061332724277 35 35 37
1.6823686725036584 2.9741846536716614 0.5684010143966978 34 34 36
1.690437147454673 2.9599935095753604 0.568495444682299 31 31 33
1.6102695901420676 2.9349235631561372 0.5921831232637427 28 28 30
1.5740009401587076 2.9220663261417883 0.6031243796412149 29 29 31
1.5198919306178276 2.909626940853804 0.6184478076882867 30 30 32
1.558806871784659 3.757360196274555 0.49786009120843744 163 162 162
1.6193385265447702 3.7073856836445627 0.490085149040172 52 51 54
1.9153933959232363 3.453806380353063 0.45341659312896326 72 70 71
1.8863619201961699 3.44311414025884 0.462284847450711 61 59 61
1.8506896294849673 3.432960431559532 0.4727391672552027 55 53 56
1.848422033617293 3.419546905516346 0.47529692865542444 43 43 44
1.8547138784619501 3.4053355838990855 0.47582576028272106 31 31 33
1.8480365543214048 3.351430588183615 0.48549368355566563 27 27 29
1.8515400293880189 3.337506504778609 0.48667941586278773 17 17 19
1.8473532149211689 3.3242273223443024 0.4896987130738435 11 11 13
1.908830367069983 3.3056396245886397 0.4770326540736731 11 11 13
1.9245684455451055 3.2908694295430787 0.47527466820545516 11 11 13
1.8830417144864613 3.2262983841158612 0.4952664505439693 12 12 14
1.6816985752233293 3.031943046820768 0.5745937992387402 37 37 39
1.6905439724826772 3.0176524573330115 0.5744937994209565 38 38 40
1.6704739818816026 3.004610795814177 0.5814623367223137 37 37 39
1.663116100587871 2.9909875212111907 0.5853281496219751 35 35 37
1.659564621964526 2.9771921047202343 0.5882646116826655 34 34 36
1.668643106768719 2.962915895569942 0.5881040071784345 32 32 34
1.6405785868131972 2.94998782070728 0.5970612125474987 29 29 31
1.6145120690351724 2.9368985714118514 0.6055410968132862 29 29 31
1.583462441876823 2.9238824613046956 0.6152602007367785 30 30 32
1.5465264193597916 2.91094200409858 0.6264447502158165 31 31 33
0.4917090335416401 2.2123530542222007 0.9946409608960256 34 34 36
1.562983347951723 3.731139811443659 0.5155205679541308 73 74 73
1.6104312805976229 3.711036008961008 0.5065151705964908 65 64 66
1.8645345537701483 3.379516909179714 0.49147812316968015 28 27 31
1.9002343063907996 3.3356798086338486 0.48895940934216203 34 33 36
1.8911700369094209 3.3093144292266574 0.4951583455827228 14 14 16
1.896205219942065 3.2953512134423013 0.49595667419116846 13 13 15
1.920392179935019 3.2799195877154426 0.492134657666646 11 11 13
1.6860887473779247 3.033896287030587 0.5878011169011612 38 38 40
1.697597442305687 3.019485959035434 0.587030419149835 39 39 41
1.6900386339048157 3.0059231916047184 0.5909508298189557 37 37 39
1.6588717297417799 2.993297279073626 0.6006961400521187 35 35 37
1.6567748061711185 2.9794314501537675 0.6032817203700647 34 34 36
1.6613165396206782 2.9653105441881094 0.6042280831554999 33 33 35
1.6439521676131315 2.9519876789015873 0.6105899756267492 31 31 33
1.6254241547272923 2.938646553934846 0.6172485308493822 31 31 33
1.6043399481092888 2.925326420589158 0.6245497115708992 31 31 33
1.5500868839508062 2.9129544660468305 0.6400893234552405 32 32 34
1.5221716779750694 2.8996365102183814 0.6491158076103523 31 31 33
1.4238506315767587 2.8451348500960365 0.6820342359153193 25 25 27
1.8804244361592706 3.557086753756463 0.4754124042975263 17 17 19
1.8431846563524936 3.4383394730872774 0.5024907473220188 24 24 26
1.833895709683802 3.3982263740875234 0.5108007904856203 30 28 31
1.9168178921599288 3.3230139634047444 0.5008584068714567 29 29 31
1.9206694737343755 3.3091725581646068 0.5019307842026843 33 33 35
1.7010231894241457 3.1186803794600766 0.5860457520636428 16 16 18
1.6988124361454098 3.035465978714162 0.5989454705213733 38 38 40
1.6975569491875788 3.0216327064182904 0.6013157548676222 39 39 41
1.6959759972429425 3.0078093407405775 0.6037673607590286 38 38 40
1.6660179368761108 2.9951444351781227 0.6132656529293132 36 36 38
1.6470839470320515 2.9819458844700026 0.6200388104767465 34 34 36
1.647059360179387 2.967972140317848 0.6221168104079446 33 33 35
1.6532193733477487 2.953776012506091 0.6226545705631688 33 33 35
1.6365732464290064 2.940383122793443 0.6288745646502124 32 32 34
1.504550575796284 2.859640063538829 0.6744288458913643 28 28 30
1.7307271374335207 3.673152804284142 0.5108396504241568 60 58 61
1.9331625105982977 3.3104021243920365 0.512767050612482 21 21 23
1.7142509949838636 3.1201330960906253 0.5970457956728141 16 16 18
1.6843367028193195 3.10789644223005 0.6065220187627514 22 22 24
1.6996489782707003 3.03758153750376 0.6130242891171254 38 38 40
1.7040469556383253 3.0234904226087123 0.6139868390521559 39 39 41
1.723951579502647 3.0087484911605094 0.6110740665780332 39 39 41
1.6712920652592291 2.99706742494449 0.6262937880926549 36 36 38
1.6481718726977725 2.9840408685601973 0.6341469034531544 34 34 36
1.6276915627041189 2.9708370051993174 0.6413501364695886 33 33 35
1.6165301824486065 2.957227089260347 0.646226656086742 35 35 37
1.6381688432831896 2.9424464488989153 0.6428754733605415 33 33 35
1.4887912037870286 2.847887842867447 0.6951548888375445 27 27 29
1.6895302677402775 3.6946638120491633 0.5328466324775392 63 61 64
1.737182203630113 3.6748410980983155 0.5234958764909048 62 60 63
1.905924802503645 3.477625160621739 0.50921341616465 19 19 21
1.7932461824864032 3.4065907679534733 0.5488033671841868 14 12 15
1.8099833876591553 3.3913309149452218 0.5467490447265572 13 11 14
1.8273866661965328 3.376068490239502 0.5445233245331986 14 12 15
1.8658896828620024 3.3590336877046583 0.537118767487185 19 17 20
1.887885875283955 3.343532936036581 0.5337438744438441 21 19 22
1.6980470698616634 3.109340679932897 0.6174203187693037 20 20 22
1.6434632014874757 3.084343762142993 0.6352030100713091 33 33 35
1.7020490045709102 3.0396261716377224 0.6267229271065671 38 38 40
1.7083646327285094 3.0254445203656184 0.6271964722276242 39 39 41
1.6862341173703952 2.998588586893834 0.6368850958516521 37 37 39
1.655791394497726 2.985877334819059 0.6466205686599884 33 33 35
1.6380608016374127 2.972579108881469 0.6531646237352435 32 32 34
1.6197565821114783 2.959242608918328 0.659862289828874 34 34 36
1.5851657751299277 2.94641197384732 0.6706852428441801 35 35 37
1.547917878836436 2.9052443093730247 0.6863942246746302 36 36 38
1.569578507080196 2.8904810745000056 0.6829965411312506 37 37 39
1.5648624664707134 2.87648791667618 0.6862871884291977 37 37 39
1.5107571394592818 2.863702009447476 0.7021362660569631 35 35 37
1.5019361050442461 2.8496896900744093 0.7064884235156126 31 31 33
1.6995645734653402 3.6959120557105103 0.5447155858435297 57 57 59
1.7536994077363337 3.6752807391093856 0.5337171033968457 57 57 59
1.7960516362699925 3.394909970924945 0.5642805395503301 12 12 14
1.8172512787157893 3.37927509439094 0.5610934298562582 12 12 14
1.837712683842393 3.3637758324029248 0.5580779095744839 13 13 15
1.9024313952973755 3.3309921239358062 0.5461326032810072 18 18 20
1.7368444186908842 3.1232440817128806 0.6199247424500705 15 15 17
1.6534433792958922 3.1000100434861495 0.6450249190189515 25 25 27
1.6358639127350052 3.0869332315480307 0.6515280775942289 32 32 34
1.7292342575222093 3.040511771884642 0.6341646190171286 38 38 40
1.71774976407006 3.0271699708309407 0.6391244250653925 40 40 42
1.7032729013809083 3.0000167319524786 0.6469085713978875 37 37 39
1.668169530886376 2.9875213488501915 0.6578758345835944 33 33 35
1.6538717703661132 2.9741090981264406 0.6635765823815513 31 31 33
1.631161451969448 2.960958234277219 0.6714230054657291 34 34 36
1.5739865093996142 2.948940020110875 0.6880506849796769 35 35 37
1.566047696248023 2.9350862715872426 0.6921657008844027 35 35 37
1.5277608742355622 2.9221685846754406 0.7040221856927726 35 35 37
1.5420403849304536 2.9075437799964496 0.7024822437158187 36 36 38
1.556275685929226 2.8929683371426416 0.7009464641788008 37 37 39
1.5658822208923535 2.8785643680190884 0.7005871810870447 37 37 39
1.5279080316377969 2.8653827198645785 0.7124016152761712 37 37 39
1.5091864558191017 2.851624781384789 0.7193023029180561 35 35 37
1.42412494822963 2.796136734583267 0.749614806244963 25 25 27
1.7516413775467474 3.678021425822506 0.5484104319442368 53 53 55
1.7912210683169851 3.659329280389545 0.5408338635370342 40 40 42
1.848450360640697 3.44717795734908 0.5573189549855376 23 23 25
1.8030624437445737 3.369101662372158 0.5807575945982035 11 11 13
1.8636213177040666 3.3501652847591226 0.5677326826836171 12 12 14
1.7458468061639913 3.124925141631123 0.6319087712320874 14 14 16
1.669426122749442 3.101353235520842 0.6553812539802288 22 22 24
1.6361545002830207 3.0891179757759617 0.6658929751512932 31 31 33
1.650540584818264 3.0743683394065044 0.6643183359879961 35 35 37
1.696236638675755 3.0442180287019633 0.6568411819233295 38 38 40
1.7255872464160182 3.028963071322454 0.6514292998317286 40 40 42
1.714081590442058 3.0017002246541247 0.6584782739308133 38 38 40
1.6811498936608944 2.9891369690865406 0.6689497466648751 34 34 36
1.6748354548361868 2.9754339661726124 0.6726316644768904 30 30 32
1.6713290925992268 2.9616061020248514 0.6755979802736476 32 32 34
1.6029602315794453 2.9500577464762046 0.6951832837508125 36 36 38
1.5686914286603608 2.93713296048528 0.7060579017779285 35 35 37
1.5621732601265164 2.9232063319143533 0.7098262274613909 35 35 37
1.5426166795102443 2.9096529803565945 0.7169478291697462 36 36 38
1.546185830782566 2.8953725795073133 0.7181314857595325 37 37 39
1.5611909232094021 2.8807963623421213 0.7163693153168996 37 37 39
1.542555485192618 2.867120357106852 0.7232682851043075 39 39 41
1.7275723534509027 3.6973959709535933 0.5664542599153091 41 41 43
1.7830799033657014 3.676593221831803 0.5549282502870194 46 46 48
1.8661345576188073 3.4341412572276933 0.5690043672827458 32 32 34
1.6360518535639081 3.091325491763247 0.68037263374191 30 30 34
1.6533597338401043 3.076416360853051 0.6780270748579794 35 34 38
1.6797120202174547 3.0471641761175583 0.6754269656490003 39 39 41
1.7357236629395094 3.0306494372816455 0.6631327205379138 41 41 43
1.7246504397083924 3.003390548894586 0.6700874044161644 41 41 43
1.6892671127436514 2.9909456825661973 0.6812446995633976 35 35 37
1.683355515303369 2.9772348233913246 0.6848328033497397 29 29 31
1.6701547611532261 2.9637758960964558 0.6903020414472716 32 32 34
1.648136013593283 2.950586586973101 0.6980521757692972 35 35 37
1.601346467422471 2.9381632588897495 0.7122083471174061 35 35 37
1.595348904421619 2.924268798377893 0.7158462897015259 35 35 37
1.5563348615221306 2.911362781888207 0.7280275246598661 36 36 38
1.5485797072703047 2.8974238192447674 0.7321346538305961 37 37 39
1.5466840745537245 2.883299764302775 0.7347270157790917 38 38 40
1.6377147308996616 3.739367030182837 0.5986817280518455 53 52 57
1.7237926504017889 3.70037981685191 0.5816523350539475 40 41 43
1.7777665328059564 3.679738064590784 0.5704104282772713 53 54 56
1.8723597148674909 3.4358744127428786 0.5814894442999247 33 33 35
1.6431222566481158 3.107185629675245 0.6909442862323036 23 23 27
1.6374835967936505 3.0934546508530154 0.6944733993375327 29 28 33
1.6599856157481299 3.0782712867365483 0.690761462808481 34 33 38
1.6977747786413029 3.06241058590834 0.6830993494039816 36 36 39
1.671241236982477 3.0497379888363865 0.6920080215282477 38 38 40
1.753901385974733 3.031963652328382 0.6727402671412086 41 41 43
1.7395465920470805 3.0048935592938744 0.680555839531253 42 42 45
1.6946473357495697 2.992864344841487 0.6942354356685088 38 37 40
1.6833420029892925 2.979368001073723 0.6992312460338829 31 30 33
1.672499556765365 2.965816543802509 0.7041125758197844 31 31 34
1.6498500566062357 2.952651950330838 0.7120650298112774 34 34 36
1.5986800728422863 2.9403855278698514 0.7274413084674822 36 36 38
1.5965510421955376 2.926354992705153 0.730084888286612 36 36 38
1.6006786481803121 2.9121248709863394 0.7311002563274073 36 36 38
1.5908842192399082 2.8983141592466715 0.7357423217678232 37 37 39
1.541924053195007 2.885545269291354 0.7506075456349515 38 38 40
1.6053885205902654 3.802564182238446 0.6127523004375337 167 167 165
1.901439366934194 3.5714757958290546 0.5680321719647683 33 31 36
1.9226034992534975 3.55550256181643 0.5647541679555514 35 34 39
1.8068835966049788 3.4307668454925557 0.6141069293667096 24 24 26
1.8229702463912114 3.4155018310719076 0.6120783186939607 30 30 32
1.921447497577169 3.352032331921079 0.5952170512201231 30 28 31
1.9036835120237605 3.3399676025404026 0.6017433705453241 24 23 26
1.8686979232731675 3.3292752393987586 0.6126599418963681 20 20 22
1.639666859169369 3.1095866415514757 0.7063091121327135 22 22 24
1.638984112395168 3.0955817581556873 0.7085667666496503 29 28 32
1.658871971713923 3.080521392272023 0.7054939036777848 34 33 38
1.7643612671277986 3.033626999653732 0.6843058138344558 40 40 42
1.7010907162223565 2.9947387804249876 0.7069456905434462 39 38 43
1.6933895071088392 2.9811065772383674 0.7110201968253232 31 30 35
1.6830886250404626 2.9675468957089306 0.7157773842134765 32 31 35
1.6577028569439287 2.9544971743950335 0.724482691768946 33 33 35
1.5999003004928278 2.9424776934444785 0.7416820725660828 35 35 37
1.5950692579624504 2.9285306682146826 0.7450376563002215 37 37 39
1.600397406092334 2.9142522374415045 0.7457325229375859 36 36 38
1.5952752864856667 2.900298810725053 0.7491666963990662 36 36 38
1.5550066551785648 2.8873014315805845 0.7618340567158137 38 38 40
1.5226584190705652 2.873962995672774 0.7724392997905765 39 39 42
1.5103182338755294 2.845775118113026 0.77990836112405 39 38 43
1.5197137488966304 2.8313240922228133 0.7795438894202784 40 39 44
1.4827060353908603 2.8177997384330387 0.7914195406637567 39 39 41
1.7237772998245031 3.7054030573670196 0.610249698494 58 58 60
1.8877872066975896 3.5890671922196193 0.5834514700320949 18 16 18
1.889034051210103 3.575286315824234 0.585158905922686 21 19 22
1.9178208731785036 3.5448366582756456 0.5819417647523508 31 31 33
1.8143684376872966 3.3911223248493267 0.6324991764507131 23 21 24
1.8317816952207793 3.3758224366487832 0.6300908689281628 27 25 28
1.8396472778410011 3.347693596832532 0.63214736962561 35 35 37
1.8564389858084136 3.33257660166165 0.6298788511959161 35 35 37
1.9066854788414127 3.30117866116224 0.6210400938751423 33 33 35
1.9144924297628663 3.28696400961467 0.6210503553252935 29 29 31
1.6266013639385388 3.0984483735118116 0.7262887597137508 28 27 32
1.6687314095046393 3.0822095981200306 0.7173828738782801 33 32 38
1.7618805411448666 3.022046118401513 0.7012871576163451 43 43 45
1.7076122581831217 2.9966089296143013 0.7196283640965624 41 40 45
1.6951259934878218 2.9831722339822115 0.7249722775184053 34 33 38
1.6873871474337108 2.9695132675646234 0.7290743985931252 30 29 33
1.6651079094414334 2.956356921817897 0.7370062813546543 32 32 34
1.6487587778138957 2.9429203503492185 0.7433873963199131 35 35 37
1.5940628301309923 2.930693678771659 0.7598857317390715 37 37 39
1.6002033709461991 2.916379267966612 0.7603582252360576 38 38 40
1.5957690158333313 2.9023989245917816 0.7636206818776707 38 38 40
1.540739858521993 2.889817312656226 0.7802610871514883 38 38 40
1.5116440443962567 2.8763700376976478 0.7900664051078874 38 38 41
1.5258718427685516 2.8617605368755745 0.7884111160614219 39 38 43
1.4856793361128795 2.8484449410495905 0.8011764974642871 40 39 44
1.4817877639540957 2.834224432185438 0.8043288020334525 42 41 46
1.5147474076616922 2.8192713211756555 0.7976947382655053 42 42 45
1.7355227447542116 3.706420552601841 0.6216165314090647 70 69 71
1.8172300368658045 3.682238862102942 0.6031155670329666 44 44 46
1.792733388808422 3.3677986722789575 0.6563317824690025 21 19 22
1.8050586141841922 3.339161935434384 0.6572439670818951 22 22 24
1.6528893450000406 3.099258139410442 0.7339231381808369 26 25 29
1.6426383438806362 3.0857550012020543 0.7386947912733588 32 31 37
1.6798197841660207 3.069843396032925 0.7310030307115629 35 35 39
1.626891794043787 3.058415895864306 0.74700208670254 38 38 40
1.6987709363172168 3.040983314981688 0.7301574181623334 40 40 42
1.7410031788300384 3.025127127550365 0.721092285922352 43 43 45
1.713702450043437 2.9984959479309357 0.7324176072154732 42 41 46
1.694904361641694 2.9853175151584423 0.7394512995401654 35 34 39
1.6899841289734114 2.9715448321331794 0.7428220644583357 30 29 33
1.6901983802543423 2.957567912610547 0.7448353164246964 31 31 33
1.655345257893653 2.9448163147903856 0.7561452046361725 33 33 35
1.6027473452722756 2.9325374055961864 0.7721812109081878 36 36 38
1.5932406298948558 2.9187222111990487 0.7767979360549657 39 38 42
1.596217126520125 2.90450240055807 0.7781005852614716 39 38 43
1.5315114711882618 2.8922005926767143 0.7974125345228438 39 38 43
1.5828769006755468 2.8766048641478963 0.7858402364735397 39 38 43
1.5560419216032493 2.863123338187842 0.7950910991240125 39 38 43
1.4934496342987575 2.850379249718655 0.8138973742909987 41 40 45
1.5064485350583579 2.821527169724668 0.8146593845676291 44 43 46
0.882539679093405 2.389553642988968 1.047304754150966 38 37 42
1.624727275984864 3.7935856157165153 0.6535310665831638 166 166 164
1.6821800035754442 3.1138870346359115 0.7386152849503879 18 18 20
1.6548314934652977 3.101363312769322 0.7479115139316039 26 26 28
1.6500631980760474 3.0875735628332466 0.7512520992753513 31 31 33
1.6761594773509199 3.0722149590547887 0.7464280455447421 34 34 36
1.6238304154357404 3.0607585878680656 0.7623624000219182 35 35 37
1.6901762824922146 3.043554362484354 0.7468614037237218 38 38 40
1.7257638845323626 3.0279660624531792 0.7394891487245054 42 42 44
1.7191028082728645 3.000410999211129 0.7453843776937668 44 43 48
1.687881906263534 2.9877387050589554 0.7557561556537866 37 37 40
1.6937027394364295 2.9735341068862975 0.7562773025768998 30 30 32
1.6966644504970372 2.9594546916294466 0.7575577614363616 30 30 32
1.613793181085478 2.9342999134906664 0.7838312915060123 35 35 37
1.6102858884021578 2.9203073834676885 0.7868588519352662 39 38 42
1.592875849943765 2.9067220437412216 0.7936084977914376 39 38 43
1.6072004114556313 2.8921758477559756 0.7918667123606595 39 38 43
1.6182212663818345 2.8777664815196404 0.7910034680236517 38 37 42
1.5975539559367102 2.864188947609284 0.7986381400843348 39 38 43
1.5496214876578285 2.851179820247014 0.8136064256794169 41 40 45
0.8816925838139713 2.3915425512151414 1.063432277971247 46 45 50
1.6261692950151838 3.795976601856759 0.6676823252506121 165 165 163
1.7712745028035455 3.6930129548132635 0.6432022949469607 53 53 55
1.9710554380086864 3.235167905751905 0.6563316433949071 11 11 13
1.953129889158383 3.2229218682146157 0.6630548756562875 11 11 13
1.6593099835958536 3.0892953242114114 0.763314206963075 29 29 31
1.6828040309226142 3.0740695503579434 0.7591365155336738 33 33 35
1.5996054539098945 3.064140052006558 0.7833910065112345 35 35 37
1.6880821215892103 3.0458253071876418 0.7618760314920866 37 37 39
1.6908300042205016 3.031711898363829 0.763214694303366 41 41 43
1.725074552051857 3.002301443772072 0.7581947732348646 44 43 49
1.6829825889323646 2.990079856481011 0.7715321612186434 40 40 42
1.66330055933951 2.9768473869736516 0.7788825487759365 31 31 33
1.7009998165129896 2.9614194882812646 0.7708448230503437 29 29 31
1.6971143469641596 2.9475919233430066 0.7739576233082608 30 30 32
1.6155130111202676 2.936373744697393 0.7979656631482468 33 33 35
1.615208912757172 2.89405703454826 0.8043188988884693 39 38 43
1.6285451960321418 2.8795883287831856 0.8028106566816295 40 39 44
1.632597351783683 2.8653998567740953 0.803803276698214 40 39 44
1.5473159950109616 2.8533370255987665 0.8289442107609284 41 40 45
1.4420533498478938 2.7838306913907744 0.8680681199901659 45 45 47
0.5530103200629555 2.1141102348550835 1.2107562142258532 31 30 35
1.7763480436603731 3.694870968723852 0.6561830255316704 57 57 59
1.9789851736221653 3.2368000539942314 0.6681989322507671 11 11 13
1.9664075110661292 3.224185031927959 0.6735346540783425 10 10 12
1.6785443190244953 3.048453045218482 0.7789126343447416 37 37 39
1.68724962399313 3.034042594925983 0.7786482911290112 40 40 42
1.7044110345329746 2.991353355901285 0.7802430094812829 41 41 43
1.6551664328947726 2.979309012130906 0.7956004295131232 34 34 36
1.6603624950147362 2.965064754822271 0.7962786911165947 28 28 30
1.7033323117271522 2.949490431388274 0.786742700948855 29 29 31
1.6196398947563893 2.9242578592702078 0.8135486841894493 36 35 40
1.5939728262732817 2.8684793763002907 0.8288872034367072 40 39 44
1.5393704420122738 2.8556323515388464 0.8458402756833847 41 40 45
0.8440184485519049 2.3945090002441014 1.1058148259187632 57 56 61
1.8117236211209864 3.706685620547296 0.6592802331068959 55 55 57
1.7813186720438066 3.6967416291139643 0.6691879502360921 40 40 42
1.9619091802799424 3.253801366048183 0.6847129533080218 13 13 15
1.961254748205775 3.2403040658429436 0.6868941293966122 11 11 13
1.5976602559467825 3.0686498328411282 0.813188022225012 35 35 37
1.6232376970529279 3.053272950849531 0.8083707858346907 37 37 39
1.6519463336990352 3.0378383378362614 0.8026934905435986 39 39 41
1.703946817819613 3.021467398131618 0.7906936191506168 44 43 49
1.721377390516722 2.9928009805362814 0.7901052236536514 43 43 46
1.663271044054192 2.981138801372428 0.8079520194275025 36 36 39
1.6495656050083316 2.967610486871346 0.8137582152539651 29 29 31
1.5978836649344892 2.927093741588938 0.8340976641476012 34 33 38
1.5204332031486971 2.8581992026163463 0.8657896368319307 41 40 45
1.4120118413962197 2.774027344637729 0.9083364602688693 47 47 50
1.1880181959984903 2.658443702195043 0.9875973788728992 54 54 55
1.1546204617377205 2.643566012236185 0.9990662422451643 55 55 56
1.7901838429718744 3.6981161361980823 0.6811769394533365 35 35 37
1.8044505616301545 3.6824750782436113 0.6795109057323969 26 26 28
1.9509167847446638 3.2568492052502824 0.7016720346396027 12 12 14
1.9697848162214078 3.2418952507953787 0.6986195689020173 11 11 13
1.596875353912491 3.070899694759623 0.8280640089157735 34 34 36
1.6699644792603197 3.0532266986160286 0.8102763307400189 37 37 39
1.652226624527132 3.0400068980617765 0.8171869812829193 39 39 41
1.6998848005112528 3.0238091445097584 0.8062808382931399 44 43 48
1.745452966257807 2.9939488360961355 0.7979822060954387 46 45 50
1.6670663160508006 2.9831372033391865 0.8214686761344905 40 40 43
1.6370923954956558 2.9702275468649684 0.8317495752233003 29 29 31
1.7172857007191467 2.9532297588977223 0.8118784503994597 26 26 28
1.5830204105923507 2.9155308438636585 0.8549488473268002 37 36 40
1.410679869446261 2.776143798901573 0.9237137884968155 47 46 51
1.3603282866686133 2.7477447925180924 0.941978563259575 50 49 54
1.2206501451714042 2.6752997145987383 0.9917075469692919 57 57 59
1.1611580492161329 2.6605534743489647 1.0105017170692672 58 58 59
1.1367990559021095 2.645638638831877 1.0195120329860532 58 58 58
1.679493982205408 3.784963998233477 0.7140806436295946 84 82 84
1.7111678767528697 3.766663731276699 0.7078918862308203 64 64 66
1.8274930774537954 3.695858175805923 0.6856958403767841 34 34 36
1.92600792774265 3.5606521118926007 0.6780439780284139 35 35 37
1.9331351619292594 3.546237990793871 0.6781766037567399 33 33 35
1.974565252620633 3.243759982253154 0.7113428577984994 12 12 14
1.947800413169937 3.2321461353510776 0.7205835688642568 10 10 12
1.6187079993418876 3.0861583388686715 0.834676737526646 29 29 31
1.5971161423380282 3.073101096198592 0.8426777738971483 34 34 36
1.679929319639819 3.0549324362220402 0.8221005483533373 36 36 38
1.6410970851104403 3.0427090412745867 0.8348222169219676 38 38 40
1.683886710510385 3.026691083713165 0.8251721057651906 41 40 45
1.6857107748734954 2.9845445836677924 0.8309028992634927 43 42 46
1.6290112278266835 2.9726858148913204 0.8485908619631757 31 31 33
1.6261211239949769 2.9586746118650775 0.8514784456114524 24 24 26
1.4854403069901447 2.8489400837310574 0.9072619222342098 41 40 45
1.4563091637014791 2.8352027675998364 0.9174820679412838 42 42 45
1.476913129480271 2.8203937587743533 0.9138865354486023 43 43 45
1.3983286042551952 2.7494182066622765 0.946480861799309 51 50 55
1.1929089838614964 2.6774659421209104 1.0148576426218592 59 59 61
1.2101692534795596 2.662600905208779 1.012209912174033 61 61 62
1.8743670244767374 3.5414322209942743 0.709932193248342 32 32 34
1.9046771324667797 3.30579440017068 0.7362654178009136 25 25 27
1.9337272850267202 3.2898375448320403 0.7304146407093655 14 14 16
1.9246320069559384 3.2632951293964156 0.7369180729645043 15 15 17
1.9328155899624249 3.2490609369513543 0.7367124776350771 13 13 15
1.934399183817739 3.235330903893663 0.7382984545887205 12 12 14
1.9116458107090462 3.223321650302923 0.7465112018564459 10 10 12
1.6261934980628783 3.087987419834672 0.8472737445470553 27 27 29
1.624971768265571 3.073918103752122 0.849703227327471 34 34 36
1.6751972097823606 3.0573484315894084 0.8379555770912774 36 36 38
1.6342729166898669 3.045217701044692 0.8513244321900082 37 37 39
1.6758315625764513 3.029225082462138 0.8419419788838081 40 39 44
1.7254647140200965 3.013022117422873 0.8303074894574002 45 44 49
1.6981719818029926 2.9861924612331596 0.8419990862824352 45 44 48
1.6354485571638517 2.974593115871151 0.8614532779245714 35 35 37
1.6206538531379047 2.9610229399879517 0.8676467978966202 25 25 27
1.7108689890380302 2.9437258620020654 0.8446991783355658 25 25 27
1.4542158852241451 2.808536119417381 0.9372968885002682 44 44 46
1.470798334058475 2.7938469390444145 0.9347837766237399 43 43 46
1.1997779780314466 2.6795457252545334 1.0283499375471608 63 63 65
0.7875526441739585 2.292345903638365 1.202267176317632 45 45 47
1.8041621000521748 3.7176887671605954 0.7183495804553237 54 52 55
1.9440534946150818 3.2912727408588967 0.7417019236778404 36 36 38
1.97002559649884 3.275654889608328 0.7366246641080454 33 33 35
1.96998422957495 3.2620974302580232 0.7386445206917152 16 16 18
1.953773975320503 3.2497386841952896 0.7450877854297564 13 13 15
1.9525564841554672 3.2362392589981015 0.7474337196637699 12 12 14
1.92323154153911 3.224724613248341 0.7574838253104111 11 11 13
1.6257976749892995 3.0760871500193607 0.8641361656802731 32 33 35
1.6257103739499712 3.061952741765236 0.8662545488373099 36 36 38
1.6431217824678932 3.0469941024287053 0.863515647599986 37 36 38
1.6408808033256426 3.0329869161240306 0.866228029579952 40 39 42
1.7147627867307413 3.0156443068225314 0.8477731803529585 45 44 49
1.7209143081045517 2.9874214318880625 0.8502030041463046 47 46 48
1.6555311868868656 2.975971981769769 0.870504032421016 40 39 41
1.6263076124745819 2.962965308001344 0.8807462872957023 28 27 29
1.626357235881509 2.948827564745474 0.8828262017184545 22 21 23
1.4312688019984963 2.8399937020859753 0.9544599364144688 39 38 42
1.4190884605797227 2.796807627975292 0.964322504714858 44 43 48
1.207081778641483 2.6964627203964295 1.0395130766824878 64 65 64
0.821300968981441 2.326624321842764 1.2040686296727863 47 46 50
0.7467093520990669 2.277132756095598 1.2326246631759925 44 43 47
0.4846335772906173 2.057797921303227 1.339687095785942 166 165 166
0.48419332428354384 2.0417202511607098 1.3421937430501334 170 169 170
1.788771245893665 3.7222071565465327 0.7367770244577379 68 66 69
1.8798764516279838 3.3260678670428345 0.7693606286525856 22 21 23
1.9384038269506536 3.3075961156293094 0.7553372135608758 36 36 38
1.977431670040994 3.2502063475205594 0.7526615370840009 13 13 15
1.9586404524977978 3.238017916581289 0.7598475816450836 13 13 15
1.636416181295591 3.0636329386479275 0.8779438835381372 36 35 38
1.6307755799494636 3.0497720210961474 0.8816119764855117 37 35 38
1.627127759977568 3.0358012497916667 0.8847257095181313 38 38 40
1.6895399459840426 3.018913017811835 0.8693553522275028 43 42 47
1.709199400790161 3.0040440215367132 0.8659281142691049 48 47 51
1.7455693822612106 2.9885632577984516 0.857806448194764 48 47 49
1.6599080556435921 2.9779538944013515 0.8839067818764643 46 44 47
1.623669524442938 2.951067667473618 0.8982657033886372 22 20 23
1.7068475307758038 2.934105164842013 0.8769600826831614 20 20 22
0.7850051944143774 2.3895624813439693 1.2215795438816097 49 50 54
0.8508521209686647 2.376006117976544 1.2047321766048895 47 48 52
0.7308408728448443 2.2628386104654736 1.2558582577063775 43 42 47
0.4976610469850622 2.0605503346076475 1.352589513121015 169 169 169
1.70109281979938 3.778285599446406 0.768468567075255 73 75 74
1.852991579371515 3.3581390912499947 0.7869235597418953 32 30 33
1.8623153616639332 3.343573870700907 0.7863940819093901 33 31 34
1.914493194509562 3.3254773095733454 0.7740395047688329 47 46 48
1.9543522803708044 3.3085609184514873 0.7650597041212484 42 42 44
1.98239799500881 3.2927218633959283 0.759324289207215 29 29 31
2.0071228485938457 3.2772371764922825 0.7544932749692339 25 25 27
1.9904236007180907 3.2514598590817974 0.7631226552678807 14 14 16
1.9604934465185175 3.240104424837821 0.7734285515785981 13 13 15
1.6421459854667082 3.065555237299063 0.8910087740744418 35 35 37
1.6199058363810939 3.0524884606987674 0.8993522993252636 38 36 39
1.6258654521779574 3.0380513921369325 0.8997732028519474 37 37 39
1.6592985425323112 3.022419236757748 0.892454812224388 41 40 45
1.6908578232746945 3.006980119750181 0.8856477575837172 46 46 50
1.6732796295008323 2.979583538506298 0.8947702122439134 45 43 46
1.6371779694091704 2.9385993136191746 0.9112423966929819 20 20 22
1.600418013757165 2.9256581912492288 0.9237510914684468 21 21 23
1.3272847628290327 2.7879585857645437 1.0228457521488716 46 45 50
1.3571804302744495 2.743686449380762 1.0207882150724055 47 45 48
1.2962456587923346 2.729616135451876 1.0404299437255191 60 57 57
0.7817249852039939 2.3759456538594272 1.241063876235446 44 45 49
0.811342704230136 2.361319109051569 1.2346959271429792 46 45 50
0.7919803555478452 2.329599462046406 1.2449727177356886 45 44 49
0.7109410270905085 2.2639945154898657 1.2780396908748046 44 43 48
1.709638354435755 3.779698045059613 0.7806882228930149 71 73 72
1.966170437614163 3.608878120437341 0.7316064574968084 31 31 33
1.9053253463295061 3.355908313139097 0.7867104031345298 13 11 14
1.9622009991594642 3.310181200046424 0.7769917071821348 18 18 20
1.9835615089411194 3.2948753708455514 0.7730651177273092 16 16 18
1.9556683092249298 3.2698943653510515 0.7848519107802159 16 16 18
1.9655359257024618 3.2555481551868253 0.7841154491609454 14 14 16
1.9724638365732567 3.241450963661575 0.7841944456271812 13 13 15
1.64787352020271 3.0674769804468554 0.9040698600685688 34 33 36
1.6275864192188543 3.0543246507689457 0.9118996263114452 38 36 39
1.629747586957531 3.0400668933262183 0.9133844662619208 37 37 39
1.641755242769537 3.0253784787153997 0.9120782010460089 38 38 42
1.6816981413404148 3.0095349919102974 0.9028434732509458 43 42 46
1.6822930893972692 2.9813803959961986 0.9068404195321562 45 43 46
1.6318894255389034 2.9409198254446696 0.9274462615270859 19 19 21
1.651864011285624 2.926118646452266 0.9238467714044531 20 20 22
1.3456241226428698 2.760540753492734 1.0371582935680537 47 46 51
1.2840450847471252 2.7465675426976333 1.0570817710494371 42 43 46
1.2579331284968094 2.732067898275367 1.0667999157662507 40 41 41
0.761485625979313 2.346157177047557 1.2678893878971278 46 45 50
