ply
format ascii 1.0
element vertex 719
property float x
property float y
property float z
property uchar diffuse_red
property uchar diffuse_green
property uchar diffuse_blue
end_header
0.5848785860534118 2.899999864160904 3.618235770485102 44 43 48
0.5779500087486339 2.9122087032879302 3.615173073986285 44 43 48
1.5166401844238069 4.015575059395231 3.8310741683497813 43 42 47
0.6834715451821975 3.8650971075793303 3.57961517934532 45 44 49
0.9398825533287316 3.9388400783372868 3.655022554560275 46 45 50
1.3912707025849576 4.103450276421746 3.785258972944183 50 50 52
1.4435540510224425 4.130794996312785 3.7997464471857185 51 51 53
0.40198448101109086 3.915180377751226 3.4873746997188393 54 54 56
0.5061322744197373 3.9542125984098893 3.517347921365264 55 55 57
0.7047794979603664 4.0174883174078575 3.5753240796000507 56 56 58
0.2126418567169991 3.9182554547767543 3.427538758546289 58 58 60
0.5013385213388726 4.0052827288101875 3.5121522964732828 60 60 62
0.7582568920570424 4.085057082674643 3.587284058219115 61 61 63
0.956708296045047 4.150439864596515 3.6450464719836164 61 61 63
0.6323178335795576 4.078971058836342 3.548071809436433 63 63 65
0.6524267692163656 4.0976043237557 3.553058070038583 66 66 68
0.7168522537557237 4.128120289261248 3.5711395549784566 66 66 68
0.7674985459943066 4.155165149149207 3.585133251201219 67 67 69
0.8102971521240571 4.180268922866792 3.596796236950341 71 71 72
0.8633328861918921 4.208304344211524 3.6114707416677088 74 74 74
0.7356226973954854 4.187108571171549 3.572791504063625 77 77 77
0.7534401625079268 4.20551406511958 3.5770727426869535 81 81 81
0.9494079034312898 4.273306070346321 3.633879280644189 87 86 86
1.009003829142641 4.303786478479146 3.65044275955885 93 91 91
1.0836367699846396 4.338690570909075 3.671421290378549 107 106 105
1.152320220004312 4.372177335365223 3.6906289462909436 144 142 142
1.2079507076311131 4.4022003011658954 3.705976937441681 166 164 165
1.26020699712481 4.431455102752867 3.720318019429521 177 176 177
1.3035737870699098 4.4583401951064525 3.73203131771278 181 182 184
1.179423128115786 4.4369740403787405 3.69448508620321 184 185 185
1.205016013071773 4.458708808679183 3.7009740807803575 187 187 187
1.2677208488430898 4.491386832997104 3.718357763492861 189 189 189
1.475321518023343 4.566903969354931 3.778269282621468 190 190 190
1.538292074662622 4.600351011079311 3.7956811178446737 191 191 191
1.423498216847569 4.581116741932473 3.760926965093078 192 192 192
1.390973966723319 4.586113805074354 3.7503261029071595 193 193 193
0.898903367132969 4.480313998842671 3.6030359024628176 195 195 195
0.9239440666084565 4.501818740084054 3.6093676467697753 195 195 195
0.9789088720452475 4.532629297810917 3.6244492001357482 196 196 196
1.753053050102969 1.6080089323089042 4.094505125090621 204 204 206
1.8543227843016816 1.6178244068170422 4.125856906510986 204 204 204
1.8423819694839827 1.6332330886015483 4.120966142613263 204 204 204
1.7080410159668855 1.6540820724237795 4.076934678846812 204 204 204
1.7942592926313263 1.6649847776323663 4.1034432105017045 204 204 204
1.359460023811596 1.6977591942888708 3.9634352080175175 203 203 203
1.3637481595219012 1.7116325552375056 3.96379275370796 203 203 203
0.08616173297845281 1.7743603233550373 3.5548221503069337 203 203 203
0.014188345241322287 1.788914820089713 3.5309882647653144 202 202 202
0.0648785491798688 1.798967004954795 3.5463108728598196 202 202 202
0.04732124170016078 1.8114497951789517 3.539852971235166 201 201 201
0.018225059417540324 1.8242393811016882 3.529720060650314 201 201 201
-0.008542899424181238 1.8368651663643512 3.520336009058825 201 201 201
-0.04583292576715986 1.849700046792282 3.507605884252335 201 201 201
-0.047112584610645214 1.8614606116003019 3.506353102544294 201 201 201
1.174402714588045 1.8429113601768552 3.894388810196096 201 201 201
1.1970125049697304 1.8561524373274292 3.9005920700504926 201 201 201
1.1399869375957508 1.8711801264364798 3.881456153595705 200 200 200
1.160154029024473 1.884493057674661 3.8868809419166825 200 200 200
1.1630576185239705 1.898188800264525 3.886812980061852 199 199 199
1.1053958813015226 1.9128935560248461 3.8674989457772577 199 199 199
1.1282499950420752 1.9262181892696317 3.8737735292569786 200 200 200
1.1381492057959537 1.9397917517042464 3.8759289984329715 199 199 199
1.164583711321277 1.9532117287868598 3.8833301649683336 199 199 199
1.5400873658164824 1.9633075346605993 4.001476785347228 199 199 199
1.5738226209240547 1.9774326552288772 4.011138346576539 198 198 198
1.5576461579022598 1.9919950016949852 4.004967693014194 198 198 198
1.5824401379516373 2.0063105408819393 4.011784963341209 198 198 198
1.57931080792615 2.020798532917337 4.009750038635355 197 197 197
1.6339963837046985 2.0351958888049184 4.026024282812046 196 196 196
1.6342773302198004 2.0497661530129956 4.025063029452587 196 196 196
1.6257599707409933 2.064323534376077 4.021317398865068 196 196 196
1.6351839897479434 2.0789195130003395 4.023248741613227 195 195 195
1.678768879491134 2.0937291210923497 4.0359790944671 195 195 195
1.3814965565751771 2.106329506146734 3.940962505688535 195 195 195
1.4020007302686133 2.120668303214846 3.946420062929453 195 195 195
1.4968556176512093 2.1358414884498393 3.9753549049761405 194 194 194
1.3085532254728511 2.147955554709488 3.914870302841898 194 194 194
1.374528196887702 2.1629024839213242 3.934678852375302 194 194 194
1.2970355301761884 2.1758807644011804 3.909211322627264 193 193 193
1.0865263218411416 2.1863473197988625 3.8418153919618603 193 193 193
1.043044487600501 2.199223337531025 3.8271221430954876 193 193 193
1.4107815814560936 2.2203052505374243 3.9420182252955995 192 192 192
1.2425283905761337 2.230842057165428 3.887994343713019 191 191 191
1.0555774643685008 2.2403758486384837 3.828123559844098 190 190 190
1.0327855580725747 2.2534437600767747 3.8199663514796294 190 190 190
0.9969579067730681 2.266086030485314 3.807713057990912 190 190 190
0.9677583454016938 2.2788010333696724 3.797552796167271 189 189 189
1.3638888985182487 2.3043318943626656 3.9211168092493165 188 188 188
1.2387886362289091 2.314497777580461 3.8807807134880425 187 187 187
1.2368507653541743 2.328398604833244 3.8791652941152144 186 186 186
1.256029123346126 2.3430429679065927 3.8841811094083734 184 184 184
1.258755142236215 2.3571447037688094 3.8840276703743117 182 182 182
1.2642047812170452 2.3713639257482715 3.8847279876742213 183 183 183
1.2779594986263454 2.385939955365532 3.8880317503282043 181 181 181
1.2861137217159344 2.400329212982526 3.8895760100280237 179 179 179
1.2138693421660993 2.41122898914406 3.865919760234743 176 176 176
1.2217747133270065 2.425532348090853 3.867391431534334 170 170 170
1.34826240411349 2.445454699705813 3.9059980541371098 161 163 162
1.3125184630348485 2.4578851888631226 3.8937865257799156 143 145 144
1.2492529148482974 2.468808635039258 3.8729710251496603 109 109 109
1.2009419440585356 2.4803025668288465 3.8568486200121543 90 88 89
1.1516165803604976 2.4915822618985004 3.8404205272300653 82 80 81
1.1020040710254295 2.5026829470190335 3.82391443455655 75 76 76
1.0668874957074375 2.5144490475915138 3.811949400942821 73 75 74
0.9273227685368788 2.519947324173381 3.767370677765952 71 73 72
0.8556071263988709 2.529089521543014 3.74400849445571 69 71 70
0.7862317878930913 2.5381388093960546 3.7213938847190415 67 69 68
0.8166896540373055 2.5533418693360272 3.7299402176534078 67 69 68
0.7829396173874579 2.564435789916924 3.7184562425283825 67 67 67
0.710623157499437 2.5728224518091616 3.69495831394155 67 67 67
0.7575246351531533 2.5891947284725116 3.7086259750536703 65 65 65
1.0062865452039969 2.6199968683018766 3.785157117693835 63 63 65
1.2266723910190103 2.649586228234171 3.8527925801836846 62 62 64
1.401623392354523 2.676556265092375 3.906233394539031 61 61 64
1.6174510694876452 2.707215035497474 3.972348783248533 60 59 63
1.8025382024999685 2.7362241518742607 4.028851450356564 59 59 59
0.7836315487889745 2.6838830292208047 3.7100657881859354 58 58 58
0.7720442952904281 2.6962074678521057 3.705509257881624 57 57 57
0.7033464934147885 2.703688133773883 3.683222200831684 57 57 57
0.5245025613370498 2.7014820549431615 3.626764056814778 56 56 56
0.5467520510720735 2.7162809713172638 3.632740969512108 56 56 56
0.5357867855331622 2.7281935260455104 3.6284110314883424 55 54 59
0.5867797344338421 2.7457054145968325 3.643291800991754 54 53 58
0.5280736198555341 2.7532321187005264 3.624164523659169 54 53 58
0.5063592040081474 2.7640516640631314 3.6165104770484033 54 53 58
0.5233797319793925 2.7785188346188363 3.620855953355804 52 51 56
0.5292526840044139 2.7919571629581394 3.621746565260964 51 50 55
0.5447344618474704 2.8063728327380586 3.625608626946895 49 48 53
0.49081175611228334 2.813828966108721 3.6080007341112137 48 47 52
0.5521790117617125 2.8329522776341687 3.6260495807230466 47 46 51
0.5868659663408853 2.849499027662601 3.635837878410144 46 45 50
0.550926761357768 2.8586694451403747 3.6237995137627705 46 45 50
0.5532581782184829 2.871847689866778 3.623587717657818 46 45 50
0.5738837910642778 2.8870401071454537 3.629022192134935 45 44 49
0.571499475366693 2.8997458584663036 3.6273515789147734 44 43 48
0.552410537940099 2.9105600347398632 3.620529074778827 44 43 48
0.6658485648293253 3.8623811485531503 3.587835260253152 45 44 49
0.9314884482268799 3.9383179275348215 3.666456304823587 46 45 50
0.366424839472583 3.843566339640673 3.4944019355098925 50 50 52
0.3457307159132508 3.851364831087637 3.4872886369458684 50 50 52
0.34320177735458446 3.8635326213883676 3.485611015115941 51 51 53
0.3861378671297513 3.886879886509781 3.497520599413296 52 52 54
0.3626019447181913 3.89390930615229 3.4895630972150764 52 52 54
0.40695082594767573 3.91779535666325 3.501881098592279 54 54 56
0.5100296210835483 3.9565889168875517 3.5317169014549297 55 55 57
0.6666850379634834 4.009290012675217 3.5775111888296123 56 56 58
0.6645873453639798 4.048818462127151 3.573997990113999 59 59 61
0.735306719865768 4.0805496823228555 3.5940987136522557 61 61 63
0.8412467423624671 4.121738308404227 3.6246676725216984 61 61 63
0.5779980782594372 4.066107764554642 3.5453399934018726 64 64 66
0.5674446918443661 4.0765287972047055 3.5412479508887436 66 66 68
0.5702328735643507 4.0904742397413045 3.5411254562139987 65 65 67
0.7774723427574377 4.159310340395309 3.601770310314214 68 68 70
0.8206783670249553 4.1845516544227195 3.6136288295860592 71 71 72
0.9647033983442228 4.237354275106193 3.655417360685766 74 74 74
0.7412132904840838 4.190106985867528 3.5880719184787306 77 77 77
0.8086164472737827 4.222179646247536 3.6070982068736357 81 81 81
0.9615249036570348 4.278176673727075 3.6514687441670164 87 86 85
1.0126801243707049 4.306338529355126 3.66563325772766 94 93 91
1.0635932926322131 4.334612022696722 3.6797130974191434 114 113 111
1.1399493955093447 4.37024494956389 3.7013170301013414 150 149 147
1.1847887490582503 4.39719527258356 3.7135694355560513 168 166 167
1.2284059398438938 4.423954323197028 3.7254487238290723 177 177 178
1.2786586806644529 4.4527742072422205 3.7392801073774966 181 182 184
1.144137854262227 4.428345351806982 3.6984552303734852 185 185 186
1.1254593075812598 4.43714918645755 3.6919075459691935 188 188 188
1.220103210721984 4.47904932044725 3.7188491749004453 189 189 189
1.4869742826065235 4.571971170212187 3.7966357329431366 191 191 191
1.6432219462086863 4.633068419383407 3.8416957599058494 192 192 192
1.6213368469710145 4.641663463985558 3.8341480167977733 193 193 193
1.6311537289740061 4.659681221200781 3.835957094878223 194 194 194
0.3197025670553294 4.29253168282887 3.4472504671879602 194 194 194
0.2727981286823611 4.291071438144203 3.4325070414733143 195 195 195
1.7002690127449496 1.6556203107535348 4.08949662036091 204 204 204
1.3673095960753439 1.6845275868231597 3.9814352902170054 204 204 204
1.2789907089442973 1.702230389770829 3.9520493059609163 204 204 204
0.2151050137408812 1.770444952553171 3.608505532637404 203 203 203
0.08361162975196079 1.7873664854561269 3.5654333664871176 203 203 203
0.1759316139360898 1.7961011589942197 3.5941900850120216 203 203 203
0.1416491707467546 1.8093196870350985 3.5823266156251963 202 202 202
0.12054032466543785 1.8220141073112144 3.5746940154190088 202 202 202
0.10952686186872018 1.8343414154149604 3.5703011914132485 202 202 202
0.03676906309119471 1.8483619292111904 3.546133320281273 202 202 202
0.03501675758633649 1.8602741977411614 3.5447181884374572 201 201 201
0.028562323015322133 1.8722989036940851 3.5417982795251 201 201 201
1.1816058160928478 1.8576577766311118 3.9098650223820477 201 201 201
1.1841017004402627 1.8713853878579314 3.9096714289235095 201 201 201
1.1537255195172291 1.8857699718731933 3.8989673943972067 201 201 201
1.1580601747671935 1.8994318981526512 3.899363808081179 200 200 200
1.1267548976475164 1.9136924837832832 3.888372967531466 200 200 200
1.144643320233859 1.9271308854203875 3.893099624137708 200 200 200
1.1486696399759826 1.9408116262822577 3.8933965406770326 200 200 200
1.1742606313690351 1.9542646409014868 3.9005738679538746 199 199 199
1.6010924334495786 1.9639368796330532 4.035737990834092 199 199 199
1.5770396362893226 1.9786316891835407 4.0270243568823165 199 199 199
1.5149650004054982 1.9934888175906824 4.006196714712004 199 199 199
1.576099710985201 2.0075705252446823 4.024642334111768 199 199 199
1.6121911056821205 2.0219335448155875 4.035096435896874 198 198 198
1.6152765396756816 2.036462766379925 4.0350328005496445 197 197 197
1.7495539944050216 2.0510545140526326 4.076722996150375 197 197 197
1.6195432041447086 2.0655570023544376 4.034296847011092 196 196 196
1.3109819468503017 2.0789640852374944 3.935117046098407 196 196 196
1.6254079413017863 2.1384186218220247 4.030919443152429 195 195 195
1.333359814988182 2.149469705446873 3.9371653314334867 194 194 194
1.2921682352583643 2.162996213557749 3.9230805220002627 194 194 194
1.3632986318381142 2.1781203291770086 3.944632735151973 194 194 194
1.303347938492478 2.1912439602401186 3.9246059092723065 194 194 194
1.0399736458027369 2.200350650707996 3.840118605191687 193 193 193
1.2735783323411258 2.218740523565442 3.913151224852437 193 193 193
1.237629086052904 2.231952238370363 3.9007577035460983 191 191 191
1.2409575044005479 2.245981076158333 3.9008074246000217 191 191 191
0.9941157673847631 2.2536510017825906 3.8216858315576605 191 191 191
1.0358046757462287 2.268329991002367 3.8338988765303132 190 190 190
0.9493779253749919 2.2794583649778852 3.805588346389586 190 190 190
1.4052880302160138 2.306842536182634 3.9487332738300096 189 189 189
1.252861115191764 2.3161822820173126 3.899543670860102 188 188 188
1.218278088760308 2.329003429218632 3.8876131271389442 187 187 187
1.2344343379414686 2.343514366893458 3.891711239364788 179 179 179
1.2511545506184794 2.358103316165998 3.8959832459782917 181 181 181
1.2582778925621556 2.372377969103672 3.8972231963270647 183 183 183
1.2460621300670192 2.3858947766124445 3.89236206805528 182 182 182
1.2763794250857194 2.4011703467892396 3.9009125978683463 180 180 180
1.1959655039726518 2.411686376435445 3.874560020101969 178 178 178
1.2003289275277216 2.425801584954957 3.87493296616011 171 171 171
1.3343335179224582 2.446064658583162 3.9161281209400993 164 164 163
1.2962882538639546 2.4583559811448517 3.9031336829550796 150 151 149
1.2585288291217127 2.4705367518656978 3.890238184294056 121 121 119
1.2066357925153748 2.481853813128723 3.8729061312305504 88 87 87
1.166055811269318 2.493610230825511 3.8591433937527495 82 82 82
1.1323444795649245 2.5056155078162017 3.8475490313538256 76 76 76
1.0421224491771022 2.514267910420572 3.818208671841385 74 75 74
0.9764868946454729 2.5240715294533485 3.796611313208749 70 72 71
0.8729199534029488 2.5313530879021906 3.763121942827313 69 71 70
0.8103618920855183 2.5408486473749323 3.742526320490764 67 69 68
0.8539686436761197 2.556942076899929 3.75524801066745 66 68 67
0.807622916253455 2.567267098990482 3.7397530634293434 67 67 67
0.7374417399299037 2.5758304596883628 3.716798102877173 66 66 66
0.7690085406871452 2.591196761803343 3.7257398191743056 65 65 65
0.6443291610868521 2.5956031882439934 3.6857373088753445 64 64 65
1.2334251598271977 2.6513606188159793 3.8692330776566886 62 62 64
1.4727706176854234 2.6831503193638184 3.9431285410891066 61 61 64
1.6778672496254945 2.7131503530908576 4.006251436030891 60 59 63
0.743987527081284 2.695116125638511 3.710296150206779 58 58 58
0.7040952653354139 2.7049701244140514 3.696889238170656 57 57 57
0.664482151832392 2.7147161459332674 3.683578950391129 56 56 56
0.5450364462047439 2.71732907334263 3.6453714003532283 56 56 56
0.5403261411632088 2.7297982954863813 3.6429746530571805 56 55 60
0.5864159867958854 2.746881389635604 3.6564154802135875 54 53 58
0.5306971326679524 2.7546774849119586 3.6381190902041496 54 53 58
0.5109432639595519 2.7656853428249515 3.6310391670975544 54 53 58
0.5196583928219811 2.7793664595302876 3.6328285013482082 53 52 57
0.5222578904712578 2.792481250794759 3.6327119950669235 51 50 55
0.5309229306315632 2.8062111645767787 3.6344818739945164 49 48 53
0.4743349293893316 2.8133676824983005 3.615954868019605 48 47 52
0.5396358390165554 2.8328798584098607 3.635335732965466 46 45 50
0.5537484537293809 2.847260799601093 3.6387927140995395 46 45 50
0.5471890014066654 2.8594946517905435 3.635824325006731 46 45 50
0.3121868273129389 2.847038754629258 3.5619197937518594 46 45 50
0.26142513098578946 2.85399843715218 3.5452614637195836 45 44 49
0.21814070309151679 2.861621588616863 3.530935390611584 45 44 49
0.18253299750181373 2.869968692914045 3.5190007071894476 43 44 48
1.1530151535807147 3.963709062284061 3.7491835969838645 44 43 48
1.136439351646529 3.9739863470463552 3.743167832682858 45 45 48
0.9253034671512179 3.9383143002750627 3.6785308854902077 47 46 49
0.929999453859461 3.953203470072205 3.678953981048044 47 46 49
0.8813814934602446 3.9553519702558297 3.6633242809773865 48 48 51
0.582890220684446 3.8971043681448903 3.5725070270632227 49 49 51
0.6848165330553082 3.9350418530811875 3.6022195887759323 50 50 52
0.2966799723299651 3.853517837726068 3.4845435982096244 51 51 53
0.06671060764494863 3.809603310876358 3.4145052117075414 52 52 54
0.20812739363831234 3.8569775923892586 3.456108359933212 53 53 55
0.4026882481557501 3.9181085843394223 3.5136371029782216 54 54 56
0.5235014521567052 3.9613738621101255 3.5489778866660306 55 55 57
0.6264599792917659 4.000538872298572 3.578930651676209 56 56 58
0.39582253325093697 3.955055687993819 3.5087925179591744 56 56 58
0.46662658243376387 3.9861119211328284 3.529094155960243 57 57 59
0.601916075919918 4.034068799468165 3.5687050592855383 59 59 61
0.6634229862680039 4.063312287013196 3.586177894941195 60 60 62
0.5899901297884912 4.05745576401691 3.5632257842063897 61 61 63
0.5970293148062009 4.072547639985942 3.5643801286128007 64 64 66
0.5821367929735228 4.081851183824946 3.5589702353024633 65 65 67
0.5936556222584306 4.098154723731912 3.561463239081554 65 65 67
0.7754857944574305 4.1602471146616695 3.6148706188039843 69 69 71
0.65116475551995 4.140207797085291 3.576741627255053 71 71 73
0.8520320837575068 4.208211450672568 3.6357830633266452 74 73 75
0.866645941683047 4.225918473624066 3.6391601982661053 77 76 78
0.8554412507396867 4.236565545197375 3.634827439896154 81 79 81
0.9173511162496757 4.267446584124444 3.6523106747042644 87 85 86
0.984423970372144 4.2999845316646725 3.6713180308648536 96 95 92
1.0521817455823885 4.3329492667045 3.6905126793189593 125 124 121
1.1224238190015554 4.36685258426141 3.7104305246243223 154 153 153
1.160767890292457 4.391937905120746 3.7208299244105594 171 170 170
1.209699178227243 4.420185267260928 3.7343716431608134 178 178 179
1.246953154105353 4.445246312256567 3.744425813548819 183 183 185
1.1114825642032788 4.420464654496498 3.7030892529125836 186 186 187
1.0936184973316034 4.429447901338413 3.696756571903636 189 189 189
1.183497444846647 4.469918282931225 3.7224521627289135 190 190 190
1.6393228619927227 4.618481041065537 3.856848420667226 191 191 191
1.6715076313068948 4.643120678841118 3.865319396428266 192 192 192
0.34013168574486363 4.287285861248828 3.467154208446128 195 195 195
0.3026272084108076 4.288782567572579 3.455108834738935 195 195 195
0.2924403705676635 4.298481340386751 3.4511683112209903 196 196 196
0.2964285195057511 4.31249406181329 3.4514291840340947 196 196 196
0.2966927689358433 4.325374870590644 3.4505862104956013 196 196 196
0.29716809931502064 4.338324672677799 3.449805458152203 197 197 197
0.26681229906157267 1.7572525537305992 3.6385862246226703 203 203 203
0.26155532208179816 1.7696854198230858 3.636010301671652 203 203 203
0.2180582892171638 1.783486080866246 3.6210982559417495 203 203 203
0.1750633361711874 1.7971271341766508 3.6063583599401556 203 203 203
0.2712344123167444 1.806058156797107 3.636493747762621 203 203 203
0.23777199287863893 1.819352360418681 3.6248294402523804 203 203 203
0.19728473907707278 1.8327448721606243 3.6109099363990653 203 203 203
0.126685609052282 1.8468433021913702 3.587303109281453 202 202 202
0.1421636062440434 1.8584560106798234 3.591421865839012 202 202 202
0.12874985423577862 1.8708307866507485 3.586239736270347 202 202 202
1.1464434232345484 1.8596104520533059 3.912734731019285 202 202 202
1.042542574404658 1.8755350831386137 3.87833923253967 202 202 202
1.045739306456964 1.889026737897765 3.878392622448347 202 202 202
1.041405947022681 1.9026661232433542 3.8760255685031373 201 201 201
1.1398513777959638 1.914631389025498 3.9066707376634078 201 201 201
1.1553582935409847 1.928130910559617 3.9106631432677084 201 201 201
1.102234875735728 1.9425660359489865 3.8926248032373296 200 200 200
1.3529892371385759 1.9534323160065628 3.9720918022290377 200 200 200
1.6364144650297818 1.9648278411101108 4.0619762969217375 200 200 200
1.6062509561867935 1.9796284179744839 4.051259463813407 200 200 200
1.418001613900349 1.9953054399410033 3.9898880347654315 199 199 199
1.3850697470545656 2.0096588766869665 3.9783173906697176 199 199 199
1.383958945242638 2.023815343172414 3.97694447680603 199 199 199
1.3897583642434053 2.0379629798986074 3.9777836491199103 198 198 198
1.7544523425652214 2.0523189384226663 4.0934635047311385 198 198 198
1.7417177357390914 2.067070210255952 4.0883279201482 197 197 197
0.8271359415819346 2.0915345065141095 3.7938795466942055 197 197 197
0.8575198171945859 2.104990883078151 3.8026360697972597 197 197 197
1.5932918763044719 2.1393381399240448 4.035633847907586 196 196 196
1.325769846144453 2.1505954048518303 3.9492107321125625 195 195 195
1.3001448127842719 2.164321861354849 3.9400235272380097 195 195 195
1.1801349657148532 2.176495707451901 3.900742297261891 195 195 195
1.1753162629132636 2.1902570266152277 3.898211157323129 195 195 195
1.2724732257963811 2.2059343320059073 3.9281771979628526 194 194 194
1.2648717983003666 2.21978242627098 3.924749276720922 193 193 193
1.2242920397646129 2.232873455819214 3.9108218365189336 193 193 193
1.222253932038094 2.2467542027697953 3.909171976504716 192 192 192
1.0195737389443786 2.255490271065907 3.843681145164286 191 191 191
0.9927600277985276 2.268350342094736 3.8341757995816685 191 191 191
0.9732611622081249 2.2813351794622667 3.827002429108592 191 191 191
1.5221204856021062 2.3116778645925926 4.000471047514236 190 190 190
1.3630016198627928 2.320976997028534 3.948880513896648 189 189 189
1.2235047617995152 2.3304124332526714 3.90355974028989 188 188 188
1.2312536240723544 2.344636807932953 3.9050172703176647 187 187 187
1.2434022032249878 2.3590543799915937 3.9078689398028366 185 185 185
1.2374542246877058 2.372809059228055 3.9049768792753 185 185 185
1.227949574221704 2.386401760162214 3.90095823202549 183 183 183
1.2608460960022465 2.401763086448193 3.910381958553303 181 181 181
1.2859411841839625 2.41689386160688 3.9173255918328618 179 179 179
1.1792701584754717 2.4260824761558157 3.882527683138854 174 174 174
1.3333423536287041 2.4472845565035297 3.930311021509371 167 167 165
1.2864940046192874 2.4591383969934695 3.9144663852697392 156 156 154
1.2476046543460348 2.471241905439907 3.9011508933171166 138 138 136
1.205701989392376 2.4830593447275358 3.8868916216234206 103 103 102
1.1578378996563174 2.4944157983476436 3.8707576690556693 81 81 81
1.1025886780128231 2.5052016384649574 3.852301291034277 76 76 76
1.0590315661906908 2.516476991717919 3.837551512863013 74 74 74
1.0004279693063447 2.526717655373866 3.8180608288876012 70 72 71
0.8720851814012119 2.5325172677574117 3.7765709571815718 69 71 70
0.8428710310259041 2.544090555346753 3.766389889592502 67 69 68
0.8886856327603125 2.5603894448711486 3.779880357056335 66 68 67
0.8309256485487067 2.570015316067967 3.760703836485725 66 66 66
0.8675981265713684 2.5858355353874796 3.7713029871336103 65 65 65
0.8432701964831483 2.5975539516052097 3.76267520754082 64 64 64
0.7232008227324992 2.602395739270307 3.723901884038167 63 63 64
0.6292067074402101 2.608730718436529 3.693366009950174 62 62 64
0.4047915546369565 2.6050523225700863 3.621811652576651 60 59 63
0.4015254848135785 2.617439081693317 3.619876185758385 59 58 62
0.40031732907572 2.6299773590426927 3.618588415680497 58 58 59
0.3988332987846718 2.6424921994142254 3.617214042943231 58 58 58
0.40059563516763563 2.655267909420301 3.6168598437817434 58 58 58
0.46995358067559123 2.6736491323188636 3.6377351399220443 57 57 57
0.541177453308394 2.6924246722186553 3.6591792419501297 57 57 57
0.4912464260911428 2.7266030407975608 3.640743599480765 55 54 59
0.5804056473553574 2.7475424092010083 3.6677719678413956 54 53 58
0.5435047838067097 2.757070492384301 3.655277940053722 54 53 58
0.5136512382787046 2.7671433222542148 3.6450000874848736 54 53 58
0.5140233457787573 2.7800289637825477 3.6441930778809404 52 51 56
0.486914211261766 2.7902252103185745 3.6347846387072242 51 50 55
0.47331402484170204 2.801679144530242 3.6296090263350766 49 48 53
0.511497440583008 2.818339757556482 3.6406313173406226 48 47 52
0.5183241483470109 2.831899985375029 3.6418414661556424 47 46 51
0.439412164220565 2.83650320195879 3.6162567310538263 46 45 50
0.40224057414848585 2.845285665737017 3.6037296515128716 46 45 50
0.40402834897667006 2.858158456848215 3.6033766160805847 46 45 50
0.39597680143202596 2.869959055664478 3.599951798563506 45 44 49
0.23263433608859568 2.864413937477924 3.548076461882625 45 44 49
0.20244496105569798 2.873395414161997 3.537769570860917 43 43 48
0.03236362382828828 3.6678023305927137 3.426244899036163 41 42 46
1.1500738271866313 3.9503627733413444 3.7636337495886596 44 43 48
1.129782119599382 3.9597954964134217 3.7564619401145602 44 43 48
0.9602334854709076 3.934182195884363 3.704042771388729 45 45 48
0.9246129343582198 3.9396059777708694 3.692253454092146 47 47 49
0.9170208619651379 3.951575098339141 3.688963568959884 47 47 49
0.857069028238095 3.9509801336418993 3.6698201727672908 48 48 50
0.6177573309423889 3.9069145527229527 3.596401166560282 49 49 51
0.7098162618432513 3.942535528353076 3.6233023477478206 50 50 52
0.37842902400715883 3.8748706893834375 3.522112841481965 51 51 53
0.4308455847739 3.9006344765718706 3.53703586451544 52 52 54
0.5041089179803587 3.931753650961687 3.5582455077361512 53 53 55
0.5606683463916365 3.958954468626192 3.574391077202645 54 54 56
0.6282493068048511 3.9891252332323894 3.5938503747648327 54 54 56
0.673312087708879 4.013828072100792 3.6064962462854906 56 56 58
0.7167775105675663 4.038281521560866 3.6186488450790306 57 57 59
0.7487861761784274 4.059946240505852 3.627335408240876 57 57 59
0.5740674730600579 4.028296145790382 3.573695547735699 58 58 60
0.6368621207459519 4.057840294942258 3.59166813489516 59 59 61
0.6184335555677201 4.066331821777014 3.585160223742095 60 60 62
0.6034421510023236 4.075668616946562 3.579691544363956 63 63 65
0.604556005746594 4.08922981757392 3.579073360724867 65 65 67
0.6085928243781132 4.103578194588473 3.5793340275264063 65 65 67
0.638360070613556 4.124859331971662 3.587330845891012 69 69 71
0.6470922185688575 4.140555554439114 3.588997271073508 71 71 73
0.8491252449140163 4.208909439001695 3.648740521107154 74 72 75
0.865226644768244 4.2270240234342795 3.6525914916571254 77 75 78
0.8565032499530105 4.238352918149264 3.6489855668956186 80 78 81
0.911417596287216 4.2673090370314375 3.664478513161606 85 83 85
0.9876311291032753 4.302403327023883 3.6863466051103244 101 100 98
1.0491814105088249 4.33364519885654 3.7037989467970913 138 137 135
1.1116902063302383 4.365373517241523 3.7215230771771517 159 157 159
1.1593148117791037 4.393088702405904 3.734772301667833 172 172 172
1.1647002603365566 4.4088884037426554 3.7353602583730257 179 179 180
1.079849169043106 4.398740338373064 3.7089350311953466 184 184 186
1.0826636435028194 4.413682718675324 3.7087618247186644 186 186 187
1.1949177045742911 4.460512065370015 3.741320428334293 189 189 189
1.1481770646239227 4.461150350204877 3.7263163261395698 191 191 191
1.1610328420520868 4.479193527456162 3.72913374458653 192 192 192
0.32630479318122385 4.271702373570918 3.47691134694476 194 194 194
0.3180637062304814 4.2820593010720955 3.4735296288140396 195 195 195
0.3378782230800791 4.300901495049607 3.4785166005681236 196 196 196
0.31338253722025233 4.306295879993454 3.470289644184004 196 196 196
0.30061036919112527 4.315205175194083 3.465561903112709 196 196 196
0.2968005056759936 4.326838295315599 3.4635065722680394 197 197 197
0.32619062828274414 4.34876281615712 3.471336461094303 197 197 197
0.18445118073647515 4.34262631059538 3.4264171588449006 198 198 198
0.2666682244123222 4.394094623053147 3.4490297270380488 199 199 199
0.25846004461246386 4.4042303501790965 3.445674437774313 199 199 199
0.3504883546403816 1.7673377644974608 3.6774619802962993 203 203 203
0.29348621451483187 1.781768929274663 3.6580856678898623 203 203 203
0.32426421735175864 1.7929966598099332 3.667182826231891 203 203 203
0.29740761284429607 1.80621376038952 3.6575930756581165 203 203 203
0.307370924027919 1.8182013292146069 3.6599385024025493 203 203 203
0.345424374484693 1.8293996266551371 3.671378674098409 203 203 203
0.21497250191863715 1.845394976478024 3.628257394214755 203 203 203
0.9800170621062 1.8645338218633623 3.8730396671179 202 202 202
1.0286668422802931 1.8769596812254752 3.88780114781772 202 202 202
1.0168746778062436 1.8907211725553486 3.8830193652663922 202 202 202
1.036335427104078 1.9038928150176007 3.8883356497431105 202 202 202
1.128181414089879 1.9159714313198006 3.917020583390613 202 202 202
1.1274723097269206 1.9296888514316044 3.9158079775269523 201 201 201
1.39203677041115 1.9400382422095246 4.000189792208484 201 201 201
1.376031255349419 1.9543678123430226 3.994011580241773 201 201 201
1.3921371046850393 1.9683462312269233 3.9981905143791314 200 200 200
1.3773373308051278 1.9826189484509131 3.9924043340347537 200 200 200
1.403069006647558 1.9966010485041195 3.9996801477706443 200 200 200
1.4203115213609454 2.0107088719018598 4.004215521132256 200 200 200
1.3975742014252834 2.024984314492859 3.995875211632344 199 199 199
1.8671662274016472 2.0386895135136487 4.145984537780929 199 199 199
1.8322348032809057 2.0536333511333225 4.133672763791884 199 199 199
0.8822215021148908 2.079655139304497 3.826135129801067 198 198 198
0.88426081708033 2.0929957694728896 3.825833878428711 198 198 198
0.9257356745354772 2.1066357133040703 3.8381996719255422 198 198 198
1.5887612197112468 2.140543789992864 4.04909703163724 197 197 197
1.309231727809989 2.1516086090509186 3.9583633456975456 197 197 197
1.2822036736899731 2.165286257443295 3.9486853787730136 196 196 196
1.2320636257989368 2.178513005752125 3.931603405415834 196 196 196
1.1280291078751705 2.190637401981565 3.89725980715223 195 195 195
1.251204812024044 2.2067479861792925 3.9357358287221844 194 194 194
1.2729091725688044 2.2211694387166503 3.9416843087730573 194 194 194
1.2854517639478487 2.2354610622540148 3.9446942744870226 194 194 194
1.2527041335617708 2.248706421864454 3.9332070374178887 194 194 194
1.0045591438795403 2.2562944923029775 3.852820939781701 193 193 193
0.9891186525402996 2.2694397895961607 3.84690951712574 192 192 192
1.0653796503924244 2.2852064910594243 3.87031524493225 191 191 191
1.5481179959051843 2.3137505320976404 4.023589516601447 191 191 191
1.4607940400247301 2.3254036764332016 3.9946564209034836 190 190 190
1.1998312898865158 2.330836322602785 3.910300850336514 190 190 190
1.1988839189001244 2.344712792362815 3.9090001669316123 188 188 188
1.2195995244591276 2.3594014672314754 3.9146113339942605 187 187 187
1.20666064612276 2.3728436125835506 3.9094835104866745 186 186 186
1.201846991888358 2.386577178757074 3.9069490924158417 185 185 185
1.2347547815776097 2.401902345036145 3.9164374592605773 183 183 183
1.2401539082300113 2.4161242354063712 3.9171539943837828 180 180 180
1.1689983610780104 2.4268526320477024 3.8934895072349316 177 177 177
1.3038867230416358 2.447149971356345 3.9354336498675924 171 171 169
1.2775260665186652 2.459958961754208 3.926032760888626 162 162 160
1.2414622313822812 2.4721877806318697 3.9135514765987485 147 147 145
1.208330168484088 2.4844524546738835 3.902010927219808 122 122 121
1.1585534370338002 2.495704470277654 3.88518757155149 88 88 88
1.1168238462444258 2.507242437134646 3.870932890227008 76 76 76
1.2021993555653223 2.525974015217011 3.897058466050364 75 75 75
0.9886821970187991 2.5272530333553336 3.8282667733538616 72 72 72
0.8869237631481001 2.5346383426198624 3.794995620120308 70 70 70
0.8361890956243232 2.5448843908711245 3.7779362397204936 68 68 68
0.9079722824759866 2.5628539236197705 3.7997431268359745 67 67 67
0.8708407147487489 2.5738690755952955 3.7870053962324306 65 65 65
0.8982072790558752 2.5891335914854765 3.7947152068344465 65 65 65
0.8458784424603757 2.5989569183567007 3.7771732340535937 63 63 63
0.7397975298321635 2.6047820585428187 3.742623275588446 62 62 63
0.5497838367990493 2.604138876457334 3.681531855465917 61 61 63
0.42735611944164387 2.6078943454407075 3.641870787388163 60 60 63
0.3576430982477093 2.615256855255725 3.6189119954523052 59 58 62
0.39960336700011556 2.631085635599971 3.6312768869705208 58 58 58
0.4548991962538188 2.6481198042168224 3.647846036024063 57 57 57
0.4855231221255238 2.6633380413605083 3.6566072355064265 57 57 57
0.49015947300883345 2.67650634609875 3.657153956807111 57 57 57
0.5467096999543601 2.6940871705611955 3.6740874812735353 56 56 56
0.4975337395497862 2.7283597842565004 3.6558053217700723 54 53 58
0.5511887487742598 2.7460808034636957 3.6717972384134954 54 53 58
0.5362664614720073 2.757601820758322 3.666169118371495 54 53 58
0.5159356855816895 2.768562387698115 3.6588410194343552 53 52 57
0.4982381600548489 2.7797108588189747 3.6523466929360255 52 51 56
0.48437624291028747 2.791178596217092 3.6470635744522384 51 50 55
0.47649270513045316 2.8031990035492083 3.643664357612406 50 49 54
0.4667559044890581 2.8150071434354587 3.6396840805383 48 47 52
0.46558610303770176 2.8276693509159454 3.638398972501674 48 47 52
0.4490660071829089 2.8387195047331106 3.6322905440448725 46 45 50
0.4118215069610971 2.8475066746187965 3.6196763711291253 46 45 50
0.408127096992015 2.859804259626582 3.6176051289773077 45 44 49
0.38826222332773364 2.8703130449838086 3.6104593584423013 45 44 49
0.3550167948114668 2.8792625083270544 3.599120253809102 45 44 49
0.23886482665120246 3.716098308763996 3.50169130475287 42 42 46
0.1935157911031714 3.7182810811569564 3.48694344231143 43 42 47
1.1303188771944597 3.947286278954154 3.7719282896583524 44 43 48
1.1124375906281032 3.95724493772756 3.7654602258708234 45 44 49
1.1263767999307488 3.974608096244351 3.768699125529164 45 45 48
0.9200730958762756 3.939988438430731 3.7048047039221026 46 46 48
0.9314711850795436 3.956469847010746 3.707289269150272 47 47 49
0.897748551928734 3.962178089177381 3.6960292328130633 48 48 50
0.8155835478445637 3.9560784885554843 3.6700300976471296 49 49 51
0.7371042072232676 3.9505951253826663 3.645172612652869 50 50 52
0.4745941653604576 3.925819160734964 3.5624871568974443 52 52 54
0.556750245869935 3.9593813767585027 3.5865125295036733 54 54 56
0.5861328594651813 3.9799439818706337 3.5944907866395583 54 54 56
0.6315282635672933 4.004669122825541 3.607322485895285 56 56 58
0.6770944425655985 4.029596938292277 3.6201945873711803 56 56 58
0.7103980951870386 4.051534145417234 3.629335802551764 57 57 59
0.5635979488331642 4.027008390175744 3.5838624590199037 57 57 59
0.6476408181710518 4.062080434300417 3.6083865577811056 58 58 60
0.6256269372509942 4.069649708717404 3.6007602944864447 60 60 62
0.618322603620189 4.081026214119459 3.5975936491178886 63 63 65
0.6254678847617086 4.096217018627306 3.598802480214035 65 65 67
0.6175207171613564 4.107401685185221 3.595442768309766 66 66 68
0.9786002490561574 4.217821934960747 3.7036969299080806 69 69 71
0.7675767016446788 4.174620372246046 3.6388997738754103 71 70 73
0.8197092305001001 4.20238489319715 3.6536810417146537 74 72 75
0.859682216110979 4.226998573119955 3.6647760577595823 77 75 78
0.8596985352983121 4.240729697222322 3.663795876008148 78 76 79
0.6439459313194487 4.194563841548745 3.5976898657235283 85 83 85
0.6704534442836521 4.215327950778018 3.604728587832192 117 116 113
0.697148151741822 4.236239009199656 3.611816994426953 147 146 143
1.0892263934078072 4.3605736323768545 3.7290465170825113 165 163 165
1.143698634613635 4.390209704997988 3.7444462812483392 175 175 175
1.1445181770835515 4.4046788178994865 3.743671576679504 181 181 182
1.0896277157841245 4.403110216286758 3.7261229490763403 184 184 186
1.0544689762790593 4.407071144840667 3.714526238732714 187 187 187
1.110726349037996 4.437555750819819 3.73043947916776 190 190 190
1.1225495259671112 4.455211081142984 3.7329765698119655 191 191 191
1.1432019781359637 4.475514014131327 3.7381645022958883 192 192 192
0.7444275101935707 4.371475263319896 3.617323884653986 193 193 193
0.7358535537025261 4.382480689397502 3.613775364636523 194 194 194
0.27575458394960395 4.257957993727337 3.474673428997915 195 195 195
0.2642942777657321 4.267256276854703 3.4703187311402988 196 196 196
0.3312188744924742 4.300312093435805 3.489479662308825 196 196 196
0.3178130017988463 4.30907802603134 3.4845371763823687 196 196 196
0.23093105255279867 4.295240944716264 3.4575756380613765 196 196 196
0.28859138736214807 4.325734288741525 3.473939659409215 197 197 197
0.18802832401324754 4.307302617099363 3.442905911081038 197 197 197
0.18925588817585615 4.345560520750019 3.440555254515098 198 198 198
0.1938036828504779 4.359634901805481 3.441008456761704 199 199 199
0.236216526381972 4.385813041461935 3.452776230189268 200 200 200
0.2388488148779485 4.399375215265645 3.4526498707756046 200 200 200
0.3565962300021769 4.4500901533533845 3.48689589332597 200 200 200
0.514378873530464 1.736902772198294 3.7454843379223774 205 205 205
0.5299971279946258 1.7489375933893059 3.749674108191903 204 204 204
0.9448494498843699 1.7594035275168354 3.88312110613725 204 204 204
0.9408787938077281 1.772910771802042 3.8808687106551227 204 204 204
0.9684269967527758 1.785381253083306 3.8888863769664765 204 204 204
0.3082638771018124 1.831511673198763 3.6720300644918527 203 203 203
0.2803892151388146 1.8446017435140352 3.662075063283934 203 203 203
0.9787547887018148 1.8656844627712617 3.8864725017445667 203 203 203
0.9280305053777871 1.8801938132288813 3.869024363818288 203 203 203
0.9992353708231732 1.8921920352682884 3.891197991940047 203 203 203
1.0328787371457848 1.905090095177567 3.9011566889423523 203 203 203
1.1313877096103058 1.9170721105239792 3.932163849399838 203 203 203
1.1402400346653996 1.930660982071988 3.9340536002728923 202 202 202
1.8396885788728334 1.9505126592104411 4.158889579081081 202 202 202
1.4208192047451162 1.997700645278357 4.020011518880202 201 201 201
1.4149471602126886 2.0119401536620756 4.017091583755862 201 201 201
1.828670206601594 2.025097894481092 4.14998038064124 201 201 201
0.7502204564154866 2.0671428683278323 3.79810889390927 200 200 200
0.7739369061056853 2.080349072126462 3.804834335620636 200 200 200
0.8884796127437801 2.0941658690171114 3.8408966260290924 199 199 199
0.9801928600644718 2.1081974401865913 3.8695586195936063 199 199 199
0.9549525292770835 2.1214665782391156 3.8604429431070693 199 199 199
1.3882831428317481 2.139624572866439 3.99931609300044 199 199 199
1.3034721914704097 2.1527522731062887 3.970940564200742 199 199 199
1.2721458338595348 2.166357665149779 3.95983207442 197 197 197
1.2688104581722606 2.180304958030051 3.957753645375662 197 197 197
1.1323091831838668 2.1919086731997 3.9127664705066287 196 196 196
1.2764067731910758 2.2084485657734128 3.958194072458851 195 195 195
1.272816052011576 2.222389357035826 3.9560335098175 195 195 195
1.3605184721437977 2.2383807241354017 3.9832576316077186 195 195 195
1.2389926443671277 2.2495975382449016 3.9431424617299617 194 194 194
1.0354510182041343 2.2582843262500134 3.8766780139285015 194 194 194
1.0222458611495666 2.271543034172018 3.8714562398095413 194 194 194
0.9951682485340487 2.284354165168479 3.8617790587170657 193 193 193
1.6111749635109067 2.316978118056822 4.0587078648631225 193 193 193
1.4864182985890024 2.3275052932192324 4.0175970004525965 192 192 192
1.2073199025204788 2.3323224886995484 3.926968646938101 191 191 191
1.1864346911671662 2.3454962842227607 3.9192686030870396 190 190 190
1.186629249485187 2.359396607303741 3.9183354080277484 189 189 189
1.1971425174044261 2.373706302307159 3.920710787066525 188 188 188
1.1981549444617503 2.3876644081953033 3.920038016479937 187 187 187
1.194097952105793 2.401412268749048 3.9177404496680857 184 184 184
1.1936393856129615 2.415308991776659 3.916596238865378 183 183 183
1.3164664018238548 2.434885265443093 3.9549256112268876 180 180 180
1.331055410781001 2.4497100877893137 3.95858250142469 174 174 173
1.2831594235896953 2.461498806689394 3.942244231801195 167 167 165
1.2463298801060603 2.4736948187086725 3.9294565633278506 157 157 155
1.2029548435481878 2.485424296430593 3.9145849825384547 139 139 138
1.142045756847842 2.496055675878949 3.8941201549591313 114 114 114
1.1507903724792299 2.5103958167804175 3.895921226042022 80 80 79
1.1628944755742086 2.5249624640073995 3.898792796856859 74 74 74
1.1679622551402553 2.539153896221743 3.899415136667427 71 71 72
0.9164696927691816 2.5376643750863344 3.8181687117435663 70 70 70
0.8630989121883118 2.547788847046549 3.800178712252694 67 67 68
0.8323740665419375 2.559198410236896 3.78942215885954 66 66 66
0.8971535857004074 2.576834321098112 3.8091132963988334 64 64 64
0.83195984240365 2.585861506104277 3.7873774225666974 64 64 64
0.9174128576699769 2.6051597075318043 3.813636927894582 62 62 62
0.837199365508007 2.6129357292529884 3.7871321059965406 62 62 63
0.5641489989030231 2.6063685678298594 3.699276008339977 61 61 63
0.448363498162517 2.610627430071509 3.6615163513246567 60 59 62
0.3491285954965734 2.61576221153847 3.629047734534266 58 58 61
0.419452807370549 2.633799047542624 3.650503745794613 58 58 58
0.47792302334056674 2.6511305082274528 3.6681757587106976 58 58 58
0.506007756891326 2.6661877068666033 3.676181612221315 57 57 57
0.5095480025214136 2.679302306108828 3.676386991684149 56 56 56
0.5160389630607081 2.6926816764604955 3.6775278984106037 55 55 55
0.4820127864318507 2.728158986181364 3.6639786724077816 54 53 58
0.4759535597854341 2.740396981826278 3.661141620634988 54 53 58
0.2674754070287708 2.7337417763564495 3.5941797429453626 53 52 57
0.5270628830160446 2.7708220702424695 3.6754942003181807 52 51 56
0.46234133198982175 2.777444740500424 3.654083385297486 52 51 56
0.45485562989919526 2.789478595102557 3.650799524487624 51 50 55
0.44738427572708617 2.8014911450294924 3.6475218317076084 51 50 55
0.4546238994486855 2.814977158751187 3.6488972747287787 49 48 53
0.4305839889143042 2.8252560782136804 3.6403841982311964 47 46 51
0.4476256515983912 2.8397733978651174 3.644856512697867 46 45 50
0.42007619442074406 2.8495895060845218 3.6352413293007197 46 45 50
0.4067902621026572 2.8608621304885444 3.6301357534752925 44 43 48
0.3929370982047973 2.872029840076606 3.6248542072326053 44 43 48
0.3682102097169918 2.881936844124373 3.616145558506639 44 43 48
0.3025840117639438 2.987389448472887 3.587359712884207 42 41 46
0.27157512836790987 2.995940281946253 3.5767161421049796 42 41 46
0.24262594968707885 3.0046572026058875 3.5667269452898163 42 41 46
0.16732972023014425 3.701119803132141 3.4924598063692427 42 42 46
0.09853239570628214 3.6977907546185236 3.4704437188488386 43 42 47
1.1091984214546275 3.9579751030760937 3.7787299406731547 45 44 49
0.6127620046688539 3.8555431734970456 3.625482512570905 45 44 48
0.9336652646868095 3.944656783912514 3.7229026515822854 45 45 47
0.9480817652753599 3.9618847863835054 3.726331520780933 46 46 49
0.9102911186454407 3.9666419305238474 3.7137660407276685 48 48 50
0.8286691457155442 3.960682396479964 3.6877899249204478 49 49 51
0.7787242783389654 3.9621523890422132 3.6715283457528765 50 50 52
0.2786179672693977 3.8531467790356464 3.5175648610622097 50 50 52
0.4494554548606756 3.9209616262686313 3.567967834357449 51 51 53
0.534883690550331 3.9553165412237545 3.5931403231354446 54 54 56
0.5032011039974559 3.960465289212676 3.5825226236560552 54 54 56
0.552520849671912 3.986053555686109 3.5966429267338205 55 55 57
0.6019893992349161 4.011852437877254 3.61079627186659 55 55 57
0.6529596711779271 4.038210583849325 3.6253953180593776 57 57 59
0.7521070230807061 4.077216171546303 3.6546724072847283 57 57 59
0.6175837099185317 4.0556856376634745 3.6126995473958656 59 59 61
0.9231599082543267 4.149116608786543 3.7048522743472687 61 61 63
0.630164287036692 4.085587597300843 3.614626282804495 63 63 65
0.629873149640048 4.098826419837335 3.613583378955143 65 65 67
0.43529464315867183 4.060106748036968 3.553415596252353 67 66 69
0.42553939135733976 4.07046630023749 3.549517562905424 69 69 71
0.7711595983741362 4.177063116256592 3.653680285522367 71 70 72
0.8056007511037817 4.200022884972407 3.6631760049976974 73 71 74
0.8643136759635208 4.229763209771654 3.6800372802566153 76 74 77
0.8937774346319818 4.251634251236491 3.688000926153883 80 78 81
0.6109547381704431 4.186856845251872 3.6011551496078864 97 96 97
0.6311303656184408 4.205801258192702 3.60632398709869 132 131 129
0.6518028395554067 4.224957866248013 3.6116383387707587 156 155 152
1.0771321918958674 4.3587001598450215 3.7396401766414575 169 168 169
1.1295450591879903 4.387741694289443 3.754513577442651 178 178 179
1.0845537696036733 4.389066712840798 3.7398647777746463 184 184 185
1.061442523005434 4.396544217442236 3.731852863014837 186 186 188
1.1014561429115068 4.422244668117372 3.74295476805231 188 188 189
1.0881704814525834 4.432542688272417 3.7379191223625137 191 191 191
0.8685132175721286 4.382255856547867 3.6704677588534773 192 192 192
0.7726833755305234 4.367752172575981 3.640507956196239 192 192 192
0.7556835483794355 4.376318211906155 3.6343949649372504 194 194 194
0.7332728344905929 4.383212700160893 3.6266514398566274 195 195 195
0.22576077230323544 4.2570345646641545 3.4715229574465525 196 196 196
0.3292721261573359 4.301152043968387 3.50184538953688 196 196 196
0.2658677166573178 4.294640247231954 3.481801893251106 196 196 196
0.2444401488601563 4.300807424702393 3.4744285185152477 197 197 197
0.34408163108466105 4.344307773691671 3.503543344153966 198 198 198
0.15924143354016318 4.2997709893838785 3.446942591788205 198 198 198
0.19130489834387976 4.334992692106041 3.4547904533304385 198 198 198
0.18085262368450705 4.344324731799968 3.4507405801019897 199 199 199
0.23458617543650706 4.37401038408581 3.4659950387133325 199 199 199
0.2358479741291345 4.387127519869849 3.4654632011828626 200 200 200
0.23641345555738513 4.400028053731629 3.464721640186863 200 200 200
0.21700457495018854 4.406484665625371 3.4579805316444676 200 200 200
0.5509184054926501 1.7364492451234597 3.7705094049943293 205 205 205
0.5759115663918347 1.7481826629788333 3.7777977992265956 205 205 205
0.9434721673532531 1.7471845130795716 3.897403524048286 204 204 204
0.9432033744497801 1.7605626641269134 3.896358789425479 205 205 205
0.9470406117480128 1.7738026419723276 3.896659263410789 205 205 205
