ply
format ascii 1.0
element vertex 731
property float x
property float y
property float z
property uchar diffuse_red
property uchar diffuse_green
property uchar diffuse_blue
end_header
1.0511301198134757 2.7076079519823124 1.1729853552842884 40 40 40
1.0139400836797723 2.7169239286231264 1.182886210942264 34 34 33
0.9859292527270471 2.719203273836025 1.1904686621065599 68 68 66
0.877757710817082 2.7623538852339937 1.2188417775974498 103 103 102
1.0852320515113958 2.3715621146816055 1.1725700121321792 25 29 30
1.0890219825887395 2.351016850132047 1.1720794107105275 19 18 20
1.0906038489320253 2.332096709283741 1.172148289949918 14 14 16
1.0927920820386676 2.3127996314755093 1.1720616932552803 14 14 16
1.761284406188415 3.8010361800252737 0.9661606624529258 106 107 106
1.7615264320874036 3.7796433632613544 0.9666379502859945 69 71 70
1.7590913079717705 3.760984897428247 0.9677799101832572 60 59 60
1.7565464038743333 3.721487802400915 0.9694815507333621 47 45 51
1.7492409439838994 3.7077822796405004 0.9718332432693351 47 45 50
1.8143159651980247 3.39881986280459 0.9618392930759261 30 31 33
1.5496718184795144 3.3639186429349874 1.0353001730282874 20 20 22
1.5215245670101618 3.369350199710973 1.0428810208875587 19 19 21
1.4993059542777567 3.3693137846979884 1.048975003934446 15 15 17
1.599147669995309 3.08328955656543 1.0288639769499663 35 34 39
1.6233720282121018 3.042886760174034 1.0232476422545003 36 35 41
1.6599310224582382 2.991965896680194 1.0145160513155624 36 35 40
1.6340989277812548 2.995287999696458 1.0215156166722847 35 34 38
1.628939078555198 2.980684605744739 1.0233017315587603 30 30 32
1.2917786130429774 2.712393485894592 1.1225800917757547 18 18 21
1.283957822567309 2.6999406011213614 1.125041271027052 17 17 19
1.2751360574421506 2.688270892667843 1.127757046707981 16 16 18
1.133506230670048 2.685799387350851 1.1666593053747392 37 36 41
1.083588458669314 2.7050887771155443 1.1798581582279426 49 48 54
1.0466564326741445 2.7143436271935037 1.189750911597775 52 52 52
1.010604598943341 2.722790438860377 1.1994228227737758 49 49 47
0.9729711359089321 2.732285910450325 1.2095018177676764 109 109 107
0.9363727217737593 2.740859400269371 1.219320399563038 156 156 154
0.905012962047963 2.7453831896741194 1.2278052896620788 160 160 158
1.064175670376542 2.3717234290267557 1.1936536361314851 30 30 34
1.0674863573928033 2.3515011481382295 1.193259651454508 18 18 20
0.5855858523407889 1.9665706760567534 1.335194556586687 98 98 99
1.7647776243642466 3.802141292445392 0.981050256700565 109 110 109
1.764533895330121 3.781224380156808 0.9816272311287656 70 72 71
1.7648476114310867 3.759807285851469 0.982062755564487 60 59 60
1.747272193000284 3.7352327330783046 0.9875057643048163 43 40 47
1.74496742135201 3.716530007503965 0.9885968293215919 40 38 43
1.7031944531017635 3.736816741264947 0.9996156815031931 42 40 45
1.7064843385965616 3.7125713732108174 0.999299858786682 51 49 54
1.695839664920307 3.702066277422574 1.0024897356706486 55 53 58
1.8295353338725202 3.388546594143111 0.973282370310842 31 31 33
1.5387281485362274 3.377974804384837 1.0536911001887623 20 20 22
1.5192453891756301 3.375514874691375 1.059120812181034 19 19 21
1.5054593264106826 3.3678444956394955 1.0631074163509568 15 15 17
1.4914815845228144 3.360318490122174 1.0671433315707501 14 14 16
1.6245710399939655 3.045648037723175 1.0381310954493683 36 35 40
1.6640259115917195 2.99217566791273 1.0285599665715317 36 35 41
1.640086897781463 2.9938666330933144 1.0351167249380295 36 36 40
1.6328905175383497 2.981022257290739 1.0374132117710382 35 35 37
1.2846426058201326 2.7400276415881226 1.1392695117532792 26 25 30
1.2807637380820889 2.724429905762661 1.1407187460240953 19 18 23
1.2867073047580833 2.7011929189685775 1.1396469498857638 18 18 20
1.267129725541695 2.6978832550411562 1.145123505937224 14 14 16
1.088819600646052 2.7044742520361935 1.194107962232138 36 35 40
1.0558937616064172 2.7107109491808994 1.2030308408749006 56 56 56
1.0182954836650508 2.7203478763321747 1.2131586453821162 57 57 55
0.9797630949456793 2.7305393359710948 1.223530390240914 102 102 100
0.9370381657042233 2.7437195569011035 1.234984821915371 157 157 155
0.9118347446373418 2.743646544401853 1.2419330636208281 167 167 165
0.8660966362811822 2.758768326652577 1.25417065437101 167 167 165
1.0519261935003579 2.365572551238026 1.212536274211482 31 32 34
1.0561420081480632 2.3447153305167325 1.2118826729011551 17 17 19
1.0584405568160449 2.3252715816524105 1.2117230505372023 13 14 16
1.0603182109764253 2.3061773976366875 1.2116709135761075 16 16 18
1.0306878485792623 2.0815757920204714 1.2253116286188872 38 38 40
1.7692898113729 3.8022225608337883 0.9956885133755757 106 106 107
1.7663196214627024 3.784034180476669 0.996935612001064 74 75 75
1.7664011189637097 3.762832627966615 0.9974076911461554 64 63 63
1.7402909577644567 3.746718441459577 1.0050161874870214 41 40 42
1.719528639630459 3.7462581142815106 1.0107781063340495 37 36 38
1.72387921891448 3.720924797187947 1.0101640446831688 36 35 39
1.8281248672760593 3.4141815118587155 0.9884445518789858 30 30 32
1.8319702315376518 3.3904414516187957 0.9879332628780075 30 30 32
1.8207014316674006 3.3811344473065956 0.9912718715496314 31 31 33
1.5321535187916147 3.3880732416962007 1.0710379879336758 20 20 22
1.5329032928210005 3.3672287372091123 1.0713166236416174 19 19 21
1.518533628326713 3.3601150135948146 1.0754630028320609 16 16 18
1.5216699096886757 3.3371904843351134 1.075129103192366 15 15 17
1.6179957596778558 3.0551935189060417 1.0550260438656798 34 34 38
1.6150523907656238 3.038515505948248 1.0562304746286637 38 37 42
1.645823928090299 2.99266125241029 1.0487765607457344 37 36 41
1.6231373069988075 2.9931948160524255 1.0550483245759552 37 37 40
1.606487060829561 2.988453181257526 1.0597710834665717 33 33 35
1.2804903384657016 2.7467285693424675 1.1557121233501009 36 35 40
1.2847310342493872 2.7247425923460025 1.1550504026317154 22 21 27
1.2834474413418477 2.7071398375572135 1.1558166492746849 18 17 21
1.2569134224484397 2.7092278611192535 1.1631178782642602 14 14 17
1.0307928859695823 2.7142752002909174 1.2256356904149341 63 63 63
0.9940322329440988 2.7231672208692164 1.2356109610966413 81 81 81
0.9472443120213861 2.7394323236618834 1.2481917715191522 143 143 141
0.9108187763671918 2.7477629216276127 1.258087312984356 167 167 165
0.878466121948372 2.7529214662861725 1.2669286703133824 168 168 166
1.046621043481368 2.318793670724606 1.2304782686707747 17 17 20
1.0476161822652457 2.3003191297529413 1.2306336444574333 19 19 21
1.768237900855806 3.8079102700209635 1.0117528633809 84 85 86
1.7674638638635796 3.787492634508015 1.0124234246132926 77 78 79
1.766692181776354 3.767126433817029 1.0130921838633695 71 71 71
1.775563634715621 3.73719201311353 1.0112896810736387 59 59 59
1.7547350647669653 3.736911747490096 1.0170943315452268 45 45 45
1.7388241210097726 3.731680608764237 1.0216403264132718 38 38 39
1.7392558766336754 3.7102564073830235 1.0219976455064872 35 35 37
1.8255436743831472 3.4007888199823153 1.0048738236384875 28 28 30
1.831843207385841 3.374751633266068 1.003700446333181 30 30 32
1.5278153359360587 3.396148538588435 1.0878609570956723 21 21 23
1.5291571035816602 3.374733053712059 1.0879647463653137 20 20 22
1.5301311295585052 3.353712057365185 1.0881621175714566 17 17 19
1.5268195898158212 3.336615709419784 1.0894650599972366 16 16 18
1.620468350356731 3.0568559238928126 1.0696298978930767 32 31 34
1.6360285738305063 3.024073348299073 1.0660288093559083 37 36 41
1.662251355915917 2.982186833858372 1.059662316321916 38 37 42
1.6367830086670159 2.9851654391830444 1.066685985133833 37 36 41
1.6145735748982695 2.985241351117246 1.072867111505991 34 34 36
1.6640320097097059 2.9048492780996575 1.060890346928887 26 26 28
1.6463613852156636 2.9010910953163154 1.0658933840500426 23 23 25
1.2796665117374582 2.769549481555245 1.1709083524259314 57 57 57
1.271700308561705 2.757086776963105 1.1734038156228337 48 48 50
1.278312167278658 2.733199148074088 1.1720955803743975 31 30 35
1.045046802621832 2.706869032172227 1.2376204927504344 64 65 67
1.009988885368938 2.714516505144613 1.2472097112263452 66 66 67
0.9603233641800802 2.7329855600173323 1.2606242998930024 118 118 117
0.9139906447068491 2.748754570603034 1.2731712598398621 162 162 160
0.8867661589138705 2.7500991658659224 1.2807202345535105 168 168 166
1.0287267340761266 2.3343726264668905 1.250466190794552 16 18 21
1.0299782645045472 2.315659006062282 1.2505348803094833 14 15 17
1.035692469689467 2.293882630829291 1.2494294833927095 15 16 19
1.784171553259831 3.8177061282462894 1.023007030706634 123 121 122
1.7707244395747637 3.8100389836588464 1.0269320797296309 76 77 76
1.770799921506328 3.788753756855723 1.0273631688737492 68 70 69
1.7708748187795136 3.7675284938792215 1.0277931476520625 69 69 69
1.776198298699491 3.741121712747443 1.0268647887262283 67 67 67
1.7646826752354579 3.7315670105677903 1.0302895573916744 60 60 60
1.7553000721132466 3.7198803242391913 1.0331628555784487 49 49 50
1.755484727872946 3.6987309242698565 1.0335605150115836 41 41 43
1.8310694803334815 3.4198544828598614 1.0183385895255477 24 24 26
1.8474729483075147 3.3840948396631676 1.014509034971483 27 27 29
1.8530888032745896 3.3587512219905804 1.013476289931007 30 30 32
1.5300076993059182 3.3780716903639005 1.103455682462757 23 23 25
1.5238856703547894 3.3634582104897137 1.105478935164983 21 21 23
1.5660560878044616 3.206085535585894 1.0970241275974302 12 12 14
1.6344094074784081 3.0292792981465793 1.08165687959366 36 35 40
1.6791469725085229 2.97129298936251 1.0703723749119418 38 37 42
1.6531110038827954 2.9748068092293645 1.077581923816274 37 36 41
1.642858026764609 2.9646198019860908 1.0806668696099502 35 35 37
1.6413011347383017 2.946954626790005 1.0814777469727537 27 27 29
1.6585076351609414 2.9132673664690123 1.0773794963976253 26 26 28
1.6567939633065834 2.8958703018362906 1.0782285407208385 25 25 27
1.2216810563785125 2.856762213672453 1.2007928975426745 38 38 40
1.237178441298754 2.825482484570387 1.1971216656479442 50 50 51
1.257233118381905 2.7907341295077557 1.1922491109170692 58 58 58
1.2668665369589567 2.764344049085949 1.1901145861998088 57 57 59
1.2809606677922742 2.7345531585738527 1.1868043184867405 44 43 48
1.2917285744083806 2.707484954690976 1.1843667997424707 27 26 31
1.279666777017654 2.698309791509197 1.18793631060234 20 19 24
1.2544326290000862 2.6993465753713384 1.194974155449295 14 13 18
1.0602799109211238 2.6987142946296925 1.2493065702079673 61 60 63
1.0288769119180456 2.7036481475622356 1.2579875086510206 63 63 64
0.9855527534030578 2.7174128425450372 1.2698160714307158 85 85 85
0.9286658658535444 2.741144501367323 1.285227390821903 148 148 146
0.878636378769917 2.759519536402571 1.298833986428368 168 168 166
1.7373682302990077 3.869733718516854 1.0510380846501453 113 112 111
1.7749163183384045 3.789232383536966 1.0421071282841372 64 66 63
1.7774743459002664 3.76550885944888 1.0418671375712365 59 59 59
1.772406279504883 3.749480508294787 1.043615876082706 59 59 59
1.7564243999833589 3.7443476402288383 1.0482130810129466 63 63 63
1.7491164767070702 3.730559149424578 1.0505463381426874 59 59 60
1.692186647678528 3.7658845420318716 1.0658393150983325 55 55 57
1.8728323796319994 3.364103249410349 1.023164651254826 28 28 30
1.5287739802761187 3.3833101342756753 1.1195132365107159 24 24 26
1.5428780619597653 3.350349136176539 1.1162135234418087 22 22 24
1.5568806206360346 3.297627050588023 1.1133415434133673 16 16 18
1.6391298381937784 3.0289710229158846 1.0956431352818756 36 35 40
1.649843766506908 3.0004892212034595 1.0932061256981018 38 37 42
1.6699118888963729 2.9640259282940598 1.0883002924801124 37 36 41
1.6560056005066854 2.957024783412772 1.0923516580235937 36 36 39
1.649549420210941 2.943590499612884 1.0944382810850095 30 30 32
1.663725283631198 2.912494989363004 1.0910807014029795 28 28 30
1.6626133992798766 2.8945817553487214 1.091755182925358 25 25 27
1.66342004632213 2.8750786638536616 1.0919223602124168 25 25 27
1.277694052291531 3.026432852959489 1.1973168691520846 12 12 14
1.2862394637038612 2.999999330388146 1.1954481900871001 12 12 14
1.212682207645178 2.8674567440263266 1.2188072451416803 33 33 35
1.223209649703127 2.8400688942840047 1.216400570005478 43 43 44
1.2428042654795401 2.8056193463745864 1.2115871903165718 53 53 53
1.2665176283534865 2.7680782033246625 1.2056782227950709 60 60 61
1.2706802023335944 2.746058625592757 1.2049526716235102 51 50 56
1.2790717808213383 2.720799837354166 1.2031035142263355 37 36 41
1.269812375980519 2.7093949267860267 1.2059373061851772 24 23 28
1.2513307705770356 2.7051538093720704 1.2112193281545625 17 16 21
1.0398040048867356 2.6987655822497185 1.2708219283773388 66 66 67
1.0033946901114295 2.707368986119879 1.280885094638374 67 67 66
0.954269839280618 2.725346969051861 1.2943340289762437 121 121 119
0.9019442424198392 2.745506033905682 1.3086388360178685 162 162 160
0.865694749900503 2.7534953178846826 1.3186694718071514 169 169 167
1.7425135487518895 3.8906823578823744 1.0652395658782194 160 159 156
1.745406933434936 3.8662858359590357 1.064889355954767 112 113 112
1.7454604884476759 3.8448352634759866 1.0652851182828864 70 74 74
1.7692704349585897 3.7995367177329222 1.0594252525400336 63 65 64
1.7742008480292992 3.773390796855888 1.0585329840671667 52 52 54
1.7751559019891263 3.7513106102539653 1.0586860854493036 50 50 52
1.7483104201667223 3.7570028717878885 1.066162326113409 49 49 52
1.7176734398688915 3.766347141538038 1.0746399113031246 48 48 51
1.684502454062409 3.77806215386879 1.0837880754544122 48 48 50
1.8818033961960956 3.3597433102368184 1.0360531203338383 34 33 38
1.5644139216098814 3.334916731358064 1.1262081125694947 22 22 24
1.633292846701214 3.0378638413179204 1.1124363174744452 36 35 40
1.669320596854762 2.968288903237552 1.1035892957536646 37 36 41
1.6746255809632387 2.9446981641651373 1.1025422454646396 37 36 41
1.6570536698742366 2.9408623149675455 1.1075807233874102 35 34 38
1.671070393228832 2.909898422497093 1.1042133785849564 32 32 34
1.66457043390991 2.896591741260979 1.1063048581549293 25 25 27
1.6653333106562358 2.877112926557247 1.1064624294936833 27 27 29
1.6616382977152813 2.8614705654312766 1.1078061032375335 29 29 31
1.2970647115450529 2.994769782964781 1.2082641555897544 12 12 14
1.1890308527675968 2.909000763719791 1.2404324145534593 30 30 32
1.193489807020827 2.8862814515033706 1.2396077202163147 30 30 32
1.2152542596546168 2.8499022382090975 1.234154961971868 37 38 40
1.2258351133851053 2.822532629581654 1.2316895833396249 50 50 50
1.248469893979278 2.785767111118001 1.2259983109306964 61 59 59
1.263588853180427 2.7550738443502967 1.222314341856792 58 57 59
1.2644906659734518 2.735638176050192 1.2224318298764134 46 46 48
1.2606498842421756 2.7199544752005114 1.2238174829456525 32 32 34
1.246590817006708 2.7122423516554566 1.227937647022387 22 22 24
1.0583923179010841 2.688101080837721 1.2815761813301616 66 67 71
1.027594090992849 2.6925363206034767 1.2901933617474621 67 68 70
0.9788540566058704 2.7102941722984624 1.3036248581899275 90 91 92
0.925773120072577 2.731087065982232 1.3182247531931492 146 146 145
0.877157453177132 2.7483334091878246 1.3316309073500232 166 166 165
1.7484679908592082 3.8893482133613455 1.079658940020097 161 160 158
1.7534370069841154 3.8628423180251974 1.0787280138346649 119 121 120
1.7779312395017226 3.8167015621011977 1.0726085796913891 70 74 75
1.7776504702331848 3.7957307519723646 1.0730680657230454 63 64 64
1.779260495152064 3.7729192142067105 1.0730240050823692 54 54 56
1.755013090045129 3.754898822760905 1.0802352565224271 47 46 51
1.7308695458604597 3.757808419623654 1.0870379933340824 48 47 51
1.6857324776236275 3.7814240202431035 1.099426758546767 50 50 52
1.8677746624692562 3.3773685220502574 1.0550539713551188 35 34 39
1.8736781304358003 3.351741243509899 1.053841801703252 35 34 39
1.561713878334953 3.3414543621194093 1.1426086282093768 22 22 24
1.5691370916010503 3.314671914524216 1.140985854313994 17 17 19
1.6514177707692 3.0066884182547806 1.1232000196177976 37 36 41
1.6603540899055251 2.979813607182648 1.1211492802236223 39 38 43
1.6782133300749402 2.9453355851822467 1.1167026138322709 38 37 42
1.6615474027892445 2.9407218396369177 1.1215183634868833 37 37 41
1.6666791063592425 2.9173656593938864 1.1204842044913315 29 29 31
1.6667570426984226 2.8984085136752666 1.1208053723196538 24 24 26
1.6666730734530124 2.8796389122739465 1.1211691160870796 26 26 28
1.6601271168564455 2.86640539060548 1.1232674521654396 33 33 35
1.6767683100119668 2.8335583713911996 1.1191371075073826 31 31 33
1.3047004351776736 2.97284919508781 1.2222613061871561 12 12 14
1.1853240048413958 2.8963451690908077 1.2575430108651335 26 26 28
1.2080833190009659 2.859125492753212 1.2517546442894407 31 32 35
1.2202956230460367 2.830422794494075 1.2488068083781467 46 46 50
1.2331782593872767 2.801304965114724 1.245676152947937 57 56 59
1.2561889216937714 2.7643433017725476 1.2398117450521529 61 60 61
1.2575389606446419 2.7445191620875247 1.2397874068209926 54 54 56
1.2591734661989502 2.724527359126708 1.2396853320926058 42 42 44
1.241811536150074 2.719370733690366 1.244708539000961 27 27 29
1.2568533300095406 2.689044323726613 1.2409866889676497 17 17 19
1.1460986296637545 2.6810441130813736 1.2725797561275423 15 15 17
1.0649337813485085 2.6865125304335082 1.295527041794516 61 62 65
1.0393102180462057 2.687071487023798 1.3027925899764474 73 74 75
0.9992993575701278 2.6983245702186975 1.3139496710243894 69 71 70
0.9494799731880416 2.716742042129149 1.327762087841457 112 113 113
0.9003621000426676 2.73442811261538 1.3413885594304749 156 156 155
0.8761270975136939 2.7334568204468956 1.3482875448635967 168 167 165
1.0168302932094253 2.2656563861264303 1.3168071024950314 14 13 18
1.0256058415917615 2.241894681128276 1.314745637431534 14 13 18
1.8164059571936892 3.824937112806386 1.0774635845109182 160 159 157
1.7953319597487343 3.825044059024514 1.0834749521167577 124 126 125
1.7784948945976358 3.8207886422044073 1.0883517961575322 72 76 77
1.781326516469477 3.796660579058856 1.0879555001455636 62 63 63
1.7839516550640755 3.772817619498838 1.0876132570541086 52 52 54
1.775671027598985 3.759970596077166 1.090195221528972 46 46 48
1.7472064931386126 3.767273438124261 1.0981926075191888 44 43 47
1.6906381895165803 3.7811462230954582 1.1140969444450322 55 55 57
1.844968685097185 3.4235640623930412 1.0761617672002428 34 33 38
1.8566036233811425 3.3922842422529254 1.0733755814028336 34 33 38
1.8815980430000958 3.348391247713889 1.0669926453144045 34 33 38
1.523045407515601 3.3202062589694896 1.1697818869160774 14 14 16
1.6540661408515205 3.008175795741046 1.1377206499649977 36 35 40
1.6735502549923678 2.95310318794293 1.1331007536544508 39 38 43
1.6648216615303777 2.9416317747174823 1.1357870689013414 39 38 42
1.6658050252138052 2.9218242595345267 1.1358444326709118 32 32 34
1.6667943717583693 2.902066675222111 1.135899237392948 26 26 28
1.6714526650613242 2.8792358126523583 1.134959591631377 26 26 28
1.6648468566884893 2.8660522437015277 1.1370694102698018 27 27 29
1.6877818970268341 2.827860973549697 1.1311768091375345 26 26 28
1.6808444734294898 2.8150635146699265 1.1333746621147944 24 24 26
1.207013169424291 2.9017769626107888 1.2670967934289739 31 31 33
1.1873572868639342 2.8982910658689094 1.272764821044905 23 24 26
1.191310264994854 2.8759899053299236 1.2720173901118403 20 23 27
1.2044859052151689 2.846455646943436 1.2687618023634604 35 37 43
1.2224383530679757 2.8132706950417483 1.2642055021772738 50 50 56
1.2406836721760017 2.7799994627533904 1.2595671070778334 58 58 60
1.2498420993973844 2.7539957297605224 1.25739754157016 56 56 58
1.2543590659404065 2.7317138402887142 1.2564888550449995 49 49 51
1.2567860238758333 2.711130168705699 1.2561475505896595 33 33 35
1.2555762523628284 2.6934278650176102 1.256794778181286 21 21 23
1.204292879053011 2.6771582852126827 1.2717054147157283 15 15 17
1.1623977744269183 2.69062906767555 1.283429803218927 17 17 19
1.0729220322871031 2.683830272247538 1.3090765481105713 56 57 58
1.055952020356555 2.6778947351520777 1.3140199928394223 74 76 74
1.0177657122496617 2.6878244242985536 1.3247465420599822 66 68 66
0.9710274575613379 2.70399330286824 1.3378068260770681 85 87 86
0.9283410953843844 2.716951387079105 1.3497657372843102 146 147 145
0.8928849494848419 2.724372179030041 1.359756076623986 167 167 165
0.857084957466792 2.7319125202065613 1.3698424882645115 168 168 166
1.8287527429181307 3.8170458089610744 1.089993073157868 162 161 159
1.8023852423789308 3.82255891754998 1.0974651636607042 128 129 128
1.7846657338692635 3.819208775226465 1.1025995416548615 74 77 78
1.784381119191335 3.798218945692763 1.103017274689487 63 64 66
1.7830436601570419 3.778344935854553 1.1037190222598414 52 52 55
1.781710473199594 3.758517008983708 1.104418806934289 45 44 47
1.7423635466502982 3.776705961672663 1.115409511903025 41 40 45
1.8639077396166175 3.3895320484843316 1.0867591361331925 32 31 35
1.8894071349656405 3.3451428682017803 1.0801585086468055 33 32 36
1.5512850611904527 3.3591262168765263 1.176884613249139 21 21 23
1.5481273106151492 3.3217492369842834 1.1783885822013374 17 17 19
1.5450617416211774 3.3044644283061935 1.1795443694723113 14 14 16
1.6335266205370726 3.0298472038768054 1.158576402424562 33 32 37
1.6528660678410458 2.9938489803131105 1.1536076516637837 37 36 41
1.6841536356902662 2.9476821725965294 1.1453758429753553 39 38 44
1.6680972651659087 2.942542175855956 1.1500620102245167 40 39 42
1.6667863404375272 2.9246955917364064 1.150723682965603 37 37 38
1.6689739970066657 2.9038962251146643 1.1504294895417269 28 28 30
1.6719473835319123 2.8824882818267348 1.1499197486742834 26 26 28
1.6722473964794722 2.8634195435901213 1.1501390871165988 26 26 28
1.682006098076523 2.817697705461136 1.1480731429556754 24 24 26
1.205560185215003 2.8873409650746225 1.2835696375202121 25 26 28
1.2093879850225557 2.8651686999875325 1.282827149639368 21 24 27
1.216638755448641 2.840353349005596 1.2811455161135528 29 30 39
1.209019531822607 2.8273672685570572 1.2835381380284874 42 42 49
1.2242116377811134 2.796436488096006 1.27967740937342 55 54 58
1.248011277895761 2.7588838179345276 1.2734546762021888 58 57 60
1.2532481004339382 2.736014966330845 1.2723193329749969 53 53 55
1.2604954538077608 2.711655035800843 1.2706313862484766 41 40 43
1.262036361046439 2.6918106615080113 1.2705073428321016 25 26 27
1.1858743371331728 2.6760254140477375 1.2925981252884227 14 14 16
1.058524293834278 2.6792983236144146 1.3290609001475158 68 70 68
1.0355809714933053 2.677800292099721 1.335663447546403 72 74 72
0.9973848933606352 2.6876334391307575 1.3464579762904056 69 71 70
0.9490713011033634 2.7048543818165562 1.3600352023896802 119 121 119
0.9005757324878765 2.7220089396413805 1.3736656697935294 162 163 161
1.8191626043300433 3.831498923672276 1.108472291025586 163 163 161
1.8077248197456148 3.821811484566583 1.1119127816972694 136 134 134
1.7920621980999236 3.816386226806692 1.1165067756671196 79 80 82
1.792986227679608 3.794178307514199 1.1165728710261216 69 70 74
1.7929886296767545 3.772962879837965 1.116889658957032 55 54 59
1.7828090912186998 3.762016076670212 1.1199864621641442 47 46 51
1.754276051253851 3.769405759533396 1.1280969870088666 40 39 44
1.732234443997486 3.7702025688173464 1.1344358214368735 38 38 41
1.896066979921342 3.362962765056497 1.0933255949338017 31 31 33
1.5605562603024654 3.354810773951893 1.1901169204822606 21 21 23
1.5717301197743283 3.3245524244778983 1.1873502455075977 23 23 25
1.6172319476837902 3.047850602148594 1.1783807166554796 29 28 33
1.6367293315936786 3.011638482650186 1.1733049142333263 35 34 39
1.682915635987579 2.9335010622719384 1.1611667366765654 40 40 42
1.6776678112360277 2.919062730736797 1.1628948346027739 41 41 41
1.668365183536766 2.9081170619721037 1.165738960115802 33 33 35
1.6712095719172555 2.8867976417678847 1.165238454313081 27 27 29
1.6937589177788186 2.8487772706945296 1.159310362278084 26 26 28
1.2052990360261295 2.891115988238414 1.2994147333661585 28 30 32
1.2094527213226418 2.868664110297132 1.2985539319430703 24 26 29
1.2067297154473713 2.851735208280623 1.299591834456724 27 28 32
1.2234134214636123 2.819505852072502 1.295267125175203 38 37 43
1.2074219274951445 2.8131446975558028 1.299969881089095 51 49 55
1.2329838483462345 2.7741350607471196 1.2931885920651103 59 57 60
1.2441550396122607 2.7465649041039586 1.2903824581874777 59 57 60
1.25221402766552 2.7215274655798813 1.2884351296523444 50 48 51
1.2511115739071128 2.7036967103233396 1.2890196049549394 31 33 33
1.2684386815696111 2.671639484687016 1.2845069391207669 20 21 21
1.2319727065703652 2.6626232953910494 1.29514865518257 14 13 17
1.1422082481337141 2.6754155493835707 1.3208206915242016 14 14 16
1.1107648125823852 2.6806142312207895 1.3298025641864553 18 18 20
1.0962374157593184 2.672910196782152 1.3341035714016907 37 37 39
1.066978656269392 2.6762734604591647 1.3424834485318253 57 58 58
1.0465010439143785 2.6729401617409705 1.348433460831786 71 73 72
1.0132995047569464 2.6790659228624127 1.3579080153571308 68 69 66
0.9721468878088815 2.6909945651915357 1.3695866437855069 88 89 86
0.9284993952110043 2.7046117458456953 1.3819588422828186 146 147 145
0.8844376939371263 2.7183584540954753 1.3944484467092066 167 167 165
0.8512960986316587 2.7238696322518727 1.4039149268343358 169 169 167
1.830051789389443 3.8250884999110792 1.1213842422888851 163 163 161
1.805955718996615 3.8282894305106976 1.1283160516669175 142 141 141
1.7956474331846284 3.817421757666832 1.131451747968543 84 84 86
1.7972845521188778 3.794482029423449 1.1312969602149499 74 75 79
1.7993669852478966 3.7711641241232314 1.1310185062312583 64 63 68
1.7908531807196653 3.758551372495495 1.133658942141796 54 53 58
1.7814939933409661 3.7467877422029843 1.1365323201133575 45 44 49
1.7602752048160624 3.7468454208964417 1.1426748290965918 38 37 41
1.8597949112327834 3.422130504620972 1.118379901447507 28 28 30
1.8914228664217774 3.3716430163437523 1.1099254121078583 30 30 32
1.6240892859873315 3.026414543783213 1.1921281118699465 33 33 35
1.639117512071074 2.9941681709080297 1.188225797757762 38 37 42
1.6549905652577006 2.9613296558675914 1.184087126751795 41 41 42
1.6684330725736034 2.9307224872134436 1.1806211048263622 43 43 43
1.6679314700412717 2.9121937598263328 1.1810241477130485 37 37 38
1.6676090183281391 2.8935585953106124 1.181376803468493 26 26 28
1.6827285144388195 2.861823269153006 1.177440953697711 26 26 28
1.6645427013806353 2.8584851806468374 1.1827525991454508 27 27 29
1.209553342007069 2.8721357950092647 1.3142922042250686 25 27 29
1.2124747887066443 2.850712915247525 1.3137444688248228 27 28 31
1.2167275755305396 2.828301531156957 1.3128250353598812 32 31 36
1.2257864999076928 2.8021741101601227 1.3105658248590144 46 44 49
1.236029536636547 2.775213281051318 1.307975383925796 58 56 59
1.245744836486721 2.7487678796677892 1.3055305626511484 62 60 63
1.2519969149603272 2.7251228470834974 1.3040494553440478 58 56 59
1.259489679340998 2.7005938798604925 1.3022214413519815 42 40 44
1.2632456020835419 2.679046374733699 1.301433840662414 26 26 29
1.2233102582407156 2.654062401083268 1.3133436508093088 13 13 15
1.1958625248054493 2.6564891021691563 1.3212566142461144 13 13 15
1.1683942714269266 2.6588341791171404 1.3291766544214512 13 13 15
1.1139014980459174 2.681591085357864 1.3446368744412414 17 17 19
1.090574970742579 2.6805398402269653 1.3514050508228999 30 30 32
1.0755340167611835 2.6731691847973758 1.3558623006830883 47 49 48
1.0513314984508537 2.6726484595259756 1.3628767140453433 69 70 69
1.0316099395345857 2.668695009692042 1.3686415545396455 76 76 74
0.9920566012506105 2.6794798129204143 1.3799430612918802 73 73 71
0.9462305180450628 2.694770658330593 1.3929979680356306 118 118 116
0.8927575049799845 2.7155378912216555 1.4081906300363891 163 163 161
1.8267478228990128 3.8331537714137123 1.1382097004724776 161 161 159
1.804171742205888 3.83479221137995 1.1447564549173674 131 130 129
1.7752596248974037 3.842766273458928 1.1530649903997918 78 78 81
1.7992313264374757 3.797163277871566 1.14667775757852 74 75 79
1.8034331424709942 3.7716925901364458 1.1457830064943786 71 70 75
1.8161038538613292 3.737804712855615 1.142532759508041 67 66 71
1.7972423696426278 3.7356179264712974 1.148048069608606 61 60 65
1.781821385544672 3.7299350997445195 1.1526074409752278 54 54 57
1.7804513434268514 3.6892342160860805 1.1535295668531842 44 43 48
1.9092453959609246 3.358780654407253 1.1203115878741532 31 31 33
1.6009101999700261 3.050370772089308 1.2139796347106837 33 33 35
1.6233235844450074 3.0116325220068143 1.2079574430375513 37 36 41
1.6703324638221568 2.932816535863301 1.1952954708118781 42 42 42
1.657299224355498 2.9250232915028236 1.1991873470572012 41 41 42
1.645626994327737 2.9160417205105014 1.2026985645851287 30 30 32
1.680311288945156 2.8675484659982 1.1932320042718714 27 27 29
1.2038489399128998 2.8802361649026125 1.3316811606042658 27 28 29
1.2020959358162224 2.862489443259133 1.3324194282275108 25 25 28
1.202494956487556 2.8430792482527347 1.3325530270798742 27 26 30
1.2133993248472135 2.815436547787307 1.3297363099133017 38 37 41
1.2237488922450024 2.7883363571184505 1.3270740168268214 52 50 53
1.2346254398245624 2.7609266778372845 1.3242623958237303 61 59 62
1.249679081109364 2.73036263358102 1.3202761512573127 59 57 60
1.2583216285505971 2.7049124455449904 1.3180892394805426 51 46 52
1.26852854382075 2.6783426069340286 1.315461624579961 35 33 39
1.2657508931495314 2.6619040511587326 1.3164811547355089 32 32 35
1.206375625503071 2.6518064663463745 1.3338844894591475 14 14 16
1.1676481913140901 2.6627543762482957 1.3450102417197698 14 14 16
1.1058247730556732 2.691084636480436 1.3626314777888058 18 18 20
1.0922370836623134 2.6826363698159867 1.3666930803743425 28 28 30
1.0840047372409203 2.670125350631444 1.3692489682645046 37 39 38
1.0637910095721368 2.666623059981146 1.375174594762565 58 60 59
1.0377876581146919 2.6673990218464985 1.3827295048025414 75 74 72
1.0146892568315824 2.6659189864125254 1.3894683270081947 72 71 69
0.9691441710128769 2.681063050391764 1.4025234926031853 86 85 83
0.9172398891995928 2.7007335641982633 1.4173704489397694 145 145 143
0.8642160339924803 2.721011846446362 1.4325352934272153 167 167 165
1.8271267776084756 3.837469876777746 1.1540436252428277 160 159 157
1.7636989086067354 3.8806877497044248 1.1720743157971472 110 109 109
1.7824797911393275 3.840134810223424 1.1670632999775798 73 73 75
1.8014801540143472 3.799543334833259 1.161988581102289 64 65 69
1.802057420595559 3.7777082412626934 1.1620777390098493 61 61 63
1.823471005140624 3.7349992030285772 1.1563226016374073 63 62 65
1.786285709466437 3.751180075990356 1.1670014416019374 63 63 65
1.7805768568324092 3.73575421578697 1.1688524478075086 63 62 66
1.7851407751285904 3.710127712573858 1.1678210146390242 59 58 64
1.9050650539240541 3.367025672104979 1.1368174259047168 33 33 37
1.6090256767209477 3.0278234126711014 1.227361752464472 37 37 39
1.6636023403612676 2.923335418696959 1.212642123183685 41 41 42
1.6463868109758533 2.9191016658812847 1.2177245519589948 36 36 39
1.6660007370926655 2.8834209807111204 1.2124124735699242 29 28 32
1.1908465433265654 2.874972739973554 1.3514087409030187 23 24 26
1.1929214874410525 2.8541876314496166 1.3510476977528412 23 23 25
1.2057111870419348 2.8250087682736984 1.3476536729125994 30 29 32
1.214203342633349 2.799325796110409 1.3454746092949443 41 40 44
1.2211183860991395 2.7749720825825364 1.3437408646775824 57 56 58
1.2475959436368735 2.7354261141870895 1.3364680726447467 60 58 61
1.252853572176454 2.712583383831511 1.3352009746149494 56 54 59
1.2665376813628133 2.6832800574083286 1.3315469671691935 43 40 47
1.267085293455035 2.6642502579415868 1.331611659095354 30 30 35
1.2633209427072338 2.648591701206086 1.3328969994135529 16 16 20
1.2186047696239166 2.645805567446222 1.3460012836106925 13 13 15
1.170979179116389 2.6635712928759716 1.3597132981644788 14 14 16
1.1199355167937741 2.683731551606043 1.3743961963388525 14 15 17
1.0977089571491174 2.6818510580715786 1.3809156478663756 22 23 25
1.084810908228247 2.6728620582975893 1.3847921624183654 32 33 34
1.0587782847566936 2.673730343595705 1.3923917307600866 50 51 52
1.0496475920545993 2.661843374732256 1.3952012056084158 71 70 70
1.0365376037865879 2.652927756030009 1.3991388072704696 75 74 73
0.991344799085921 2.667869812068363 1.4121730244935253 70 71 68
0.9439528890874779 2.684257115997742 1.4258330109860835 115 116 114
1.767991337357705 3.881048246550802 1.1869582691215352 104 103 103
1.78349057598575 3.8438049394746523 1.1828065304607316 74 74 76
1.811997455721432 3.7935588473809503 1.1749740916085494 58 59 63
1.785165406756645 3.756905834409145 1.1832495021106209 50 50 55
1.7732200382300607 3.747688438466008 1.1868572478292372 52 51 56
1.7670475308766058 3.7327038848179273 1.188831440807017 49 48 53
1.7707684819141782 3.6868963648541984 1.188231345785586 50 49 54
1.5878052132003249 3.050040867221093 1.248822707026457 37 37 39
1.6131663970510122 3.0087685280048397 1.2418176747323633 37 37 39
1.6511515690280576 2.918738052486145 1.2316293011388517 42 42 43
1.6394344164468622 2.9097698580556335 1.2351673344916518 36 36 37
1.6669762185151857 2.8674048761590445 1.2275335685425595 29 29 30
1.6759055115205252 2.822271836835589 1.225396428596843 26 26 28
1.1905438383365916 2.8787714359914727 1.367348483114228 24 24 26
1.189694933957651 2.860282817047976 1.3677967315771489 22 22 24
1.196169674161605 2.8360565909008617 1.366155614962099 23 23 26
1.207293520702702 2.8082557635911307 1.3631874251098282 33 32 37
1.2039436274532496 2.791911310316391 1.3643471933729865 49 48 50
1.2349831327414411 2.748724422280105 1.3556949282822737 59 57 60
1.2480040714678866 2.7197826237690528 1.352181801674096 60 58 61
1.26087640944061 2.6910726867070407 1.348709827444259 52 50 52
1.264321367720349 2.6697696550271623 1.3479271659955798 34 34 36
1.258210896700445 2.655897057153122 1.3498711747897079 22 22 23
1.2272794585826348 2.6425187393677496 1.3591002533897723 14 14 16
1.1881725940211894 2.6538137405427253 1.370465162287227 13 13 15
1.1254606620336087 2.6828974633839398 1.3885719465862076 13 14 16
1.1064725779313989 2.6785710710023034 1.394195651376917 19 20 22
1.0869641851482166 2.6745853739323575 1.39996851530922 29 30 32
1.068117525914794 2.670047035677963 1.4055529611536557 48 48 50
1.0422421958437607 2.6707284562759437 1.4131457039621473 65 63 65
1.0562245039496334 2.641536326464726 1.4093528981647874 74 73 73
1.0122366484076708 2.655635566396107 1.422121277123368 69 71 68
0.9675273924551586 2.6700902764914645 1.4350977207132245 86 87 85
0.9155866068536966 2.6897105034390405 1.4501426282976608 146 146 146
1.7775043002998856 3.8760879874891 1.2003566361337763 110 108 108
1.780787475578026 3.8512544457639564 1.199628702363733 74 74 76
1.8154231092995905 3.7947488202505872 1.1899553829789695 59 60 63
1.7919783969779617 3.7546831213587706 1.1972632138840056 50 49 54
1.7759977200319148 3.7495080900552917 1.2020296581914787 51 50 55
1.7662659037822785 3.738061310392948 1.2050128009541505 52 51 54
1.7444136013432407 3.738649249692723 1.2114561544738014 53 53 56
1.7638597461636079 3.677259760601097 1.2063129580532326 55 55 57
1.9014917789625405 3.3990649513940054 1.168394696403402 37 36 40
1.5437668409042642 3.2898755562914284 1.2750262389831846 13 13 15
1.5289939196047797 3.2830723081764197 1.2794520511121 13 13 15
1.5792903679077055 3.0612595011295087 1.2667611366059077 36 35 38
1.6530171141080177 2.920857575646643 1.2463654092447727 44 44 44
1.6445519499620207 2.9091068470176458 1.2489776868766937 41 41 41
1.670634731038201 2.8303571605239983 1.242044356738297 26 26 28
1.1911578321249465 2.8626690972436224 1.3832341757269928 23 23 25
1.1847867014848252 2.848573389494391 1.385251218393886 20 20 23
1.1935767251078842 2.8225562122021968 1.3829095882365086 30 29 34
1.1940444704409083 2.8031639287079364 1.382959740241414 43 42 45
1.2197765679300252 2.764067876104545 1.375745083728203 54 52 55
1.243609488473285 2.72663679641282 1.3690747551901405 59 57 59
1.2499277922459209 2.702981524080198 1.3674396586674735 57 55 56
1.2549908825148002 2.6803784147599443 1.3661647904395013 45 45 45
1.2769924670703203 2.644784651711697 1.3600170961126348 30 30 31
1.2582980449333925 2.64063464961828 1.3655744744215366 20 20 22
1.2315151758091034 2.6426285816105954 1.3734592940085522 14 14 16
1.2076473080522567 2.642303012193621 1.3805063470563717 14 14 16
1.1368997717669684 2.6775635909174555 1.4010431972427484 13 14 16
1.1352154333904079 2.660140005136749 1.4017093676468717 13 14 16
1.1139373855419625 2.657558432073399 1.408014005605806 20 21 23
1.0812649233096467 2.6634922514493096 1.4175987291961833 40 41 43
1.048761332783962 2.669176419069504 1.4271360380641793 58 56 60
1.0378278695091523 2.6398848145148697 1.4306469871205947 73 75 73
0.988953788446723 2.6575017887479784 1.4448997585392127 70 71 70
0.9459256758591688 2.6705877729669307 1.4574712368501457 117 117 117
0.8583477983420056 2.6973568829640557 1.4830574690640557 169 169 169
0.9360985744058176 2.291646110691294 1.4640488686556046 167 167 167
1.785579913243363 3.872587426184635 1.2141461820512554 118 117 117
1.7887344761113058 3.8478858467131194 1.2134244413836277 77 78 79
1.8180353597622854 3.796765385111452 1.2051782274633636 59 60 64
1.8266007611888537 3.7668451996599717 1.2028971874445133 51 51 53
1.8102609741131523 3.7621193522771255 1.2077831882003323 47 47 49
1.7794925795273802 3.7718280571381246 1.2168227501417628 47 47 49
1.7768117023909813 3.7532953848776724 1.2177779931773514 50 50 52
1.766519430254729 3.742394521547667 1.220924177957467 53 53 55
1.7539213734065526 3.733777778935207 1.2247343242568527 58 58 60
1.7574010788199397 3.709209597160545 1.2239150174800377 60 60 62
1.7671090132714986 3.678571938682268 1.2213013959506582 61 61 64
1.8831174434253624 3.4413276261983836 1.1889543001525356 44 44 46
1.9160263357802771 3.389312323905224 1.1796459684715352 40 40 44
1.5258553529798136 3.310011594511142 1.2960265897694403 13 13 15
1.5202115878275424 3.2949742057226077 1.2978301644804748 13 13 15
1.6462055969786973 2.9114022605672147 1.2637877968447624 46 46 46
1.6324153711860676 2.9041774029378664 1.267939409423009 33 33 33
1.6185688304641868 2.8780265278580264 1.2722714240906883 26 26 28
1.186424229840975 2.850814464050382 1.400647642730843 19 18 21
1.1859660038691908 2.8320649972916625 1.4009456936150646 23 22 26
1.199729498018196 2.8021964186922017 1.3971228528007886 35 34 37
1.199900328614942 2.783084513391962 1.3972375088661373 48 46 49
1.2244688136640405 2.7449979143561896 1.3902818219693398 56 54 58
1.243967314892726 2.711029535017224 1.3847938810856817 58 56 60
1.2490322585907332 2.688389608987812 1.3834878358494356 51 51 54
1.2608074323419438 2.6606448747829177 1.3802362073952494 40 40 43
1.2716663035069962 2.6337139729871 1.3772492444323892 29 29 31
1.2333036466080411 2.626056531979249 1.3886908914238676 13 13 15
1.1466609338984664 2.6735008732476455 1.4139720777103293 13 14 16
1.136273638018488 2.6626889628160684 1.4171456698113187 14 15 17
1.117290278036994 2.6583683571524426 1.42281204572322 18 19 21
1.0939527520871672 2.6572760733586125 1.42974160844504 34 35 37
1.0552775480362055 2.667625094530174 1.4411201832945844 53 51 55
1.065741866941821 2.6410524658268306 1.4382471152425182 66 66 68
1.0107442757720895 2.6446277853996056 1.4545242445800246 65 66 65
0.9679380632248547 2.657608103781924 1.4671049989546188 83 83 83
0.9259306389960149 2.669825891424255 1.4794554897879324 140 140 140
0.8248894482515796 2.7062346334418823 1.5091016110537012 169 169 167
1.763636531658088 3.9430892680980163 1.2363019250548417 167 165 166
1.7799086093896732 3.904712420364645 1.2317454585804652 162 161 160
1.7979197015334096 3.8647293024403826 1.226683090326986 122 122 121
1.8018924511043632 3.8392105645795063 1.2256932847821715 76 77 78
1.8019342692201061 3.8177652507981756 1.225843677373829 60 61 63
1.8314296253807085 3.7666038824561583 1.2174447213523094 50 50 52
1.7964555956576365 3.7806602857077 1.2277576900718898 43 43 45
1.7793477514757876 3.7766022812478615 1.2328853956109112 41 41 43
1.773362868695553 3.7613562678392674 1.2347842293155078 44 44 46
1.7821690063482374 3.68920827702482 1.232708519663914 54 54 56
1.7772100179943537 3.6731154862102726 1.2343081419035424 53 52 57
1.9129135931665955 3.3965921504080314 1.1959782352789632 35 36 40
1.9371557811228501 3.3531308960007773 1.189085867170308 32 33 38
1.5301551654739032 3.3102183618543086 1.3106682368621847 13 13 15
1.4981576988681162 3.3187774617510613 1.3201361522562214 13 13 15
1.473627582442562 3.3205354367617135 1.3274309882507 13 13 15
1.653643560420761 2.9087569146972694 1.2769263176278798 47 47 47
1.6424842074230095 2.8993013540700465 1.280322794562193 42 42 42
1.6210555042559593 2.8795949978902264 1.2868566313482772 26 26 28
1.688056213353907 2.785512721973271 1.26760974806088 26 27 29
1.1863894611543067 2.816173515606667 1.4168370215348904 27 27 29
1.1848145010267706 2.7983750728516625 1.417441402535403 39 39 41
1.2058454333918558 2.7629788392613355 1.4114445102703717 51 50 53
1.2261484807401009 2.7283085304691905 1.4056589621303484 57 55 58
1.232108053981893 2.704908412784942 1.4040611396622498 56 56 56
1.2465368033028725 2.6750468820589464 1.3999891870380048 47 47 48
1.2546138827376858 2.650196971800512 1.3977715115846274 36 36 38
1.2449605470189296 2.620490623448092 1.400873085557582 15 15 17
1.1570779978856383 2.66893394413512 1.4266878071706186 14 14 16
1.1425240820682074 2.6613000825454454 1.4310817826465714 12 13 15
1.1389243033185048 2.6453502750266193 1.432275373766155 18 19 21
1.103500173632644 2.6534201637234403 1.442767899819505 33 34 36
1.0695038997315205 2.660279774260001 1.4528442195889903 48 48 50
1.0769869203157123 2.6359544135536965 1.4507995470256723 61 61 61
1.0844200082182447 2.611751545670197 1.448768820574346 69 69 68
1.0357769199346825 2.6293278039922745 1.4631274427903334 71 71 70
0.9984281516739114 2.638331356849914 1.4741862807186554 63 63 63
0.9565000553308927 2.650570914190532 1.4865848508840138 104 104 104
0.9036832733775471 2.670654522242955 1.5021678891209151 152 152 152
1.766315200070178 3.9451439992438444 1.251760377834769 168 166 167
1.7844598971083876 3.90482144314678 1.2465926706752062 161 160 160
1.8024534527552125 3.8648349166295644 1.2414680084056806 123 123 124
1.8113976806711003 3.834242885012942 1.238990691075347 79 79 81
1.804376549671055 3.819974576059476 1.2411856143497626 63 64 68
1.8070192340591096 3.7959434360044106 1.2405516644554446 50 49 54
1.7950494152973482 3.7867246988084764 1.2441948811330148 44 43 48
1.7563506838480039 3.7830176738144363 1.2558028961496817 37 37 40
1.761847501298158 3.756252561234718 1.2543324838137153 38 38 40
1.7857548667200884 3.690194690354355 1.2476080547674755 39 39 41
1.788951806349075 3.6660292779580024 1.2468090760840536 35 34 39
1.9027524549100208 3.410695326357861 1.214413972835581 26 27 31
1.9253384884161648 3.3687604515822804 1.2079273696803097 27 28 32
1.4985313695660052 3.3225151986860553 1.3359868523053333 13 13 15
1.5082678658467863 3.2735902625559814 1.333392225218531 13 13 15
1.6590614220596507 2.8888712380748442 1.2907697353357197 46 46 46
1.6400242577688728 2.8861298152077426 1.2964860951054584 35 35 37
1.6257097651288088 2.8793305011179986 1.300815332811994 28 28 30
1.611424750169534 2.872474435037369 1.3051361178815535 27 28 30
1.1711271833468848 2.8125896864458397 1.4373228891028471 36 36 38
1.1932204574853436 2.7762997317732934 1.4309468840484012 47 45 48
1.2093182189625253 2.7448404129800306 1.426333952134697 55 53 56
1.2117210216760566 2.724133274554741 1.4257500776600507 55 55 55
1.2239798318010324 2.6958703539329756 1.422265373295987 54 54 54
1.2360790587500161 2.6678424785533 1.4188269008536043 42 42 44
1.2355630906198467 2.6496069389389207 1.4191005521309838 29 29 31
1.2389331269143233 2.6284433957892803 1.418230136862046 19 19 21
1.2299765087558607 2.616739344522472 1.4209876515619757 17 18 20
1.145749798226888 2.6622073911446678 1.4459022072363252 13 14 16
1.1417126813867267 2.6465818256867424 1.4472127908921826 20 21 23
1.1279074882864344 2.6383504044922343 1.4513989404228211 37 38 40
1.1128990787254418 2.630998237890167 1.4559395038976608 46 45 49
1.0933829670173836 2.626991631241758 1.461807498602661 56 56 58
1.1022361807324255 2.6017507822197166 1.4593224442034285 65 65 65
1.057693525352152 2.616327805373595 1.4725602122878696 74 74 73
1.017328954126787 2.6276239260433147 1.4845687918062938 68 68 68
0.9772628252815462 2.6385384666909646 1.4964905322456237 71 71 71
0.9368545935580759 2.649545942813154 1.5085140676267 109 109 109
0.8931708219850092 2.6627966751273844 1.5215034139358992 153 153 153
1.7745646879508592 3.941470046218888 1.265586545111009 168 166 167
1.7920197582372939 3.9018454527368 1.2605542370012348 162 161 162
1.807228597844079 3.864694405985045 1.256183904832537 130 130 132
1.798499044899882 3.852098017900531 1.2588782391925615 82 83 86
1.8151102762210034 3.8137659997698377 1.2540926240287833 66 67 71
1.8178729465523573 3.789623917183986 1.2533940606990177 55 54 60
1.813348160099603 3.7729137134696975 1.2548463985291427 47 46 52
1.7995797943552765 3.765531005200272 1.2590275332339869 41 40 46
1.7738793440189988 3.7700805247518145 1.2667317311538107 37 36 41
1.767940419905127 3.7547738903535604 1.2686016647850415 35 35 37
1.7861092546316097 3.6943912850812617 1.2634684371052192 29 29 31
1.833881382996786 3.5226018804714707 1.2500427664087765 21 22 24
1.8935410234945405 3.4238999781987176 1.2326415975688618 24 25 27
1.9129282752966401 3.384983787271752 1.2270243258060438 26 27 29
1.9227350968022396 3.355451448385979 1.2242368463358897 28 29 31
1.4870986442838174 3.3166358964836515 1.3554623595504056 13 13 15
1.6785259313219774 2.8759650138269555 1.30030724570347 45 45 45
1.6573475781006084 2.8750917421479674 1.3066811855564722 46 46 48
1.6309368318468764 2.8785807456620374 1.3146048078749974 30 30 32
1.6435965350302086 2.848974810341765 1.3109597591056974 26 27 29
1.1801865074599474 2.789957241416325 1.4506485579959336 40 39 42
1.195509885228311 2.759040763849544 1.4462096193299447 51 49 52
1.193012787741284 2.742080064082205 1.4470535246914278 56 56 56
1.2057708865120917 2.7133582904338427 1.4433740400462427 55 55 55
1.2133421023027688 2.6887483886130656 1.441231923231362 47 47 49
1.2221524799224772 2.663274131501127 1.4387218781994624 36 36 38
1.2304300579796033 2.6383010418623227 1.4363693207375545 27 27 29
1.2277362253559625 2.621785653897433 1.437269952061321 21 22 24
1.21059126004839 2.6162860567133057 1.4424562437334663 15 16 18
1.1459068638495995 2.6467505365962536 1.4617424382453892 16 17 19
1.1454122963299977 2.6284725817839485 1.461991322407699 28 29 32
1.1241603704275032 2.6258525226337133 1.4683969594167618 40 39 44
1.1072229285378608 2.6199343340436476 1.4735231342643373 51 50 54
1.1277447287660503 2.5859917580741465 1.4675374082340944 60 60 62
1.0826597025133065 2.6010420638614686 1.4810137666907914 70 70 70
1.0457021844287748 2.6098765309766447 1.4920799249232144 70 70 70
1.007292034500321 2.6196410870256694 1.5035778499465255 70 70 70
0.9692588149886351 2.628977193985648 1.5149647648799318 70 70 70
0.9266261330510501 2.641541858780128 1.5277172272706823 109 109 109
0.8791362996739587 2.6574889677149143 1.5419118910609149 153 153 153
1.7943106929073822 3.9042735300531524 1.2760711493261967 161 160 160
1.8116215899906536 3.864945153978317 1.271014566503239 119 120 121
1.8203376337202812 3.7917949755630453 1.2687043982012365 65 65 69
1.8235823720137887 3.767227410103806 1.2678326105167939 56 55 59
1.8054154021064992 3.7642927906718184 1.2733346741243396 48 47 51
1.7904391989752693 3.7580975336729545 1.2778870713156263 43 42 46
1.7971129422844478 3.7302134994934963 1.2759938810985774 41 40 44
1.8238536337161038 3.5573990651235112 1.2686781838222192 26 25 29
1.881886314571421 3.439488354587265 1.2516650142336438 29 28 32
1.9042971738973016 3.397584213463272 1.2450788803099353 29 28 32
