ply
format ascii 1.0
element vertex 881
property float x
property float y
property float z
property float nx
property float ny
property float nz
property uchar diffuse_red
property uchar diffuse_green
property uchar diffuse_blue
property uchar class
property uchar detection
end_header
0.7398 2.0567 0.5553 -0.747 -0.618 -0.245 40 40 42 0 0
1.2309 2.2847 0.5056 0.363 -0.648 0.670 41 40 43 0 0
0.7570 2.0779 0.5656 -0.098 -0.993 0.065 41 41 43 0 0
0.4839 2.5079 0.5766 -0.400 -0.890 -0.219 39 39 41 0 0
0.4432 2.5104 0.5809 0.371 -0.929 -0.013 54 54 54 0 0
1.2351 2.2998 0.5180 0.368 -0.639 0.675 45 43 46 0 0
0.8009 2.0070 0.5768 0.140 -0.822 -0.552 45 45 47 0 0
0.4857 2.5116 0.5900 -0.576 -0.799 -0.174 43 43 44 0 0
0.4734 2.5276 0.5907 -0.119 -0.952 0.283 48 48 48 0 0
0.4442 2.5066 0.5947 -0.076 -0.969 0.235 66 66 66 0 0
0.4305 2.5059 0.5962 0.712 -0.695 -0.098 142 142 140 0 0
0.5361 2.4544 0.6006 -0.769 -0.577 -0.274 31 31 33 0 0
0.4871 2.5127 0.6035 -0.679 -0.721 0.142 48 48 50 0 0
1.2908 2.3610 0.5368 -0.031 -0.988 0.152 98 97 100 0 0
1.2760 2.3558 0.5386 0.267 -0.922 0.281 77 75 78 0 0
1.0712 2.2799 0.5634 0.316 -0.404 0.859 36 36 38 0 0
1.2924 2.3617 0.5503 0.058 -0.915 0.399 102 100 104 0 0
1.2787 2.3623 0.5517 0.229 -0.855 0.465 94 92 96 0 0
1.1563 2.2170 0.5701 0.536 -0.729 0.426 35 33 36 0 0
0.8757 2.0459 0.6063 -0.050 -0.968 0.244 49 49 51 0 0
0.5644 2.4379 0.6254 0.039 -0.841 -0.540 34 34 36 0 0
0.5128 2.4670 0.6299 -0.770 -0.379 -0.513 40 39 42 0 0
0.4759 2.5098 0.6323 0.188 -0.616 -0.765 85 85 85 0 0
1.2802 2.3625 0.5652 -0.448 -0.815 0.367 102 100 103 0 0
1.2724 2.3940 0.5650 0.394 -0.592 0.703 92 90 94 0 0
1.1785 2.2570 0.5797 0.746 -0.560 0.361 44 42 46 0 0
1.1618 2.2399 0.5821 0.656 -0.715 0.242 37 35 38 0 0
1.1240 2.2555 0.5856 0.457 -0.728 0.510 28 28 30 0 0
1.1101 2.2536 0.5871 -0.534 -0.735 0.418 28 28 30 0 0
0.7417 2.0107 0.6349 -0.428 -0.855 0.294 55 53 56 0 0
0.5786 2.4309 0.6378 -0.360 -0.933 0.021 35 35 37 0 0
0.5647 2.4273 0.6394 -0.208 -0.764 -0.611 33 33 35 0 0
0.4772 2.5087 0.6459 0.486 -0.327 -0.811 101 101 101 0 0
1.1817 2.2670 0.5925 0.759 -0.523 0.387 48 46 50 0 0
1.1109 2.2497 0.6006 0.407 -0.894 0.187 28 28 30 0 0
0.7434 2.0133 0.6476 -0.230 -0.916 0.329 59 57 60 0 0
0.7193 2.4560 0.6356 0.619 -0.416 -0.666 42 42 44 0 0
0.7046 2.4475 0.6374 0.436 -0.444 -0.783 42 42 44 0 0
0.5646 2.4138 0.6535 -0.208 -0.713 -0.670 33 33 35 0 0
1.1821 2.2616 0.6061 0.519 -0.737 0.434 54 52 56 0 0
1.1662 2.2486 0.6082 0.446 -0.859 0.252 44 42 47 0 0
1.1524 2.2468 0.6097 0.563 -0.779 0.275 35 34 39 0 0
1.1423 2.2664 0.6102 0.387 -0.806 0.447 30 29 34 0 0
1.1128 2.2530 0.6138 0.472 -0.882 0.016 29 29 31 0 0
0.7026 2.4195 0.6522 0.436 -0.444 -0.783 44 44 45 0 0
1.2460 2.3775 0.6094 0.858 -0.287 0.427 85 84 83 0 0
1.1841 2.2647 0.6193 0.549 -0.748 0.372 59 58 57 0 0
1.1685 2.2536 0.6213 0.446 -0.859 0.252 47 47 49 0 0
1.1547 2.2521 0.6228 0.307 -0.931 0.197 38 37 42 0 0
1.1427 2.2610 0.6238 0.353 -0.920 0.170 33 33 34 0 0
1.1144 2.2541 0.6270 0.472 -0.882 0.016 29 29 31 0 0
0.9433 2.1083 0.6495 0.903 -0.396 -0.169 46 46 46 0 0
0.7173 2.4167 0.6643 0.150 -0.861 -0.487 48 48 48 0 0
0.6921 2.3210 0.6699 -0.891 -0.431 0.143 47 47 47 0 0
0.5026 2.4457 0.6863 -0.075 -0.589 -0.804 89 87 87 0 0
0.4872 2.4259 0.6885 0.488 -0.392 -0.780 161 161 158 0 0
1.1703 2.2556 0.6345 0.482 -0.854 0.196 53 52 54 0 0
1.1570 2.2573 0.6358 -0.128 -0.990 -0.059 42 41 46 0 0
1.1448 2.2646 0.6369 0.378 -0.911 0.167 35 34 36 0 0
1.1166 2.2587 0.6401 0.474 -0.880 -0.019 29 29 31 0 0
1.1017 2.2507 0.6419 0.616 -0.704 0.355 29 29 31 0 0
0.9312 2.1072 0.6640 0.739 -0.672 -0.040 55 55 55 0 0
0.9163 2.0963 0.6659 0.576 -0.793 0.200 61 60 59 0 0
0.7130 2.3701 0.6797 0.125 -0.725 -0.678 50 50 50 0 0
0.6996 2.3712 0.6811 -0.205 -0.660 -0.723 49 49 49 0 0
0.6153 2.3433 0.6909 -0.942 -0.300 -0.152 44 44 44 0 0
0.5297 2.4306 0.6975 -0.243 -0.688 -0.684 52 51 54 0 0
0.5156 2.4257 0.6991 -0.122 -0.661 -0.740 71 69 71 0 0
0.5019 2.4239 0.7006 0.483 -0.485 -0.729 118 116 116 0 0
1.1748 2.2729 0.6470 -0.229 -0.961 -0.154 59 55 59 0 0
1.1325 2.2640 0.6517 0.478 -0.878 -0.001 33 33 35 0 0
1.1052 2.2625 0.6547 0.271 -0.721 0.638 29 29 31 0 0
0.9169 2.0913 0.6791 0.762 -0.648 0.009 65 64 62 0 0
0.5290 2.4100 0.7117 -0.054 -0.734 -0.677 56 54 58 0 0
0.5154 2.4097 0.7131 0.056 -0.721 -0.691 78 76 78 0 0
0.5033 2.4247 0.7140 0.801 -0.320 -0.506 147 145 145 0 0
0.5293 2.3995 0.7255 0.147 -0.731 -0.666 62 61 64 0 0
1.1734 2.2493 0.6747 0.696 -0.700 -0.160 67 65 68 0 0
0.5425 2.3826 0.7381 -0.406 -0.828 -0.387 51 51 53 0 0
0.8424 1.9139 0.7302 0.016 -0.764 -0.645 84 82 85 0 0
0.5432 2.3759 0.7517 -0.406 -0.828 -0.387 54 54 56 0 0
1.0783 2.3111 0.7104 -0.651 -0.255 0.715 36 36 37 0 0
0.9496 2.0966 0.7282 0.934 -0.341 -0.106 45 45 45 0 0
0.8012 1.8868 0.7479 0.714 -0.586 -0.384 82 80 83 0 0
0.7856 1.8664 0.7499 0.714 -0.586 -0.384 75 73 78 0 0
0.5543 2.3394 0.7648 0.271 -0.745 -0.610 47 47 49 0 0
0.5436 2.3666 0.7654 -0.081 -0.823 -0.562 61 61 63 0 0
0.9489 2.0835 0.7416 0.942 -0.333 -0.037 47 47 47 0 0
0.9512 2.0892 0.7545 0.946 -0.321 0.052 49 49 49 0 0
0.9312 2.0458 0.7573 0.940 -0.339 -0.035 59 59 59 0 0
0.9332 2.0499 0.7701 0.935 -0.342 0.096 48 48 51 0 0
0.9174 2.0324 0.7720 0.724 -0.385 0.573 52 52 54 0 0
0.8987 1.9954 0.7745 0.818 -0.430 0.382 52 52 54 0 0
0.5561 2.3178 0.8054 0.099 -0.819 -0.566 60 59 61 0 0
0.5445 2.3355 0.8064 -0.412 -0.835 -0.365 77 75 78 0 0
0.7852 1.8264 0.8016 0.518 -0.807 -0.282 46 46 48 0 0
0.5569 2.3120 0.8189 0.136 -0.792 -0.596 65 65 67 0 0
0.8085 1.8022 0.8121 0.045 -0.424 -0.905 45 45 47 0 0
0.7805 1.7840 0.8153 0.401 -0.339 -0.851 46 46 48 0 0
0.5572 2.3018 0.8324 0.136 -0.792 -0.596 67 67 68 0 0
0.7814 1.7806 0.8278 0.331 -0.544 -0.771 45 45 47 0 0
0.7671 1.7690 0.8294 -0.303 -0.509 -0.806 46 46 48 0 0
0.5574 2.2917 0.8459 0.136 -0.792 -0.596 71 71 72 0 0
0.5579 2.2832 0.8593 -0.226 -0.841 -0.492 76 74 76 0 0
0.8678 1.9097 0.8562 0.712 -0.212 -0.669 41 42 44 0 0
0.7628 1.7107 0.8680 -0.412 -0.903 0.121 48 48 50 0 0
0.7419 1.7411 0.8700 -0.528 -0.837 0.142 48 48 50 0 0
0.7234 1.7908 0.8717 -0.769 -0.361 -0.527 40 40 42 0 0
0.5484 2.2948 0.8871 0.545 -0.701 -0.460 130 129 127 0 0
0.9068 1.9872 0.8647 0.642 -0.258 -0.722 40 41 43 0 0
0.8249 1.7833 0.8739 -0.296 -0.688 0.662 45 45 47 0 0
0.7629 1.7017 0.8806 -0.660 -0.746 0.087 51 51 53 0 0
0.5489 2.2865 0.9005 0.503 -0.607 -0.615 141 140 138 0 0
0.8754 1.8572 0.8812 0.392 -0.401 -0.828 40 42 45 0 0
0.8589 1.8323 0.8830 0.318 -0.427 -0.847 43 45 47 0 0
0.7641 1.7013 0.8929 -0.622 -0.779 0.081 52 51 54 0 0
0.7539 1.7183 0.8940 -0.722 -0.689 0.069 51 51 54 0 0
0.8903 1.8619 0.8925 0.469 -0.332 -0.819 38 39 43 0 0
0.8722 1.8273 0.8943 0.395 -0.350 -0.850 44 46 50 0 0
0.8559 1.8036 0.8960 0.282 -0.432 -0.856 47 50 53 0 0
0.7968 1.7462 0.9021 0.242 -0.738 -0.630 61 60 59 0 0
0.7829 1.7368 0.9035 0.407 -0.745 -0.529 65 63 63 0 0
0.7819 1.7207 0.9162 0.333 -0.930 0.154 98 97 94 0 0
0.7687 1.7161 0.9175 0.334 -0.934 0.131 102 101 99 0 0
0.7013 1.7762 0.9245 -0.862 -0.498 0.093 50 50 51 0 0
1.0083 1.7843 0.9058 -0.611 -0.764 0.209 62 62 62 0 0
1.0033 1.8299 0.9064 -0.697 -0.707 -0.123 59 59 59 0 0
0.8817 1.7887 0.9187 0.472 -0.389 -0.791 60 61 65 0 0
1.0206 1.7738 0.9172 -0.578 -0.646 0.499 70 70 71 0 0
1.0105 1.7895 0.9183 -0.758 -0.442 0.480 62 62 63 0 0
1.0137 1.8002 0.9307 -0.714 -0.347 0.608 59 59 61 0 0
0.6747 1.7351 0.9648 -0.779 -0.627 0.017 47 45 47 0 0
1.6531 3.5102 0.8921 0.859 -0.391 -0.330 57 57 59 0 0
1.0409 1.8020 0.9407 0.409 -0.912 0.038 82 82 83 0 0
1.0425 1.8037 0.9533 0.427 -0.903 0.039 76 76 77 0 0
0.6588 1.6878 0.9911 -0.765 -0.091 -0.637 28 27 31 0 0
0.9275 1.7955 0.9776 -0.181 -0.648 -0.739 25 25 27 0 0
0.6217 1.7840 1.0084 -0.673 -0.560 -0.484 40 41 45 0 0
0.6116 1.8048 1.0096 -0.613 -0.673 -0.414 50 51 55 0 0
0.5915 1.8504 1.0121 -0.715 -0.362 -0.598 44 44 46 0 0
1.6804 3.5412 0.9368 0.804 -0.492 -0.335 67 66 70 0 0
0.9239 1.7647 0.9903 -0.251 -0.459 -0.852 19 19 21 0 0
0.6116 1.7944 1.0221 -0.537 -0.795 -0.282 35 36 39 0 0
0.6005 1.8076 1.0234 -0.547 -0.672 -0.499 48 49 53 0 0
0.8471 1.6675 1.0093 0.524 -0.623 0.581 19 19 20 0 0
0.7636 1.6070 1.0168 0.105 -0.995 -0.005 8 8 10 0 0
0.6511 1.6953 1.0294 -0.273 -0.652 0.708 18 18 20 0 0
0.6137 1.8012 1.0347 0.090 -0.957 0.276 27 28 29 0 0
0.5393 1.9315 1.0440 -0.695 -0.601 -0.395 64 64 67 0 0
0.8203 1.6468 1.0241 0.028 -0.900 0.435 12 12 14 0 0
0.8059 1.6336 1.0253 0.225 -0.930 0.290 8 8 10 0 0
0.7783 1.6146 1.0278 0.004 -0.953 0.302 8 8 10 0 0
0.5585 1.8613 1.0538 -0.898 -0.406 -0.168 38 38 41 0 0
0.5275 1.9285 1.0580 0.723 -0.690 0.026 87 86 87 0 0
0.8372 1.6677 1.0352 0.580 -0.673 0.459 13 13 15 0 0
0.6035 1.8000 1.0610 -0.431 -0.725 -0.537 23 23 25 0 0
0.5587 1.8519 1.0664 -0.894 -0.446 -0.039 35 36 39 0 0
0.8446 1.7085 1.0478 0.672 -0.728 -0.134 13 13 15 0 0
0.8263 1.6703 1.0489 0.532 -0.816 -0.227 10 10 12 0 0
0.6170 1.6917 1.0702 -0.310 -0.950 -0.037 14 14 16 0 0
0.5902 1.7831 1.0747 -0.184 -0.704 -0.686 21 22 23 0 0
0.8102 1.6370 1.0623 0.449 -0.894 0.018 8 8 10 0 0
0.5995 1.7445 1.0855 -0.508 -0.743 -0.436 14 14 16 0 0
0.5182 1.9259 1.0975 0.636 -0.738 0.226 110 109 110 0 0
0.9047 1.6745 1.0661 0.219 -0.963 0.155 19 19 21 0 0
0.7537 1.5798 1.0790 -0.419 -0.885 -0.204 8 7 12 0 0
0.6582 1.7016 1.0913 -0.371 -0.818 -0.439 8 8 10 0 0
0.6467 1.7101 1.0926 -0.597 -0.608 -0.523 10 10 12 0 0
0.5196 1.9261 1.1102 0.451 -0.880 0.152 96 94 95 0 0
0.8940 1.6779 1.0798 -0.576 -0.649 0.497 16 16 18 0 0
0.6577 1.6878 1.1035 -0.496 -0.827 -0.265 7 7 9 0 0
0.6442 1.6797 1.1047 -0.083 -0.975 -0.205 10 10 12 0 0
0.5836 1.6932 1.1110 -0.747 -0.511 0.425 28 27 30 0 0
0.5731 1.7104 1.1125 -0.726 -0.557 0.403 48 49 51 0 0
0.5204 1.9217 1.1229 -0.074 -0.986 -0.148 81 79 80 0 0
0.6705 1.6805 1.1146 -0.466 -0.722 -0.512 7 7 9 0 0
0.5857 1.7003 1.1235 -0.726 -0.445 0.524 46 44 47 0 0
0.5223 1.9277 1.1357 -0.013 -0.973 -0.232 72 70 72 0 0
1.0229 1.7536 1.0942 0.143 -0.989 -0.022 27 27 29 0 0
0.6840 1.6786 1.1257 0.299 -0.952 0.060 8 8 10 0 0
0.5438 1.8779 1.1450 -0.867 -0.493 0.073 36 35 38 0 0
0.5234 1.9260 1.1484 0.059 -0.981 -0.185 70 68 69 0 0
0.6854 1.6798 1.1380 0.299 -0.952 0.060 8 8 10 0 0
0.6421 1.6323 1.1409 -0.433 -0.659 0.615 11 11 13 0 0
0.6250 1.6949 1.1445 -0.373 -0.892 0.254 30 28 31 0 0
0.6131 1.7004 1.1458 -0.476 -0.871 0.125 33 31 34 0 0
0.6015 1.7077 1.1471 -0.549 -0.835 0.045 44 42 45 0 0
0.5900 1.7156 1.1485 -0.275 -0.961 0.013 35 33 36 0 0
0.5368 1.9199 1.1597 -0.061 -0.995 -0.082 34 32 35 0 0
0.5245 1.9240 1.1611 0.022 -0.992 -0.122 72 71 72 0 0
0.8816 1.7264 1.1327 -0.530 -0.846 0.058 15 14 19 0 0
0.8706 1.7371 1.1341 -0.029 -0.999 -0.041 12 11 16 0 0
0.7275 1.6130 1.1443 -0.465 -0.800 0.379 9 8 13 0 0
0.6854 1.6700 1.1502 0.033 -0.660 0.751 8 8 10 0 0
0.6381 1.6902 1.1555 -0.559 -0.745 0.364 23 22 25 0 0
0.5473 1.8867 1.1705 -0.831 -0.533 0.157 21 19 22 0 0
0.5379 1.9181 1.1724 -0.203 -0.972 0.122 33 31 34 0 0
0.5256 1.9228 1.1738 0.528 -0.849 -0.028 73 72 73 0 0
1.1058 1.8376 1.1268 0.859 -0.512 -0.000 84 83 86 0 0
0.8833 1.7290 1.1452 -0.617 -0.736 -0.278 15 14 19 0 0
0.8725 1.7409 1.1466 -0.406 -0.901 -0.151 12 11 16 0 0
0.6465 1.6471 1.1658 -0.494 -0.723 0.484 10 10 12 0 0
0.5399 1.9243 1.1853 -0.096 -0.982 0.160 37 35 38 0 0
0.5270 1.9232 1.1865 0.528 -0.849 -0.028 74 74 75 0 0
1.7489 3.5367 1.1345 0.812 -0.474 -0.341 110 110 112 0 0
1.6243 3.2468 1.1369 0.877 -0.398 -0.270 41 41 41 0 0
0.8743 1.7447 1.1592 -0.425 -0.874 0.234 12 11 15 0 0
0.6926 1.7055 1.1757 0.205 -0.740 0.640 8 8 10 0 0
0.5406 1.9190 1.1979 -0.684 -0.660 0.310 41 40 39 0 0
0.5283 1.9236 1.1993 0.528 -0.849 -0.028 85 85 85 0 0
1.1104 1.8481 1.1524 0.847 -0.527 0.071 83 84 86 0 0
1.0918 1.8165 1.1531 0.853 -0.507 0.120 71 72 74 0 0
1.0791 1.8173 1.1544 0.783 -0.567 -0.253 44 45 47 0 0
0.7359 1.6468 1.1819 -0.092 -0.996 0.000 9 9 11 0 0
0.6901 1.6770 1.1875 -0.218 -0.768 0.603 9 9 11 0 0
0.5520 1.8939 1.2087 -0.908 -0.316 0.274 47 44 45 0 0
0.5418 1.9182 1.2106 -0.716 -0.648 0.259 43 40 41 0 0
0.5296 1.9238 1.2120 0.553 -0.828 -0.095 98 97 97 0 0
1.1127 1.8529 1.1653 0.820 -0.571 -0.018 77 78 80 0 0
0.9430 1.6834 1.1755 -0.088 -0.991 -0.102 23 23 25 0 0
0.9349 1.7112 1.1773 -0.278 -0.836 0.474 18 18 20 0 0
0.8011 1.6579 1.1884 0.136 -0.973 0.188 8 8 10 0 0
0.7757 1.6548 1.1908 0.136 -0.973 0.188 10 10 12 0 0
0.7390 1.6598 1.1946 -0.126 -0.951 0.281 9 9 11 0 0
0.7268 1.6618 1.1958 -0.126 -0.951 0.281 9 9 11 0 0
0.7137 1.6573 1.1969 -0.226 -0.864 -0.451 8 8 10 0 0
0.5435 1.9216 1.2234 -0.788 -0.512 0.343 50 45 48 0 0
0.5311 1.9260 1.2248 0.286 -0.955 0.074 114 112 113 0 0
1.1158 1.8625 1.1782 0.835 -0.549 0.034 73 73 75 0 0
0.9675 1.6719 1.1852 -0.134 -0.966 0.222 25 24 27 0 0
0.9556 1.6758 1.1865 -0.359 -0.920 0.159 21 20 24 0 0
0.9438 1.6806 1.1879 -0.365 -0.864 0.346 19 19 21 0 0
0.7783 1.6642 1.2034 0.201 -0.934 0.297 11 11 13 0 0
0.7661 1.6666 1.2047 -0.182 -0.922 0.343 12 12 14 0 0
0.7528 1.6607 1.2057 0.168 -0.965 0.201 10 10 12 0 0
0.7418 1.6713 1.2072 -0.161 -0.917 0.364 10 10 12 0 0
0.7294 1.6718 1.2084 -0.223 -0.968 -0.115 10 10 12 0 0
0.6953 1.6970 1.2127 -0.769 -0.592 0.241 9 9 11 0 0
0.5454 1.9277 1.2364 -0.824 -0.442 0.353 63 58 60 0 0
0.5328 1.9298 1.2377 -0.261 -0.927 0.270 128 127 127 0 0
1.7731 3.5438 1.1956 0.874 -0.383 -0.300 133 134 136 0 0
1.6183 3.1879 1.1961 0.901 -0.397 -0.174 43 43 45 0 0
1.1368 1.8992 1.1906 0.858 -0.509 0.072 78 77 75 0 0
1.1004 1.8417 1.1918 0.806 -0.558 0.197 57 57 59 0 0
0.7787 1.6583 1.2156 0.158 -0.881 0.446 10 10 12 0 0
0.7416 1.6603 1.2193 0.082 -0.888 0.453 10 10 12 0 0
0.7306 1.6711 1.2208 -0.394 -0.919 -0.014 10 10 12 0 0
0.5574 1.9079 1.2473 -0.838 -0.310 0.450 54 50 51 0 0
0.5477 1.9371 1.2494 -0.838 -0.310 0.450 78 74 73 0 0
1.6199 3.1879 1.2112 0.908 -0.387 -0.160 41 41 43 0 0
1.1394 1.9059 1.2035 0.865 -0.486 0.126 74 73 71 0 0
1.1042 1.8554 1.2048 0.775 -0.536 0.334 43 43 45 0 0
0.9486 1.6941 1.2131 0.275 -0.888 0.370 26 27 29 0 0
0.8214 1.6006 1.2215 0.111 -0.985 0.135 10 10 12 0 0
0.7552 1.6595 1.2304 0.370 -0.860 0.350 14 14 16 0 0
0.7438 1.6669 1.2318 0.082 -0.888 0.453 14 14 16 0 0
0.6307 1.7621 1.2468 -0.142 -0.966 -0.214 17 17 19 0 0
0.5388 1.9616 1.2642 0.531 -0.631 0.566 162 162 162 0 0
1.7690 3.5097 1.2260 0.837 -0.421 -0.349 104 105 108 0 0
1.1457 1.9328 1.2171 0.803 -0.490 0.340 68 67 65 0 0
1.0228 1.7503 1.2210 0.595 -0.746 0.298 48 50 52 0 0
1.0071 1.7331 1.2217 0.624 -0.760 0.182 42 42 44 0 0
0.8364 1.6094 1.2328 0.075 -0.997 -0.024 14 14 16 0 0
0.8230 1.6031 1.2339 -0.174 -0.985 -0.010 11 11 13 0 0
0.8113 1.6075 1.2352 0.075 -0.997 -0.024 11 11 13 0 0
0.7979 1.6012 1.2362 -0.233 -0.923 0.307 10 10 12 0 0
0.7718 1.6798 1.2422 -0.012 -0.989 -0.145 25 25 27 0 0
0.7461 1.6749 1.2445 0.030 -0.939 0.343 24 24 26 0 0
0.5619 1.9261 1.2733 -0.798 -0.228 0.557 98 97 95 0 0
0.5530 1.9626 1.2758 -0.790 -0.259 0.556 111 110 106 0 0
1.1257 1.8872 1.2300 0.832 -0.516 0.202 85 84 87 0 0
1.1140 1.8945 1.2314 0.745 -0.498 0.445 67 65 68 0 0
1.0233 1.7459 1.2334 0.572 -0.723 0.387 62 66 67 0 0
1.0112 1.7493 1.2347 0.334 -0.767 0.548 51 52 54 0 0
0.8376 1.6092 1.2451 0.075 -0.997 -0.024 22 21 24 0 0
0.8251 1.6083 1.2463 0.075 -0.997 -0.024 19 18 20 0 0
0.8125 1.6073 1.2475 0.075 -0.997 -0.024 17 17 19 0 0
0.7729 1.6780 1.2545 -0.012 -0.989 -0.145 29 29 31 0 0
0.7596 1.6725 1.2556 0.202 -0.957 0.206 30 30 32 0 0
0.5651 1.9431 1.2867 -0.807 -0.223 0.547 109 105 104 0 0
0.5563 1.9811 1.2893 -0.807 -0.223 0.547 110 109 107 0 0
1.1285 1.8954 1.2430 0.813 -0.546 0.202 84 83 85 0 0
1.0143 1.7599 1.2476 0.334 -0.767 0.548 68 67 71 0 0
1.0003 1.7524 1.2486 0.100 -0.712 0.695 53 53 52 0 0
0.8904 1.6998 1.2567 0.226 -0.677 -0.701 32 32 34 0 0
0.8137 1.6071 1.2598 0.075 -0.997 -0.024 54 53 55 0 0
0.7732 1.6712 1.2667 -0.297 -0.872 0.389 33 33 35 0 0
0.7617 1.6785 1.2682 0.244 -0.964 0.106 33 33 35 0 0
0.7488 1.6759 1.2693 0.198 -0.980 0.016 32 32 34 0 0
0.6858 1.7688 1.2797 -0.047 -0.786 0.616 34 34 36 0 0
0.6682 1.7292 1.2796 -0.889 -0.369 0.273 34 34 36 0 0
0.5587 1.9912 1.3025 -0.797 -0.350 0.492 127 127 125 0 0
1.1326 1.9104 1.2563 0.776 -0.537 0.330 67 68 70 0 0
1.1150 1.8851 1.2568 0.815 -0.476 0.329 85 85 87 0 0
1.0039 1.7656 1.2616 0.100 -0.712 0.695 62 62 61 0 0
0.8793 1.7012 1.2705 0.175 -0.965 0.198 36 36 38 0 0
0.8684 1.7123 1.2721 0.397 -0.908 -0.135 36 34 37 0 0
0.7409 1.6094 1.2793 -0.013 -0.999 -0.040 35 35 37 0 0
1.1333 1.9067 1.2691 0.690 -0.666 0.284 55 56 58 0 0
1.1191 1.9003 1.2701 0.769 -0.536 0.347 87 89 91 0 0
0.8912 1.6885 1.2813 0.297 -0.532 0.793 41 41 43 0 0
0.8674 1.6975 1.2840 -0.407 -0.436 0.803 40 39 42 0 0
0.8057 1.6195 1.2860 -0.413 -0.866 0.283 38 38 40 0 0
0.7941 1.6255 1.2874 -0.413 -0.866 0.283 39 39 41 0 0
0.7826 1.6322 1.2889 -0.350 -0.911 0.219 40 40 42 0 0
0.5754 2.0017 1.3274 -0.825 -0.199 0.529 99 95 94 0 0
1.1227 1.9125 1.2834 0.699 -0.598 0.393 81 82 84 0 0
1.1061 1.8928 1.2839 0.744 -0.506 0.437 79 82 83 0 0
0.8944 1.7005 1.2942 0.283 -0.460 0.842 43 43 45 0 0
0.8816 1.6993 1.2953 -0.614 -0.388 0.688 42 42 43 0 0
0.7967 1.6344 1.3001 -0.210 -0.765 0.609 44 44 46 0 0
0.7857 1.6444 1.3017 -0.393 -0.783 0.482 46 46 48 0 0
0.5950 1.9344 1.3351 -0.796 -0.335 0.504 52 49 54 0 0
0.5869 1.9771 1.3381 -0.756 -0.240 0.610 74 72 72 0 0
1.8110 3.5101 1.3165 0.595 -0.696 -0.401 161 161 162 0 0
1.1088 1.9005 1.2970 0.756 -0.590 0.283 86 87 89 0 0
1.0921 1.8797 1.2975 0.722 -0.516 0.460 71 72 73 0 0
1.0106 1.7821 1.3001 0.024 -0.964 0.266 43 43 45 0 0
0.9002 1.7289 1.3078 0.283 -0.460 0.842 32 32 35 0 0
0.8506 1.7359 1.3129 -0.372 -0.375 0.849 44 44 44 0 0
0.7985 1.6381 1.3126 0.148 -0.504 0.851 52 52 54 0 0
0.7858 1.6365 1.3137 -0.049 -0.494 0.868 51 51 53 0 0
0.5974 1.9445 1.3483 -0.713 -0.418 0.563 63 63 63 0 0
1.8108 3.5017 1.3319 0.758 -0.550 -0.351 154 154 155 0 0
1.0128 1.7869 1.3129 -0.071 -0.992 -0.100 42 42 44 0 0
0.8675 1.7549 1.3250 -0.149 -0.326 0.933 31 30 35 0 0
0.8017 1.6513 1.3255 -0.011 -0.524 0.851 41 40 45 0 0
1.8098 3.4898 1.3470 0.835 -0.454 -0.310 141 142 142 0 0
1.0622 1.8420 1.3241 0.779 -0.331 0.533 62 63 67 0 0
1.0174 1.8059 1.3263 0.220 -0.384 0.897 43 43 44 0 0
0.8061 1.6729 1.3388 -0.005 -0.568 0.823 30 29 34 0 0
0.7692 1.6775 1.3426 -0.228 -0.569 0.790 36 35 38 0 0
1.0700 1.8786 1.3384 0.760 -0.312 0.570 59 60 64 0 0
1.0243 1.8389 1.3404 0.205 -0.361 0.910 46 46 48 0 0
0.9235 1.7716 1.3460 0.747 -0.662 0.067 40 40 42 0 0
0.8107 1.6955 1.3522 -0.024 -0.515 0.857 39 39 42 0 0
0.7962 1.6823 1.3528 -0.458 -0.357 0.814 41 41 44 0 0
1.0384 1.8380 1.3518 0.674 -0.315 0.669 58 58 60 0 0
1.0282 1.8535 1.3537 0.594 -0.370 0.715 54 54 55 0 0
1.0115 1.8317 1.3540 0.461 -0.352 0.814 47 47 47 0 0
0.9926 1.7954 1.3536 0.208 -0.281 0.937 45 45 45 0 0
0.9808 1.8016 1.3551 0.155 -0.268 0.951 43 43 45 0 0
0.9076 1.8244 1.3634 0.251 -0.569 0.783 39 39 41 0 0
1.5498 2.9790 1.3871 -0.414 -0.812 -0.411 46 46 51 0 0
1.0368 1.8962 1.3685 0.586 -0.365 0.723 40 40 41 0 0
1.0039 1.8545 1.3690 0.295 -0.315 0.902 45 45 46 0 0
0.6736 2.0935 1.4150 0.100 -0.314 0.944 86 87 89 0 0
0.6531 2.0215 1.4256 -0.060 -0.631 0.774 39 38 44 0 0
1.8675 3.5661 1.4253 0.883 -0.370 -0.290 169 169 169 0 0
1.8332 3.4860 1.4233 0.883 -0.370 -0.290 145 146 147 0 0
1.5383 2.9806 1.4180 -0.829 -0.555 0.070 30 33 38 0 0
1.1164 2.1105 1.4009 0.661 -0.339 0.670 31 31 33 0 0
1.8680 3.5609 1.4408 0.896 -0.348 -0.277 167 167 167 0 0
1.5502 2.9586 1.4303 -0.296 -0.887 -0.355 43 42 48 0 0
1.5393 2.9779 1.4326 -0.806 -0.584 0.097 33 36 41 0 0
1.4965 3.0623 1.4423 -0.784 -0.618 -0.062 40 40 42 0 0
1.4861 3.0857 1.4448 -0.934 -0.356 0.040 48 48 50 0 0
1.0110 1.9509 1.4134 -0.010 -0.488 0.873 44 43 45 0 0
1.8655 3.5427 1.4556 0.896 -0.348 -0.277 166 166 166 0 0
1.5610 2.9318 1.4422 0.190 -0.965 -0.179 58 57 60 0 0
1.5483 2.9419 1.4441 -0.169 -0.968 -0.188 40 39 44 0 0
1.4877 3.0106 1.4545 -0.749 -0.610 0.258 41 41 43 0 0
1.8651 3.5335 1.4709 0.899 -0.328 -0.291 164 164 164 0 0
1.5529 3.0282 1.4646 -0.720 -0.561 -0.408 35 34 39 0 0
1.5044 3.0114 1.4679 -0.378 -0.913 0.154 37 37 39 0 0
1.8616 3.5111 1.4854 0.899 -0.328 -0.291 158 158 158 0 0
1.5502 2.9362 1.4731 -0.341 -0.785 -0.516 36 35 40 0 0
1.8582 3.4888 1.4999 0.899 -0.328 -0.291 148 148 148 0 0
1.5142 3.0440 1.4992 0.131 -0.885 -0.447 37 37 39 0 0
1.7021 3.1361 1.5036 0.858 -0.400 -0.322 43 43 45 0 0
1.5392 3.0117 1.5094 -0.492 -0.840 -0.230 39 39 40 0 0
1.5250 3.0155 1.5110 -0.057 -0.995 0.086 40 40 42 0 0
1.0326 2.5418 1.5211 0.559 -0.758 -0.336 22 22 24 0 0
1.6145 2.9362 1.5116 0.272 -0.652 -0.708 77 77 79 0 0
1.5522 2.9944 1.5218 -0.826 -0.478 -0.298 50 50 52 0 0
1.5259 3.0121 1.5256 -0.270 -0.901 -0.339 54 54 57 0 0
1.0167 2.5204 1.5350 -0.070 -0.932 -0.356 5 5 7 0 0
0.9213 2.6349 1.5527 -0.965 -0.261 -0.007 41 41 43 0 0
0.9757 2.6108 1.5599 0.320 -0.710 -0.627 9 9 12 0 0
0.7963 3.1046 1.6152 -0.418 -0.880 -0.226 42 43 45 0 0
0.7707 3.1384 1.6203 -0.590 -0.804 0.078 61 62 64 0 0
1.3227 2.7890 1.5563 -0.698 -0.254 -0.669 56 56 57 0 0
1.0328 2.5154 1.5611 0.066 -0.997 0.044 21 21 23 0 0
0.7978 3.1044 1.6300 -0.293 -0.955 0.051 38 38 41 0 0
0.7741 3.1551 1.6363 -0.385 -0.868 0.313 46 47 49 0 0
1.0626 2.5179 1.5726 0.066 -0.997 0.044 11 11 13 0 0
1.0485 2.5170 1.5738 0.066 -0.997 0.044 12 12 14 0 0
1.0343 2.5161 1.5750 0.066 -0.997 0.044 21 21 23 0 0
1.0210 2.5205 1.5766 -0.489 -0.863 -0.124 8 8 10 0 0
0.9865 2.5694 1.5838 -0.489 -0.844 -0.221 9 9 11 0 0
0.7985 3.0976 1.6443 -0.683 -0.670 -0.291 36 36 38 0 0
0.7764 3.1620 1.6516 -0.236 -0.898 0.370 41 41 43 0 0
1.1918 2.5255 1.5754 -0.563 -0.378 -0.735 21 20 25 0 0
1.1767 2.5198 1.5763 -0.053 -0.469 -0.882 17 16 20 0 0
1.1523 2.5414 1.5803 0.249 -0.482 -0.840 17 17 17 0 0
1.0482 2.5061 1.5870 -0.217 -0.967 -0.130 11 11 13 0 0
1.0344 2.5077 1.5883 -0.403 -0.891 -0.207 16 16 18 0 0
1.0221 2.5179 1.5903 -0.489 -0.863 -0.124 8 8 10 0 0
0.9859 2.5561 1.5968 -0.416 -0.878 -0.239 8 8 10 0 0
0.7876 3.1183 1.6620 -0.746 -0.625 -0.227 36 36 38 0 0
1.6044 2.8535 1.5795 0.725 -0.672 0.152 44 44 46 0 0
1.2024 2.4982 1.5861 -0.541 -0.488 -0.685 26 26 29 0 0
1.0767 2.5007 1.5979 -0.161 -0.950 -0.266 12 12 14 0 0
1.0619 2.4959 1.5988 -0.499 -0.863 0.073 12 12 14 0 0
1.0495 2.5052 1.6007 -0.562 -0.827 0.010 11 11 13 0 0
1.1026 2.4792 1.6076 0.071 -0.842 -0.534 20 20 22 0 0
1.0761 2.4878 1.6108 -0.524 -0.847 0.092 17 17 19 0 0
0.7462 3.1191 1.6957 -0.588 -0.734 -0.339 39 38 43 0 0
0.7337 3.1402 1.6987 -0.826 -0.346 -0.445 43 43 45 0 0
1.0650 2.4967 1.6266 -0.450 -0.855 0.257 36 36 38 0 0
0.7080 3.1631 1.7180 -0.893 -0.425 -0.149 51 51 53 0 0
0.9950 2.5780 1.6543 -0.440 -0.538 0.719 21 21 23 0 0
0.9787 2.5630 1.6544 -0.035 -0.577 0.816 24 24 26 0 0
0.9812 2.5703 1.6689 -0.208 -0.731 0.649 22 21 25 0 0
0.9849 2.5853 1.6841 -0.739 -0.603 -0.301 22 21 24 0 0
1.5858 2.7256 1.6572 0.659 -0.413 0.628 57 57 59 0 0
1.3060 2.7827 1.6879 0.427 -0.301 0.853 51 51 53 0 0
0.9803 2.6390 1.7037 -0.979 -0.201 0.026 27 27 28 0 0
0.8213 3.0649 1.7585 -0.496 -0.327 0.804 41 39 42 0 0
1.3196 2.8477 1.7075 0.548 -0.333 0.767 54 54 56 0 0
0.9752 2.5950 1.7141 -0.964 -0.245 0.100 19 19 19 0 0
0.8343 3.0384 1.7697 -0.027 -0.576 0.817 47 45 48 0 0
0.8246 3.0789 1.7745 -0.465 -0.525 0.713 44 42 45 0 0
1.9100 3.3331 1.7167 0.930 -0.367 0.018 99 99 99 0 0
1.6528 2.8818 1.6955 0.475 -0.485 0.734 54 54 57 0 0
1.5949 3.0283 1.7151 -0.031 -0.333 0.942 40 40 42 0 0
1.3856 2.9549 1.7267 0.116 -0.271 0.956 55 54 57 0 0
1.0330 2.4176 1.7056 0.519 -0.720 -0.461 38 38 40 0 0
0.8346 3.0288 1.7836 -0.800 -0.548 -0.246 48 47 49 0 0
0.8264 3.0812 1.7894 -0.264 -0.895 -0.359 45 45 47 0 0
1.9017 3.2913 1.7289 0.946 -0.323 0.004 105 105 105 0 0
1.4183 3.0398 1.7471 0.106 -0.254 0.961 55 55 57 0 0
1.0328 2.4077 1.7185 0.701 -0.683 -0.206 39 39 41 0 0
1.0053 2.4977 1.7300 -0.939 -0.318 -0.131 9 9 11 0 0
0.8477 3.1209 1.8064 0.202 -0.690 -0.695 49 49 51 0 0
0.8301 3.0993 1.8058 0.023 -0.677 -0.735 45 45 47 0 0
0.6645 3.3618 1.8469 0.836 -0.456 -0.307 117 115 117 0 0
1.0986 2.5457 1.7405 0.532 -0.706 -0.466 12 11 14 0 0
1.0338 2.4046 1.7320 0.701 -0.683 -0.206 37 37 39 0 0
1.0057 2.4912 1.7433 -0.927 -0.354 -0.125 10 10 12 0 0
0.8392 3.1596 1.8261 -0.018 -0.868 -0.496 43 43 45 0 0
0.8234 3.1528 1.8268 0.401 -0.814 -0.420 39 39 41 0 0
0.8100 3.1657 1.8293 -0.310 -0.765 -0.564 39 39 41 0 0
1.0986 2.5370 1.7537 0.532 -0.706 -0.466 13 13 15 0 0
1.0689 2.4417 1.7465 0.767 -0.574 -0.288 14 14 16 0 0
1.0525 2.4261 1.7464 0.821 -0.527 -0.221 19 19 21 0 0
1.0210 2.4023 1.7467 -0.207 -0.880 -0.428 24 24 26 0 0
1.7763 3.1319 1.7698 -0.280 -0.605 0.746 63 63 65 0 0
1.7661 3.2220 1.7802 -0.646 -0.762 -0.049 55 55 57 0 0
1.0694 2.4357 1.7598 0.767 -0.574 -0.288 16 16 18 0 0
1.0345 2.3917 1.7583 0.640 -0.657 -0.399 37 37 39 0 0
1.0211 2.3941 1.7597 -0.346 -0.791 -0.504 22 22 24 0 0
0.9984 2.5155 1.7745 -0.966 -0.252 -0.058 9 9 11 0 0
0.6512 3.3357 1.8914 0.693 -0.606 -0.390 172 172 170 0 0
1.9333 3.3297 1.7921 -0.157 -0.567 -0.808 148 148 147 0 0
1.8057 3.1199 1.7811 -0.318 -0.701 0.638 68 68 70 0 0
1.7746 3.2521 1.7980 -0.443 -0.740 0.507 51 51 53 0 0
1.7527 3.2238 1.7969 -0.463 -0.560 0.686 48 48 50 0 0
1.6913 3.2970 1.8101 0.210 -0.963 0.171 37 37 39 0 0
1.0985 2.5187 1.7799 0.220 -0.832 -0.509 17 17 19 0 0
1.0201 2.3789 1.7720 -0.254 -0.717 -0.649 23 23 25 0 0
1.8138 3.1472 1.7985 -0.507 -0.449 0.736 66 66 68 0 0
1.7778 3.2592 1.8138 -0.315 -0.943 0.113 48 48 50 0 0
1.0988 2.5116 1.7932 0.196 -0.850 -0.489 17 17 19 0 0
1.0209 2.3747 1.7853 -0.071 -0.758 -0.648 25 25 27 0 0
0.7233 3.1391 1.8944 -0.897 -0.385 -0.219 48 48 50 0 0
0.7009 3.2060 1.9036 -0.932 -0.289 -0.218 66 66 68 0 0
0.6888 3.2329 1.9076 -0.920 -0.311 -0.240 73 73 75 0 0
1.9396 3.3350 1.8389 -0.858 -0.369 0.359 100 100 100 0 0
1.0651 2.3750 1.8090 0.421 -0.902 -0.096 17 17 19 0 0
1.0221 2.3646 1.8117 -0.664 -0.735 -0.137 29 29 29 0 0
1.8330 3.2747 1.8570 0.424 -0.810 -0.406 57 56 61 0 0
1.0224 2.3579 1.8247 -0.565 -0.824 0.041 26 26 26 0 0
1.8767 3.2548 1.8664 -0.069 -0.994 -0.085 68 68 70 0 0
1.0386 2.3643 1.8378 0.844 -0.535 -0.050 27 27 28 0 0
0.8035 2.5606 1.8810 -0.608 -0.536 -0.586 49 49 51 0 0
1.9811 3.3552 1.8844 0.842 -0.323 -0.431 123 124 126 0 0
1.0400 2.3641 1.8514 0.848 -0.526 -0.065 26 26 26 0 0
1.9752 3.3247 1.8969 0.848 -0.335 -0.411 105 106 108 0 0
1.9189 3.2866 1.8973 -0.366 -0.901 0.234 74 74 76 0 0
1.0248 2.3463 1.8644 -0.219 -0.904 -0.367 25 25 27 0 0
1.9684 3.2904 1.9090 0.849 -0.325 -0.417 96 97 99 0 0
1.9220 3.2927 1.9133 -0.482 -0.846 0.226 72 72 74 0 0
1.0254 2.3409 1.8775 -0.219 -0.904 -0.367 25 25 27 0 0
1.9988 3.3428 1.9282 0.854 -0.322 -0.410 113 113 115 0 0
0.8214 2.5475 1.9341 -0.210 -0.482 -0.850 41 40 43 0 0
0.8215 2.5371 1.9469 -0.670 -0.338 -0.661 30 30 33 0 0
0.7839 2.6824 1.9680 -0.744 -0.060 -0.666 34 34 36 0 0
1.4748 2.6200 1.9147 -0.562 -0.567 0.602 40 38 42 0 0
1.4464 2.5519 1.9087 0.617 -0.701 0.358 42 40 45 0 0
1.0665 2.3978 1.9224 0.892 -0.377 0.249 13 13 15 0 0
1.4981 2.5871 1.9229 -0.089 -0.550 0.831 32 32 34 0 0
1.4879 2.6067 1.9262 0.001 -0.565 0.825 39 38 41 0 0
1.3984 2.5187 1.9228 0.829 -0.491 -0.269 46 45 50 0 0
1.0670 2.3924 1.9355 0.883 -0.418 0.215 12 12 14 0 0
1.0303 2.3363 1.9316 -0.286 -0.916 0.283 26 26 28 0 0
1.4989 2.5834 1.9366 0.612 -0.625 0.484 33 33 35 0 0
1.4570 2.5203 1.9321 0.716 -0.665 0.215 45 45 47 0 0
1.4003 2.5204 1.9370 0.784 -0.621 -0.013 50 50 52 0 0
1.0323 2.3400 1.9456 -0.286 -0.916 0.283 22 22 24 0 0
0.7361 2.7210 2.0200 -0.911 -0.362 0.197 37 37 39 0 0
0.7372 2.7176 2.0338 -0.908 -0.340 0.245 41 41 43 0 0
1.5266 2.5648 1.9603 -0.032 -0.735 0.677 25 25 27 0 0
1.4509 2.5449 1.9642 -0.024 -0.876 0.482 43 42 46 0 0
0.9903 2.4052 1.9854 0.003 -0.430 -0.903 10 10 12 0 0
0.9749 2.3949 1.9853 0.334 -0.658 -0.675 11 11 13 0 0
0.9590 2.3812 1.9849 0.126 -0.526 -0.841 13 12 15 0 0
0.7269 2.7394 2.0518 -0.919 -0.384 0.091 39 39 41 0 0
1.2341 2.4397 1.9830 0.389 -0.913 -0.122 46 45 50 0 0
1.0052 2.4029 1.9977 0.041 -0.780 0.625 9 10 12 0 0
0.9915 2.4039 1.9990 0.127 -0.816 0.564 19 19 22 0 0
0.6996 2.8626 2.0849 -0.975 -0.189 -0.116 35 35 37 0 0
1.0421 2.3652 2.0033 -0.737 -0.620 0.268 32 32 34 0 0
0.8209 2.6711 2.0634 0.149 -0.971 -0.185 39 39 41 0 0
0.7693 2.5986 2.0580 0.103 -0.990 -0.096 39 39 41 0 0
0.7109 2.8227 2.0932 -0.943 -0.333 0.015 42 42 44 0 0
0.7008 2.8605 2.0991 -0.970 -0.241 -0.022 38 38 40 0 0
2.0087 3.1976 2.0483 0.882 -0.301 -0.363 85 86 90 0 0
1.2174 2.4087 2.0082 0.591 -0.800 0.101 46 45 50 0 0
1.1959 2.4442 2.0148 -0.871 -0.449 0.201 45 45 47 0 0
1.1855 2.4646 2.0185 -0.871 -0.463 0.163 44 44 46 0 0
1.1726 2.4707 2.0204 -0.714 -0.519 -0.470 44 44 46 0 0
1.1590 2.4733 2.0219 -0.495 -0.509 -0.704 44 44 46 0 0
1.0558 2.3565 2.0148 -0.325 -0.943 0.077 37 37 39 0 0
1.0303 2.3689 2.0187 -0.712 -0.695 -0.098 36 36 39 0 0
0.9815 2.4099 2.0284 0.035 -0.935 0.352 44 44 49 0 0
0.7840 2.5927 2.0701 0.199 -0.951 0.236 33 33 34 0 0
0.7008 2.8471 2.1119 -0.959 -0.284 -0.015 41 41 43 0 0
0.6916 2.8940 2.1191 -0.980 -0.201 -0.012 38 38 40 0 0
1.8551 2.9434 2.0417 0.450 -0.212 -0.867 64 65 67 0 0
1.7152 2.7947 2.0331 0.905 -0.404 -0.132 36 35 40 0 0
1.2126 2.4512 2.0284 -0.467 -0.848 -0.251 45 45 47 0 0
1.1675 2.4337 2.0298 -0.174 -0.618 0.766 43 43 45 0 0
1.1547 2.4400 2.0317 0.100 -0.772 0.628 44 44 46 0 0
1.1394 2.4325 2.0320 0.286 -0.833 0.473 44 44 46 0 0
0.6705 2.9527 2.1436 -0.947 -0.165 -0.274 38 37 43 0 0
1.7560 2.8358 2.0500 0.851 -0.398 -0.342 46 46 48 0 0
1.6014 2.6092 2.0315 0.055 -0.779 0.625 43 43 46 0 0
1.5919 2.6315 2.0354 0.118 -0.626 0.771 43 43 45 0 0
1.2460 2.4723 2.0425 -0.480 -0.584 -0.655 39 39 41 0 0
1.2128 2.4447 2.0414 -0.526 -0.385 -0.758 38 38 40 0 0
1.1577 2.4491 2.0467 0.082 -0.590 0.803 43 43 45 0 0
1.0240 2.3981 2.0509 -0.256 -0.830 0.496 42 42 44 0 0
1.6895 2.7339 2.0560 0.883 -0.457 -0.101 47 47 50 0 0
1.7706 2.7594 2.0674 0.828 -0.495 -0.263 70 70 72 0 0
1.7797 2.8598 2.0810 0.894 -0.428 -0.136 66 66 68 0 0
1.2480 2.4676 2.0698 -0.606 -0.647 -0.463 37 37 39 0 0
1.8513 2.9018 2.0959 0.867 -0.485 0.111 89 89 90 0 0
1.7797 2.7909 2.0858 0.874 -0.485 0.010 74 74 76 0 0
1.7595 2.7680 2.0842 0.873 -0.487 0.014 68 68 70 0 0
1.7338 2.7218 2.0797 0.873 -0.487 0.014 64 65 67 0 0
1.7184 2.7188 2.0806 0.852 -0.511 -0.111 60 60 62 0 0
1.6820 2.6878 2.0792 0.872 -0.461 -0.162 54 54 56 0 0
0.9843 2.5642 2.1199 -0.686 -0.669 -0.286 33 33 35 0 0
1.8566 2.9169 2.1125 0.878 -0.466 0.114 90 90 90 0 0
1.0517 2.3635 2.0991 0.647 -0.757 0.093 19 19 21 0 0
1.0095 2.5358 2.1278 -0.840 -0.459 0.287 27 27 29 0 0
0.9848 2.5580 2.1332 -0.686 -0.669 -0.286 32 32 34 0 0
0.6826 2.8651 2.2034 -0.858 -0.378 0.348 47 46 51 0 0
1.1014 2.4041 2.1148 0.691 -0.688 0.223 30 30 32 0 0
1.0302 2.4794 2.1319 -0.460 -0.876 -0.149 14 14 16 0 0
1.0066 2.5079 2.1381 -0.731 -0.626 -0.270 26 26 28 0 0
2.1228 3.4047 2.1931 0.928 -0.374 -0.007 176 176 176 0 0
1.7291 2.7444 2.1272 0.839 -0.508 0.197 57 58 60 0 0
1.6017 2.5697 2.1117 0.684 -0.409 -0.604 43 42 46 0 0
1.1047 2.4147 2.1300 0.699 -0.655 0.288 25 25 27 0 0
1.1340 2.4963 2.1539 0.868 -0.414 0.273 25 25 27 0 0
1.0092 2.5058 2.1657 -0.823 -0.494 -0.280 17 17 19 0 0
0.9932 2.4926 2.1650 -0.843 -0.350 -0.408 20 20 22 0 0
0.6856 2.8527 2.2451 -0.430 -0.482 0.764 43 43 45 0 0
2.1179 3.3725 2.2202 -0.691 -0.471 0.549 180 180 180 0 0
1.0994 2.4406 2.1763 0.852 -0.487 0.190 16 16 18 0 0
0.6935 2.8971 2.2804 -0.469 -0.427 0.773 44 44 46 0 0
0.7984 3.1512 2.3261 -0.394 -0.854 -0.340 40 40 43 0 0
0.7839 3.1553 2.3280 -0.604 -0.787 -0.121 40 40 43 0 0
1.0368 2.5550 2.2275 -0.851 -0.248 0.462 8 8 10 0 0
0.8014 3.1635 2.3429 0.052 -0.996 -0.074 41 40 45 0 0
0.7712 3.1618 2.3452 0.052 -0.996 -0.074 40 39 42 0 0
2.1311 3.3237 2.3057 0.807 -0.332 -0.488 94 95 97 0 0
2.1563 3.3523 2.3241 0.816 -0.319 -0.481 105 106 108 0 0
2.1241 3.2777 2.3456 0.734 -0.376 -0.565 86 86 88 0 0
2.1713 3.3236 2.3809 0.830 -0.379 -0.410 135 137 136 0 0
2.2443 3.3519 2.3956 0.144 -0.569 -0.810 204 204 204 0 0
2.1673 3.3024 2.3933 0.834 -0.385 -0.395 140 142 142 0 0
2.1351 3.2409 2.3852 0.834 -0.385 -0.395 95 98 99 0 0
1.6624 3.1478 2.4072 0.821 -0.570 -0.010 50 49 54 0 0
2.1400 3.2531 2.4025 -0.077 -0.439 -0.895 103 104 106 0 0
2.1243 3.2532 2.4038 -0.077 -0.439 -0.895 83 83 85 0 0
2.1361 3.2320 2.4147 -0.004 -0.492 -0.871 108 108 109 0 0
2.1192 3.2275 2.4153 0.035 -0.484 -0.874 88 88 90 0 0
2.1415 3.2457 2.4323 -0.857 -0.160 -0.490 115 115 117 0 0
2.1162 3.2099 2.4279 0.528 -0.735 -0.425 93 93 95 0 0
1.1188 2.4354 2.3699 0.882 -0.434 -0.186 16 16 18 0 0
1.0634 2.3537 2.3598 0.075 -0.941 -0.329 14 14 16 0 0
1.0987 2.3907 2.3775 0.849 -0.496 -0.180 20 20 22 0 0
2.1336 3.1912 2.4852 0.904 -0.349 -0.248 109 109 109 0 0
2.0957 3.1077 2.4728 0.901 -0.370 -0.225 113 113 113 0 0
2.1428 3.2194 2.5052 0.846 -0.289 -0.448 94 94 95 0 0
2.0662 3.0486 2.4794 0.836 -0.300 -0.459 104 105 105 0 0
1.8061 3.0492 2.5000 0.717 -0.392 -0.577 34 33 38 0 0
0.7023 2.8575 2.5513 -0.275 -0.054 -0.960 38 38 40 0 0
1.8029 3.0291 2.5117 0.541 -0.374 -0.753 32 32 37 0 0
1.0496 2.3858 2.4501 -0.530 -0.550 -0.645 11 11 13 0 0
0.7101 2.7872 2.5522 -0.287 -0.041 -0.957 37 37 39 0 0
1.9415 2.8490 2.4819 0.688 -0.461 -0.561 85 85 87 0 0
1.9349 2.8173 2.4913 0.822 -0.549 -0.153 87 87 89 0 0
1.9162 2.8026 2.4899 0.837 -0.507 -0.204 84 84 86 0 0
1.0822 2.3152 2.4620 -0.183 -0.850 0.494 27 28 30 0 0
1.0691 2.3191 2.4637 -0.183 -0.850 0.494 15 15 17 0 0
0.6960 2.7634 2.5778 -0.708 -0.412 0.573 60 59 65 0 0
1.9419 2.8380 2.5095 0.866 -0.492 -0.092 67 67 69 0 0
1.0352 2.3561 2.4873 0.197 -0.972 0.131 12 10 13 0 0
0.9875 2.4049 2.5004 -0.431 -0.138 -0.892 13 13 15 0 0
2.1302 3.1412 2.5687 0.857 -0.426 -0.291 86 87 89 0 0
1.9439 2.8397 2.5246 0.814 -0.566 0.129 61 61 63 0 0
1.8738 2.7401 2.5107 0.791 -0.558 -0.252 71 71 71 0 0
1.8519 2.7116 2.5068 0.773 -0.590 -0.233 76 76 77 0 0
1.8099 2.6606 2.5002 0.748 -0.547 -0.377 72 72 74 0 0
1.0364 2.3546 2.5008 -0.332 -0.883 0.331 12 11 14 0 0
2.1282 3.1274 2.5816 0.872 -0.423 -0.247 92 92 94 0 0
1.0351 2.3381 2.5116 0.345 -0.919 0.191 14 15 17 0 0
0.9743 2.3009 2.5090 -0.219 -0.755 0.618 22 22 24 0 0
0.9380 2.3330 2.5181 -0.368 -0.743 -0.560 18 18 20 0 0
0.9242 2.3322 2.5190 -0.807 -0.547 -0.222 27 27 29 0 0
2.1263 3.1143 2.5945 0.891 -0.428 -0.153 96 95 98 0 0
1.9162 2.8360 2.5558 0.753 -0.501 0.428 46 45 50 0 0
1.0516 2.3456 2.5256 -0.543 -0.825 0.155 24 26 29 0 0
2.1378 3.1504 2.6163 0.568 -0.629 -0.531 99 98 102 0 0
2.1195 3.1405 2.6157 0.723 -0.597 -0.347 85 84 89 0 0
2.0937 3.1018 2.6100 0.811 -0.542 -0.221 71 70 76 0 0
2.0608 3.0363 2.5994 0.877 -0.473 -0.078 61 60 66 0 0
1.9252 2.8649 2.5757 0.676 -0.496 0.545 46 45 50 0 0
1.0392 2.3455 2.5404 0.236 -0.967 0.095 35 38 41 0 0
0.9430 2.3476 2.5483 0.188 -0.805 0.563 43 44 48 0 0
0.9286 2.3431 2.5485 0.059 -0.746 0.664 62 63 67 0 0
1.0309 2.3708 2.5600 -0.047 -0.748 0.662 43 42 47 0 0
1.0175 2.3737 2.5617 0.073 -0.743 0.666 45 44 49 0 0
1.0055 2.3852 2.5649 -0.346 -0.738 0.579 45 44 49 0 0
1.0359 2.3932 2.5781 0.088 -0.773 0.628 42 41 46 0 0
1.0221 2.3937 2.5793 0.181 -0.779 0.600 43 40 45 0 0
1.2274 2.3672 2.5721 -0.430 -0.893 -0.133 46 45 50 0 0
1.0248 2.4015 2.5946 0.065 -0.641 0.765 28 27 31 0 0
1.2115 2.3483 2.5834 -0.341 -0.913 0.223 47 46 51 0 0
1.0777 2.3766 2.5994 0.124 -0.475 0.871 29 29 31 0 0
0.9277 2.5835 2.6535 -0.058 -0.475 0.878 10 8 11 0 0
0.9056 2.5276 2.6437 -0.287 -0.688 0.666 12 10 13 0 0
0.8773 2.5264 2.6456 -0.415 -0.866 0.280 13 11 14 0 0
1.4530 2.4972 2.6099 0.140 -0.322 0.936 25 25 27 0 0
1.2648 2.4022 2.6045 -0.054 -0.863 -0.503 38 37 42 0 0
1.2273 2.3508 2.5967 -0.212 -0.539 0.815 34 33 38 0 0
1.1019 2.4299 2.6226 0.212 -0.436 0.874 15 15 17 0 0
1.0863 2.4196 2.6217 0.124 -0.475 0.871 10 10 12 0 0
1.0574 2.4999 2.6405 0.078 -0.369 0.926 9 9 11 0 0
1.0430 2.4975 2.6411 -0.013 -0.341 0.940 13 13 15 0 0
0.9831 2.6604 2.6795 -0.672 -0.226 0.706 9 9 11 0 0
0.7356 2.7341 2.7137 -0.746 -0.448 -0.493 56 58 57 0 0
1.2429 2.4276 2.6255 -0.518 -0.842 0.149 23 22 26 0 0
1.1745 2.3579 2.6161 -0.004 -0.981 -0.193 23 23 25 0 0
1.1600 2.3548 2.6165 -0.102 -0.995 -0.006 22 23 25 0 0
1.1095 2.4660 2.6437 0.124 -0.475 0.871 8 8 10 0 0
1.2524 2.3954 2.6320 0.025 -0.912 -0.410 11 11 13 0 0
1.2297 2.4241 2.6398 -0.043 -0.756 -0.654 12 12 14 0 0
1.2037 2.3581 2.6278 0.173 -0.832 0.527 11 11 13 0 0
1.2092 2.3805 2.6462 0.380 -0.890 0.250 11 11 13 0 0
1.1924 2.3644 2.6440 0.220 -0.889 0.401 11 11 13 0 0
1.1499 2.3600 2.6463 0.166 -0.850 0.500 11 11 13 0 0
1.1467 2.4213 2.6595 -0.619 -0.687 0.380 11 11 13 0 0
0.8014 2.7669 2.7591 -0.240 -0.970 -0.021 30 29 35 0 0
0.5936 3.2877 2.8856 -0.975 -0.151 -0.162 81 81 81 0 0
1.1527 2.3673 2.6616 0.010 -0.959 0.284 12 12 14 0 0
0.5837 3.3272 2.9102 -0.948 -0.076 -0.309 79 79 79 0 0
1.7209 2.5706 2.6768 0.610 -0.773 0.176 48 47 52 0 0
1.1405 2.4497 2.6942 -0.719 -0.332 0.611 13 14 16 0 0
0.8467 2.6527 2.7601 -0.835 -0.364 0.413 19 19 21 0 0
0.8357 2.6771 2.7662 -0.711 -0.675 0.199 19 19 21 0 0
1.1951 2.3552 2.6837 0.477 -0.589 -0.652 21 20 24 0 0
1.1193 2.5650 2.7350 -0.156 -0.195 -0.968 15 16 18 0 0
2.0410 3.0025 2.7766 0.902 -0.427 0.056 68 68 70 0 0
1.2134 2.3713 2.6998 0.320 -0.896 -0.309 22 21 27 0 0
1.1557 2.3602 2.7016 -0.405 -0.910 -0.085 23 23 25 0 0
1.1348 2.4809 2.7297 -0.679 -0.482 -0.554 20 21 23 0 0
1.1294 2.5325 2.7414 -0.644 -0.181 -0.744 19 20 22 0 0
1.6255 2.4508 2.7007 0.582 -0.797 0.163 52 51 56 0 0
1.4376 2.4346 2.7111 0.650 -0.751 0.116 41 40 45 0 0
1.1578 2.3636 2.7162 -0.424 -0.903 -0.061 31 31 33 0 0
1.0934 2.4772 2.7461 0.639 -0.754 0.153 24 24 26 0 0
1.0641 2.4694 2.7466 0.574 -0.796 0.191 27 27 29 0 0
1.0519 2.4812 2.7501 0.699 -0.641 -0.317 27 27 29 0 0
1.0353 2.4649 2.7477 0.642 -0.692 -0.330 26 27 29 0 0
2.3605 3.4655 2.8865 -0.931 -0.340 0.129 97 97 99 0 0
1.9259 2.7797 2.7659 0.176 -0.889 -0.424 63 63 65 0 0
1.9099 2.7754 2.7661 0.398 -0.893 -0.211 55 55 57 0 0
1.8731 2.7477 2.7627 0.641 -0.650 0.408 52 52 55 0 0
1.4855 2.4532 2.7258 -0.029 -0.763 0.646 47 46 51 0 0
1.2355 2.3999 2.7325 0.067 -0.882 -0.467 38 37 43 0 0
1.2243 2.4149 2.7367 -0.566 -0.666 -0.485 39 38 43 0 0
1.2100 2.4136 2.7374 -0.381 -0.908 -0.176 38 37 42 0 0
1.1977 2.4228 2.7404 0.120 -0.853 -0.507 38 37 42 0 0
1.0664 2.4747 2.7617 0.574 -0.796 0.191 25 26 28 0 0
1.0351 2.4546 2.7595 0.640 -0.691 -0.336 27 28 32 0 0
0.9379 2.5541 2.7889 -0.986 -0.163 0.035 38 37 42 0 0
2.3544 3.4380 2.8968 -0.652 -0.621 -0.435 90 90 94 0 0
1.9263 2.7753 2.7797 -0.365 -0.901 -0.234 55 55 57 0 0
1.8934 2.7628 2.7793 0.367 -0.802 -0.472 54 54 56 0 0
1.3841 2.3654 2.7278 0.007 -1.000 0.002 46 45 50 0 0
1.3701 2.3653 2.7288 0.007 -1.000 0.002 46 45 50 0 0
1.3561 2.3652 2.7298 0.007 -1.000 0.002 44 43 48 0 0
1.3290 2.3694 2.7328 -0.127 -0.989 0.078 44 43 48 0 0
1.2351 2.3902 2.7444 0.249 -0.967 0.044 41 40 46 0 0
1.2306 2.4415 2.7562 -0.173 -0.907 0.383 41 40 45 0 0
1.2162 2.4395 2.7568 0.197 -0.935 0.295 40 39 44 0 0
1.2025 2.4415 2.7583 -0.096 -0.949 0.299 41 40 45 0 0
1.0694 2.4845 2.7778 -0.114 -0.982 0.150 33 34 38 0 0
2.3690 3.4264 2.9091 -0.848 -0.452 -0.275 98 97 101 0 0
1.9235 2.7581 2.7909 -0.175 -0.554 -0.814 54 54 56 0 0
1.3343 2.3889 2.7508 0.104 -0.994 0.040 45 44 49 0 0
1.3105 2.4105 2.7574 -0.222 -0.975 -0.023 44 43 48 0 0
1.2814 2.4053 2.7584 -0.350 -0.922 0.167 47 46 49 0 0
1.2670 2.4030 2.7590 -0.208 -0.970 -0.130 45 45 48 0 0
1.2542 2.4094 2.7613 0.146 -0.988 -0.044 45 44 49 0 0
1.0731 2.4982 2.7948 0.242 -0.955 0.171 39 40 45 0 0
2.3791 3.3995 2.9182 -0.872 -0.384 -0.303 115 115 115 0 0
2.3680 3.4168 2.9230 -0.803 -0.458 -0.382 90 89 93 0 0
1.9251 2.7581 2.8055 -0.712 -0.565 -0.417 49 49 53 0 0
1.9144 2.7743 2.8100 0.042 -0.962 -0.271 52 51 55 0 0
1.8949 2.7563 2.8073 0.416 -0.756 -0.506 52 51 55 0 0
1.2839 2.4107 2.7735 -0.355 -0.793 0.495 53 51 54 0 0
1.2005 2.4923 2.7982 -0.040 -0.912 -0.409 44 43 48 0 0
1.9352 2.7911 2.8271 -0.462 -0.464 0.756 53 52 57 0 0
1.1991 2.4764 2.8089 -0.288 -0.832 -0.474 39 38 43 0 0
1.0631 2.4965 2.8376 0.064 -0.943 0.326 26 25 29 0 0
1.3444 2.4744 2.8404 -0.453 -0.889 -0.061 45 44 48 0 0
1.3311 2.4786 2.8423 -0.439 -0.896 -0.072 29 28 33 0 0
1.3179 2.4836 2.8445 -0.279 -0.956 0.088 30 29 33 0 0
1.3058 2.4946 2.8479 -0.255 -0.952 0.168 29 29 32 0 0
0.8361 2.6670 2.9225 -0.564 -0.769 -0.301 52 52 55 0 0
1.4024 2.4733 2.8501 0.236 -0.972 0.023 41 40 44 0 0
1.3466 2.4702 2.8676 0.033 -0.950 -0.310 50 50 50 0 0
0.5822 3.5737 3.1853 0.445 -0.452 -0.773 52 51 56 0 0
2.4143 3.3135 3.0069 0.861 -0.351 -0.369 197 196 197 0 0
1.3763 2.4700 2.8796 0.108 -0.958 -0.265 62 62 64 0 0
1.3472 2.4660 2.8808 0.033 -0.950 -0.310 62 62 64 0 0
1.3327 2.4643 2.8814 -0.104 -0.951 -0.292 60 60 61 0 0
2.2186 3.0598 2.9910 -0.132 -0.010 -0.991 48 48 50 0 0
1.4361 2.4701 2.9038 -0.153 -0.782 0.604 71 69 70 0 0
1.2476 2.4461 2.9115 -0.385 -0.566 -0.729 66 66 68 0 0
1.2299 2.4268 2.9080 0.552 -0.833 -0.024 66 66 68 0 0
1.2259 2.4818 2.9217 0.485 -0.799 -0.356 66 66 68 0 0
1.2635 2.4481 2.9250 -0.492 -0.744 -0.452 71 71 71 0 0
1.2468 2.4342 2.9227 -0.129 -0.710 -0.693 69 69 71 0 0
1.2315 2.4274 2.9222 0.552 -0.833 -0.024 67 67 69 0 0
1.2232 2.4586 2.9304 -0.286 -0.564 -0.775 68 68 70 0 0
1.2061 2.4422 2.9276 0.749 -0.650 -0.125 68 68 68 0 0
1.2525 2.4568 2.9420 0.498 -0.647 0.577 79 77 79 0 0
1.2356 2.4415 2.9395 0.498 -0.647 0.577 71 69 71 0 0
1.2246 2.4584 2.9444 0.638 -0.770 0.009 72 70 72 0 0
1.1092 2.4418 2.9485 -0.412 -0.837 -0.360 71 71 70 0 0
2.3557 3.1870 3.0745 -0.784 -0.241 -0.572 112 112 114 0 0
1.2583 2.3970 2.9550 0.179 -0.979 -0.098 75 74 76 0 0
1.1976 2.3709 2.9528 0.306 -0.952 0.000 73 73 75 0 0
1.0839 2.4403 2.9782 -0.891 -0.321 -0.322 67 67 69 0 0
1.2457 2.3966 2.9699 0.469 -0.777 -0.420 63 61 68 0 0
1.0862 2.4459 2.9935 -0.672 -0.736 0.087 59 59 61 0 0
1.3131 2.5214 3.0108 0.563 -0.808 -0.171 46 45 50 0 0
2.3692 3.2153 3.1277 -0.856 -0.092 0.509 143 143 145 0 0
2.2490 3.0649 3.1132 0.768 -0.639 -0.046 75 75 77 0 0
1.2910 2.4645 3.0264 0.172 -0.827 0.535 35 34 40 0 0
1.1318 2.3599 3.0107 -0.152 -0.987 -0.060 36 37 41 0 0
1.0562 2.4933 3.0502 -0.788 -0.359 0.500 32 33 37 0 0
1.2955 2.4803 3.0443 0.668 -0.744 0.013 24 25 29 0 0
1.1879 2.3543 3.0193 0.623 -0.776 -0.097 35 34 40 0 0
1.2214 2.3774 3.0370 -0.004 -0.971 0.240 23 24 26 0 0
1.1106 2.3815 3.0458 -0.378 -0.881 -0.285 22 23 28 0 0
1.2284 2.4075 3.0584 0.125 -0.851 -0.510 14 15 17 0 0
1.1870 2.3334 3.0419 0.209 -0.798 -0.565 24 25 30 0 0
1.1113 2.3770 3.0586 -0.378 -0.881 -0.285 19 19 25 0 0
1.1736 2.3200 3.0673 0.497 -0.848 -0.186 17 18 22 0 0
1.1364 2.3447 3.0764 0.091 -0.995 -0.032 21 22 26 0 0
1.1304 2.3906 3.0889 -0.059 -0.984 0.166 18 19 23 0 0
2.5436 3.4884 3.2983 0.739 -0.499 -0.452 196 196 198 0 0
1.1374 2.3426 3.0897 0.188 -0.977 0.102 14 15 19 0 0
1.1392 2.3444 3.1041 0.188 -0.977 0.102 12 13 17 0 0
1.1250 2.3424 3.1045 0.004 -0.999 -0.040 11 12 16 0 0
1.1406 2.3443 3.1179 -0.298 -0.945 -0.137 13 14 18 0 0
2.4526 3.3303 3.3102 0.917 -0.375 -0.136 156 155 152 0 0
1.1419 2.3435 3.1316 -0.595 -0.804 0.026 13 14 18 0 0
2.5450 3.4695 3.3579 0.827 -0.551 -0.111 194 194 196 0 0
2.4518 3.3217 3.3239 0.926 -0.357 -0.123 155 154 151 0 0
1.8597 2.5098 3.1423 -0.188 -0.496 -0.848 54 53 57 0 0
1.8427 2.4999 3.1408 0.211 -0.580 -0.787 53 52 57 0 0
1.5423 2.3089 3.1230 0.304 -0.952 -0.032 41 42 46 0 0
1.5020 2.3163 3.1278 -0.304 -0.906 -0.294 38 39 43 0 0
0.5988 3.0796 3.3984 -0.974 -0.213 -0.072 82 82 83 0 0
1.2452 2.2784 3.1486 -0.246 -0.958 0.148 38 37 42 0 0
1.2309 2.2754 3.1488 0.015 -0.921 -0.390 35 34 39 0 0
1.1713 2.3281 3.1673 0.137 -0.983 0.122 34 35 38 0 0
1.1570 2.3261 3.1677 0.139 -0.985 0.102 30 31 33 0 0
0.7961 2.6288 3.2757 -0.826 -0.339 0.450 50 49 54 0 0
0.5995 3.0719 3.4114 -0.974 -0.213 -0.072 79 77 80 0 0
1.7034 2.4413 3.1771 0.288 -0.257 -0.923 49 48 53 0 0
1.5721 2.3037 3.1476 0.436 -0.675 0.596 47 46 51 0 0
1.4905 2.3146 3.1561 -0.107 -0.980 -0.167 43 42 47 0 0
1.4117 2.2721 3.1496 -0.453 -0.353 -0.819 39 40 44 0 0
1.2330 2.2794 3.1636 0.088 -0.995 0.045 38 37 42 0 0
1.2177 2.2710 3.1623 0.288 -0.942 -0.169 38 37 42 0 0
1.1727 2.3277 3.1811 0.043 -0.989 0.142 36 37 40 0 0
1.1589 2.3282 3.1822 0.137 -0.983 0.122 34 35 37 0 0
0.8212 2.5928 3.2784 -0.892 -0.427 -0.147 51 50 55 0 0
0.8095 2.6117 3.2844 -0.877 -0.429 -0.219 51 50 55 0 0
1.5763 2.3156 3.1647 0.309 -0.951 0.025 48 47 52 0 0
1.5531 2.3372 3.1723 0.680 -0.733 -0.001 47 46 51 0 0
1.1983 2.3084 3.1880 -0.309 -0.936 -0.168 40 41 45 0 0
1.1852 2.3123 3.1899 -0.309 -0.936 -0.168 39 40 44 0 0
1.0300 2.2931 3.1950 -0.712 -0.702 -0.002 39 40 44 0 0
1.0164 2.2944 3.1962 -0.777 -0.569 -0.270 40 40 45 0 0
0.9112 2.6169 3.2935 -0.706 -0.259 0.659 46 45 50 0 0
0.8296 2.5388 3.2771 -0.835 -0.366 -0.410 50 49 54 0 0
1.2149 2.3151 3.2027 -0.010 -0.948 0.317 42 42 47 0 0
0.9475 2.4679 3.2635 -0.022 -0.417 -0.909 45 44 49 0 0
1.4786 2.3034 3.1958 0.053 -0.872 0.487 46 45 50 0 0
1.4644 2.3027 3.1966 0.285 -0.780 0.557 46 45 50 0 0
1.0873 2.3718 3.2412 0.212 -0.977 -0.008 41 41 46 0 0
1.6420 2.3971 3.2257 -0.621 -0.770 0.149 51 50 55 0 0
1.4790 2.2988 3.2085 0.169 -0.925 0.340 47 46 51 0 0
1.4428 2.2601 3.1999 -0.668 -0.665 0.335 48 47 52 0 0
1.0988 2.3487 3.2479 -0.550 -0.527 0.648 43 42 47 0 0
1.0908 2.3840 3.2585 0.000 -0.873 0.489 42 42 47 0 0
0.8375 2.5654 3.3269 -0.537 -0.711 0.454 54 53 58 0 0
1.6458 2.4065 3.2423 -0.597 -0.790 -0.136 51 50 55 0 0
1.5061 2.2884 3.2177 0.556 -0.826 0.097 49 48 53 0 0
1.4825 2.3081 3.2249 0.228 -0.944 0.239 50 49 54 0 0
1.2479 2.3198 3.2438 0.169 -0.982 0.078 45 44 49 0 0
1.1170 2.3654 3.2655 -0.733 -0.637 -0.239 45 44 49 0 0
1.0923 2.3842 3.2725 -0.650 -0.749 0.130 44 44 48 0 0
1.6690 2.3782 3.2469 -0.349 -0.935 -0.064 49 48 53 0 0
1.6230 2.3633 3.2456 0.395 -0.864 0.313 50 49 54 0 0
1.5130 2.3127 3.2383 0.319 -0.895 0.311 50 49 54 0 0
1.4887 2.3296 3.2447 0.500 -0.776 0.384 50 49 54 0 0
1.4021 2.3851 3.2664 -0.423 -0.013 -0.906 46 45 50 0 0
1.2675 2.3423 3.2630 0.332 -0.914 -0.232 46 45 50 0 0
1.2384 2.3356 3.2630 -0.003 -0.997 0.081 44 43 48 0 0
1.2245 2.3357 3.2639 -0.003 -0.997 0.081 44 43 48 0 0
1.0937 2.3841 3.2864 -0.567 -0.701 0.432 44 43 48 0 0
1.6055 2.3422 3.2548 -0.739 -0.605 -0.296 48 47 52 0 0
1.5941 2.3540 3.2590 -0.739 -0.605 -0.296 49 48 53 0 0
1.5826 2.3653 3.2630 -0.660 -0.688 -0.303 48 47 52 0 0
1.5677 2.3620 3.2630 0.334 -0.696 -0.635 48 47 52 0 0
1.5443 2.3209 3.2526 0.467 -0.812 0.350 49 48 53 0 0
1.0848 2.4056 3.3073 -0.784 -0.489 0.382 45 44 49 0 0
1.5512 2.3448 3.2732 0.334 -0.696 -0.635 49 48 53 0 0
1.5418 2.3656 3.2799 -0.193 -0.658 -0.728 48 47 52 0 0
1.5151 2.3724 3.2836 0.069 -0.996 -0.064 48 47 52 0 0
1.4952 2.3457 3.2771 0.142 -0.811 0.567 49 48 53 0 0
1.0753 2.4238 3.3274 0.011 -0.861 0.508 47 46 51 0 0
1.0615 2.4250 3.3286 -0.008 -0.789 0.615 47 46 51 0 0
1.5503 2.3343 3.2843 0.334 -0.696 -0.635 45 44 49 0 0
1.5407 2.3539 3.2907 -0.193 -0.658 -0.728 43 42 47 0 0
1.4481 2.3157 3.2855 -0.751 -0.587 0.301 46 45 50 0 0
1.0611 2.4137 3.3395 0.136 -0.933 -0.333 44 44 49 0 0
0.9785 2.4215 3.3471 -0.183 -0.830 0.527 44 43 47 0 0
0.9390 2.4371 3.3543 0.388 -0.921 0.049 43 42 47 0 0
1.5495 2.3238 3.2953 0.334 -0.696 -0.635 42 41 46 0 0
1.5396 2.3423 3.3014 -0.193 -0.658 -0.728 42 41 46 0 0
1.4938 2.3257 3.2995 0.445 -0.604 0.661 42 41 46 0 0
1.0758 2.4096 3.3514 -0.295 -0.889 -0.351 34 35 39 0 0
1.4377 2.3187 3.3151 0.418 -0.782 0.463 40 39 44 0 0
1.0627 2.4059 3.3653 -0.221 -0.918 -0.330 33 34 38 0 0
1.0482 2.4029 3.3653 -0.019 -0.982 -0.190 34 34 37 0 0
0.9860 2.4514 3.3837 -0.264 -0.409 0.873 36 36 38 0 0
1.5155 2.3470 3.3326 -0.884 -0.422 0.201 40 39 44 0 0
1.5050 2.3635 3.3382 0.066 -0.821 0.568 40 39 44 0 0
1.3801 2.3030 3.3282 0.047 -0.962 0.270 52 52 55 0 0
1.0633 2.4012 3.3780 -0.221 -0.918 -0.330 40 41 45 0 0
1.0492 2.4003 3.3786 -0.019 -0.982 -0.190 37 37 40 0 0
2.4787 3.3179 3.5759 0.903 -0.421 -0.081 121 121 123 0 0
1.0640 2.3963 3.3906 -0.100 -0.986 -0.134 59 60 64 0 0
1.0511 2.4028 3.3933 -0.071 -0.871 -0.486 56 56 59 0 0
1.0392 2.4154 3.3979 -0.370 -0.761 0.533 53 53 55 0 0
1.0661 2.4005 3.4058 -0.161 -0.919 0.360 42 43 47 0 0
1.0526 2.4032 3.4075 -0.063 -0.954 0.295 36 36 39 0 0
1.0429 2.4298 3.4161 -0.333 -0.699 0.632 34 34 36 0 0
