ply
format ascii 1.0
element vertex 737
property float x
property float y
property float z
property uchar diffuse_red
property uchar diffuse_green
property uchar diffuse_blue
end_header
1.923584135895581 3.7655991367582677 1.6556147153048824 56 55 59
1.9363428278938182 3.74060432845248 1.6518259399286181 54 52 57
1.9868465599962684 3.6930435125620344 1.6351664698256678 53 52 56
2.185267812850734 3.277516373386225 1.5771113542332027 42 42 44
2.1705057033169455 3.2695009667776658 1.582689891167929 38 37 43
2.1649594965322985 3.2563237263361633 1.5851146388236095 37 36 41
2.1605425903325237 3.242520222753952 1.5871527241892247 38 38 41
2.1547026534952183 3.2295046806565497 1.5896780809189834 44 44 45
2.0261556502342377 2.974620207069946 1.6442429356248838 38 38 43
2.028895740933226 2.9571847902064747 1.6438196263298284 30 30 35
1.9733634565228966 2.8089802921973543 1.6686239764477349 36 36 38
1.8992009467890791 2.7807182448005183 1.6962612732827436 48 46 51
1.0821374885805426 2.632002626938162 1.9954852252248754 43 43 48
1.0560732621689082 2.62574264379441 2.005079474615911 45 45 50
1.9462175239794746 3.8945570455121876 1.6595450459534054 173 173 173
1.9127820535584092 3.8978454552247928 1.6715458957704565 136 136 136
1.9083046155668204 3.8480974867911186 1.6747428270377713 73 74 75
1.9185246062207792 3.824385635494031 1.6717939117078227 67 68 72
1.938396936674467 3.7775211718068173 1.6660838785341199 58 59 64
1.9681189189214061 3.7422231370997934 1.656441464161622 57 56 61
2.1876886441239054 3.279343212794481 1.591611253660764 34 34 36
2.1792409751668997 3.2678020177104257 1.595035259865585 33 32 37
2.1778358226858066 3.2523311395432484 1.5960340688444845 34 33 38
2.167437742517482 3.2418573450519013 1.600130391316977 42 42 44
2.03369742643512 3.0220030272504306 1.655514439617835 42 41 47
2.0370060557879404 2.9881110216412092 1.6553902087397796 28 29 34
2.0246981108810216 2.9783085368660207 1.6601567153332153 19 20 25
2.0326634779114743 2.9582109009825777 1.6579095758282971 15 16 21
2.046368524143297 2.9352753810145167 1.6536743339880131 14 13 18
1.9117187893073004 3.9021834208020123 1.6881318223695145 109 109 111
1.9107546454338904 3.850228442191954 1.690093427477691 75 76 77
1.9189155080498168 3.827763991048534 1.6878214079842626 70 71 74
1.9482281980312384 3.792458660950387 1.6782534748026647 66 67 71
2.2049962589055174 3.3053550678177626 1.59995610756336 33 33 35
2.0345074001283763 3.008447604803668 1.6711778263553931 23 22 27
2.0738647206526584 2.9083914906134596 1.6599637587348162 14 13 18
2.0726988396654757 2.893069215610043 1.6608629281506129 13 14 18
2.0645255879217244 2.8653742627194663 1.6646946757361845 23 25 27
2.0516321169206186 2.8558847526459727 1.669678949558484 32 34 36
2.0265618551176487 2.8523528896373542 1.6789078541320552 39 42 44
1.368164462340301 2.50319117821659 1.9292282149314903 56 55 58
1.9833368456176261 3.896184812043515 1.6784948059306544 175 175 175
1.9421041398186354 3.9044803452358354 1.6933124003296929 162 162 162
1.9167419935404295 3.8501862566233105 1.7042283200527064 55 55 59
1.934388241598819 3.821905048828239 1.6986370280754315 50 50 55
2.0556320558657304 3.000576033416177 1.679239318355252 14 14 17
2.0593608772120153 2.9826011856602404 1.6784217773164853 13 14 17
2.055915703429358 2.9683179744529404 1.680114122559886 12 13 16
2.058738110711375 2.95086403910926 1.6796120459252704 12 13 15
2.0640001598797326 2.932212415948582 1.678254688067869 14 14 18
2.0653175626496645 2.9155890297457314 1.6782774492011232 21 20 25
2.075760404812061 2.894423873148191 1.675102921064717 29 30 34
2.0620973343054936 2.885345039670587 1.68037171480784 37 39 42
2.057833701703279 2.87156351744222 1.6823479627566784 38 42 44
2.040831385682913 2.8640841299483597 1.6887886273810941 41 45 47
2.0270899766397905 2.8549497389913423 1.6940877365209945 43 47 50
1.1244916078918632 2.6395604809029964 2.030491512331401 43 42 47
1.9303639079033061 3.9155014258778404 1.713617608416677 148 148 148
1.9189570422789304 3.9050485345293797 1.7181160403197475 92 92 95
1.9262978080053865 3.8829434149116153 1.7160762434255779 70 73 78
1.9314270995600598 3.8622635040715605 1.7148061932605543 56 58 63
1.948058239689921 3.834552624149373 1.7095213847967754 47 46 51
1.958838585047911 3.810530782109573 1.7062754788907255 44 43 48
2.2062369505738033 3.278497039037676 1.631214364701101 58 57 60
2.0742630759050016 2.9939730946436036 1.688111614165475 14 15 17
2.0731319694388306 2.9785113977595334 1.6889855126038595 12 13 16
2.073685015155559 2.9622089461941394 1.6892659540196486 15 16 20
2.0737921397874657 2.946157496457549 1.6897026858626498 22 23 27
2.076877288725925 2.928623757388472 1.6890898994095664 31 32 36
2.082223639250459 2.9099874084467716 1.6876795392586543 38 39 43
2.0817419086367095 2.8943165793509604 1.688321200249619 44 45 49
2.062820506782166 2.8878674999247713 1.6954600971912992 44 46 49
2.050606302498164 2.8780276315792017 1.700236788963278 44 46 48
2.041035449207441 2.8668503443210867 1.7040825522552083 44 45 47
2.0280234418761105 2.8573501212415624 1.709142110624311 42 44 47
1.9343250832494716 3.916722789389134 1.7284864971406173 145 144 144
1.9163616491464621 3.910354034875068 1.7352978198833735 80 80 82
1.928179126878548 3.8854469898773734 1.731660254568482 66 68 73
1.928741530603771 3.8675783201107268 1.7319706946551807 50 52 57
1.9194558262463375 3.855803976317482 1.7357374716501672 46 45 50
1.9348718750716918 3.8288525716074933 1.7308316442779645 42 41 46
1.9162110780520882 3.8228325896683955 1.7378901159544216 39 38 43
1.9265038988849774 3.799115309852155 1.7347805135395085 37 36 41
2.0005247034093454 3.181786754460947 1.7253670183819076 39 40 44
2.0938305258654206 2.9868776257546807 1.6965957178911248 17 18 21
2.095085988926059 2.9702235437149462 1.6966152836922577 28 29 32
2.089842330458299 2.956911925258611 1.6989355028180295 34 36 37
2.1002311566178355 2.9356605401938842 1.6957190116413552 40 42 41
2.099299083548998 2.920201425330847 1.6965109263723055 43 44 47
2.087027267416048 2.9104717165405147 1.701320020595105 46 47 49
2.0770710031829487 2.8995507502665183 1.7053094332203402 46 47 49
2.074056591912607 2.8851429504143167 1.7068390529224795 47 47 49
2.0565758857152954 2.8779383248204087 1.7134965240228168 43 42 45
2.0327614715435214 2.8738181004342405 1.7224011069879699 37 36 39
2.0253062256351573 2.8615534253260515 1.7255068379672611 36 35 40
2.03739882955221 2.8396824785380517 1.7216797790642757 55 55 58
2.030338963702931 2.827247057306942 1.7246446029087992 77 77 79
1.9440493536242331 3.914339564241038 1.741326302571533 155 154 155
1.8851226345354268 3.933521963598908 1.7626227036170417 86 86 88
1.9336372724852215 3.885732221542823 1.745995082257287 72 75 80
1.9341951254093135 3.8678643218204454 1.7462941565018113 60 62 67
1.9483967614995323 3.8416132175881645 1.7417738892738526 52 51 56
1.952079523734625 3.821912891214396 1.7409666831619026 45 44 49
1.9386940863926658 3.812698771596608 1.7461884425179182 40 39 44
1.937773969839995 3.7958494915696908 1.7470064459749246 35 34 39
2.0259364100631108 3.1877267442155595 1.7315471203244095 39 40 44
2.105877984596681 2.983641010226679 1.707696651590064 36 37 38
2.112225237624214 2.964390029067089 1.7058892104526322 41 43 42
2.113268086986472 2.9478960123712485 1.7059696416395387 44 46 45
2.107296862094239 2.9349939059482173 1.7085479471631786 46 48 47
2.101354617109882 2.9220739161537495 1.7111160184080212 46 48 49
2.090281878919321 2.911736764249947 1.7155124366108805 48 49 51
2.078769362760326 2.9015954561913877 1.720066301282319 43 44 46
2.061163023505418 2.8944730401162424 1.7267931982007725 31 32 34
2.04588856130091 2.8861376645705814 1.7326901920133273 28 28 30
2.052571379941038 2.8668789165107036 1.7307586033166709 34 34 37
2.003323095494353 2.875268910378786 1.748773504161526 41 41 46
1.9965718872580114 2.862593290493968 1.7516344757081412 37 36 42
1.8934914189652519 3.9320162911584937 1.776037436255683 108 108 110
1.9403199030691294 3.885256024655653 1.759893396544571 85 86 91
1.9865147382905035 3.8391284478329024 1.7439678071991525 67 68 73
1.9327394599194634 3.8025253324619603 1.765002037390329 36 35 40
1.9627611257939308 3.766864516503937 1.7548091567411654 36 35 40
2.0557227000805747 3.1912308754002483 1.7361024121418172 37 37 41
2.1288740591874604 2.9907421457809096 1.7144053119881861 42 43 45
2.130638017300634 2.973850454851012 1.7142152917260634 43 45 45
2.1228517298097627 2.9618875185531177 1.717445025217041 45 47 45
2.1138556790533345 2.9505315525723623 1.721108431025092 47 49 47
2.103299580827512 2.9399530121405526 1.7253312242098842 49 51 51
2.096464229676681 2.927466975466441 1.7282213397555304 41 41 43
2.085766756448614 2.9169221984942655 1.7324958397090078 32 32 34
2.0792710720583965 2.904243621082073 1.7352648038057212 28 29 31
2.062778417356565 2.8965598254907454 1.7416180312067935 29 30 32
2.039471267821486 2.8922221980895113 1.7504161112759618 26 28 30
1.9854294363559406 2.9030502706098975 1.7702389065602577 22 24 26
1.9692580309872183 2.8949709990788333 1.7764834478671494 17 19 22
1.88815301150535 3.9390651023958703 1.7943349735704948 131 131 133
1.9368366939326305 3.8911016242914864 1.7774170926190778 83 83 87
1.94436533686582 3.7990382423341407 1.7770826356480056 36 35 40
1.9451231931466642 3.7291310767275596 1.7786836260388295 33 32 36
2.045771224476017 3.2490709837978127 1.753975705394566 41 42 45
2.0673894402287183 3.20444415643528 1.747092102507732 30 31 35
2.1452831464043594 3.0172060695215928 1.7230022011889508 44 45 47
2.1510974562841696 2.998178821839377 1.7213401904449075 45 46 48
2.1426439364561674 2.986584586876637 1.724814894168794 46 47 49
2.133565829687149 2.975298406873702 1.72851492934962 46 47 48
2.130390189202853 2.9609656346349267 1.7300891894122414 45 47 46
2.1134359288324642 2.95368535993373 1.7366274255270766 41 43 42
2.100906207401353 2.944102497998846 1.7415726702826428 33 35 34
2.0940984825726154 2.931587751832083 1.7444565550105517 25 25 27
2.08690078353462 2.919263136178856 1.7474811898304867 28 28 30
2.076742960846921 2.908418134419993 1.7515732153659178 38 38 40
2.06656120610661 2.897564170248483 1.7556744346252815 41 42 44
2.0351518464312197 2.8972697032834724 1.7674314913106886 20 21 23
1.8852999825970445 3.944571161954634 1.811783956621464 143 143 145
1.9451886180012803 3.8895880979903876 1.7907234089630861 85 85 89
2.127736121014685 3.2238007451324457 1.7396207426115586 31 32 34
2.137485250732941 3.202146196200669 1.7365262019480692 29 30 32
2.17102870035544 3.022734805078984 1.7286358142159393 44 43 48
2.169473955987824 3.0075624897064666 1.7296187929040423 45 46 48
2.1580443427752267 2.981575183758706 1.7345968515648207 45 46 48
2.1523805735116612 2.968551921289673 1.7370674797565206 38 39 41
2.1060758668733697 2.9603939601039055 1.7546826617578035 24 24 26
2.093898540071446 2.9506084429961343 1.7595159256229198 26 27 28
0.9063300431121996 2.539227047350945 2.216601913551589 178 178 178
1.8876124000513026 3.9468550694993727 1.8273996738478488 135 135 137
2.186499462485647 3.0496066828781796 1.7375363628480593 46 45 50
2.1889793869858702 3.032291173411355 1.7370434606250376 48 47 52
2.236414638813308 2.9914116574335248 1.7201825155379733 48 47 52
2.235589811343342 2.9759871372665625 1.7208887950237048 44 45 47
2.1290031543797308 2.9835775839850682 1.7609325566224905 23 23 27
2.0891645021252145 2.9720023993030344 1.7762686008970245 29 28 33
0.9365173885683317 2.530025886947236 2.2227258501965683 178 178 178
1.899824671616976 3.9429466674134073 1.8394273707782651 117 118 120
2.2072017689246284 3.0736823884294666 1.7445214175095112 46 45 50
2.2140334414371 3.054028089113352 1.7424203973584187 48 47 52
2.234077864638389 3.0274280230553066 1.7354816386023375 49 48 53
2.2401609748023468 2.992419266775256 1.7340471870152856 33 32 37
2.241979156776861 2.9756081642688197 1.7337766388326203 30 29 34
1.9079337262367597 3.94160104489545 1.8529256085422496 99 100 102
2.004066384742806 3.8464786199417027 1.8186077581866202 73 75 77
1.9447065712915181 3.8482893799181412 1.8411783665427799 50 51 55
2.2365807802408875 3.125128983090907 1.7475142476341095 43 42 47
2.229034215805195 3.033106566498333 1.7526202640615876 34 33 38
1.011527086409077 2.5058231077542947 2.229241430671969 130 128 129
0.90601209331503 2.5301398852593078 2.268850301129758 180 180 180
1.9098664463038582 3.9441234895978763 1.8686835200006917 98 99 101
1.9803821546611642 3.847381571201385 1.8439764105446368 52 52 55
2.260686467100253 3.1151098023053043 1.7539576572355138 46 45 49
1.397660772897962 2.552768110584175 2.0974929088305148 72 70 73
0.9451136935199045 2.517477940481485 2.271516550035335 174 174 174
1.9195850441987994 3.9417655004282373 1.8815736842097777 96 97 100
1.9646299167022123 3.8959201742801826 1.8653057821186323 83 84 88
1.9570938307478947 3.8830460176790558 1.8684975454730555 66 67 70
1.9606683521621049 3.8632706381452504 1.8675758842886607 51 50 54
2.3116464830220393 3.1543780142655002 1.748868036901583 45 45 48
2.2969422849756005 3.146461501557581 1.754702052675756 45 45 49
2.2909444339296883 3.133728926216993 1.757299219353069 46 45 51
1.449649123608565 2.5501092778767385 2.0940806489719668 84 82 86
1.4163983634407902 2.5475948301933826 2.1069210626566806 57 55 59
1.9037451629548459 3.9554465466702258 1.903957884454754 101 102 105
1.940799476190441 3.91452552772957 1.890556994818894 81 82 85
1.9612462954415557 3.884149487258297 1.8833353685101075 66 67 71
1.9555332800645961 3.8701332087103957 1.8858527715575244 54 55 59
1.4765388348909578 2.541465176120021 2.1003266540921923 72 71 76
1.8988431464565645 3.962276829495517 1.9223373505274017 126 127 129
1.9321993370671877 3.923626476374246 1.91022986103359 87 88 90
1.95567802422249 3.8913155515357176 1.9018175409611828 70 71 73
1.9746979087711205 3.8443880465850437 1.8954493827624068 49 50 54
1.504077610593239 2.5325338794205234 2.106238776289676 54 53 58
1.8906923222423726 3.9711594405831545 1.9419834530757203 154 155 157
1.9486806196384392 3.9170302624574953 1.920516205596608 100 101 103
1.530198810043042 2.5404878476704296 2.1122603512858187 65 66 67
1.922045258271307 3.9374514226818675 1.9470841903164864 115 115 116
1.7023955701578253 2.5987871324196057 2.0600315273621335 37 38 40
1.466524510084796 2.5372177516629026 2.1535900362588123 54 53 58
1.8592607852726182 2.5960319974633075 2.014515258652811 36 35 40
1.8169243106328488 2.5989944365406776 2.0311014435699493 41 41 46
1.7315524021021258 2.604771267117431 2.0645514796370295 49 50 52
1.5429411462123879 2.5567185588039414 2.139636313413104 53 53 55
0.8467031394318559 2.53738985781203 2.413726692123857 177 177 177
1.7373000270675518 2.5727151839742817 2.078952843595896 57 58 62
1.7187804136011935 2.5647186622008213 2.0864160239650267 59 60 65
1.6969428974423468 2.558108500881439 2.0951633265968366 62 63 67
1.6496800782242111 2.5462293514089236 2.1140494740356313 65 66 68
1.6383706901613817 2.534905587771789 2.1187280007774794 53 53 55
1.6158750674352085 2.5283219207900296 2.1277346769760968 49 49 51
1.5976826880988373 2.519845000582208 2.135077663968518 62 61 64
0.9999180666860595 2.548645081578453 2.3705802639496163 69 69 68
1.0015043867096383 2.5309071507329866 2.3702870553335402 77 77 75
1.7766356819036568 2.6223786200859416 2.078505969904182 56 57 61
1.6381180318559536 2.553860774465733 2.1346853578064104 49 49 51
1.6554790716143686 2.514085871392832 2.128519436062395 55 55 57
1.0048994370064153 2.515130785897389 2.386535494718659 81 81 81
1.9280549432964145 3.9131633908588532 2.011744770355534 115 116 119
1.7227801155069453 2.5683132189983446 2.1169371794777048 50 50 52
1.6782017934275262 2.5554145009537597 2.1349204876487526 50 50 52
1.6720524893571496 2.509650417855745 2.1381670477954726 60 60 62
1.013244121796378 2.51448782691527 2.4005329919770357 79 79 79
1.612545134007632 2.537684475178106 2.177665715676757 69 69 71
1.0258829297500656 2.5292210059567597 2.4125429581459144 70 70 72
2.059984838166349 2.660276398292653 2.0121837238627913 51 52 57
1.9670360058337948 3.8999803328242537 2.046286441512757 99 99 99
2.046424859555044 2.669377489929476 2.0331315891385917 54 55 60
1.6328611524992271 2.5180982958897515 2.2023784038538095 59 59 60
1.9468156595682076 3.9163672470694415 2.0708912229161736 96 96 96
1.9664673671086137 3.886377935812339 2.063364440971343 84 84 84
2.012655664769788 3.822487263385732 2.045577229653665 62 62 62
1.633335777082979 2.520538858055927 2.218432444817417 58 58 59
1.9329907875127845 3.928771385859783 2.093058707968677 94 94 94
1.9716001703369894 3.8868902983194116 2.077924458257243 82 82 82
2.021064276849973 3.8034467353247376 2.0589514686686177 51 51 53
1.9332234656762335 3.932378333570028 2.1096780123608108 96 96 96
2.018568373329625 3.826156053700502 2.0761913659483944 63 64 64
1.9754466733850953 3.8352827608027993 2.0937024673743103 54 54 56
2.105768753769016 2.856008270540827 2.0534183639962955 10 11 13
2.060813965112293 2.8141289340887696 2.072356333766606 18 18 20
2.0566804895884734 2.800135594847442 2.0742323180485207 24 24 27
1.9694738892823307 3.8779679096891693 2.112258254710942 80 83 82
1.9723997346059585 3.8584824206152213 2.111302019915118 69 73 73
1.9759717074734466 3.838636840684127 2.1100849813231304 60 61 63
1.940337475585107 3.8429848793329717 2.12466368504144 52 51 55
2.1301010686217015 2.878776688095829 2.0588734386552336 10 11 13
2.1203917815791646 2.851623784824343 2.063202423257483 12 12 14
2.099546583303153 2.829975804319319 2.0720351487048014 15 15 17
2.0879226391624486 2.8197092582032575 2.076937834723304 18 18 21
2.0160000111972307 3.782526769713261 2.110903026493866 50 49 55
2.031234956079496 3.7557315273315712 2.1049385993119776 41 42 47
2.1260216222833517 2.8837443639862137 2.0762198901094533 11 12 14
2.1583070634776207 2.851557596812535 2.0632876499432173 12 12 14
2.1374383770524066 2.846023797321852 2.071960124650028 13 13 15
2.0095886946741044 3.842769677882959 2.1294503713466884 78 81 86
2.045495871469365 3.7680369915631715 2.1154154634502897 57 57 64
2.0848835998607878 3.726498384315656 2.099567089227334 47 48 54
2.13145701421712 3.5781338907458267 2.081939315753737 28 28 30
2.2910563839222813 3.3339285062870307 2.018571803102593 30 30 32
2.2968628382303806 3.314157444717713 2.0163883658401547 33 33 35
2.189653143560802 2.8546547334097356 2.065940733195632 12 13 15
2.1674648870064126 2.8498674626121403 2.0751843714358986 14 14 16
2.0589524630592915 2.807602764514513 2.1206019059881167 53 54 57
2.047982330439694 2.7969092357146 2.125265353554677 51 54 57
2.038384548915703 2.785527530433998 2.1293681059855603 47 50 53
2.069476608527641 2.754526920219992 2.1168375999893665 36 37 41
2.041237856892457 3.8092515315711584 2.1332752881269257 73 76 81
2.052850651720082 3.767143529198115 2.1288874972757243 63 64 70
2.1529388246578014 3.551806048317832 2.0895190250689315 27 27 29
2.285942798924869 3.3566460606753523 2.0362471868764414 24 24 25
2.281139487189764 3.342924715459542 2.0383893288342625 28 28 30
2.284979424699853 3.324244203053374 2.0369884364039827 34 34 37
2.288810589862357 3.305609809801004 2.035590708126277 39 39 41
2.2789045853662677 3.294839806399723 2.0398242940103724 36 36 38
2.1643868279341354 3.0799434815326934 2.089716381908562 32 31 36
2.191553651453052 2.856599035113076 2.080763648367046 18 18 22
2.0791402773258496 2.816623194836053 2.127942053025889 50 50 54
2.0718163377356222 2.804184357820207 2.13111916968343 50 51 56
2.051030572388915 2.7822525412340546 2.1399954925846263 33 35 38
1.1046033835630564 2.504810501288576 2.536577103311824 53 52 54
2.054363221970855 3.8047769195738033 2.144411679431131 75 78 83
2.1154925418911636 3.749523606781761 2.119419250371858 73 74 79
2.195743273779463 3.5297990871803755 2.0880538503601715 32 32 34
2.300593329504213 3.3514651095252903 2.046006619044637 24 24 26
2.2989162075069713 3.335962801421678 2.0468593451589436 30 29 33
2.300757431013829 3.3184555890281584 2.0462620769663613 35 34 39
2.3047840083770836 3.299729986339946 2.0447639079813316 36 36 39
2.277329282343428 3.282562192554455 2.0564007308369283 36 36 39
2.2070634076063302 2.8516883251893415 2.0899812522425028 37 36 41
2.123328359724163 2.877810134653294 2.1247024243126913 38 39 41
2.115055425042799 2.8658959770946684 2.1282751153697586 40 42 43
2.1029152152336303 2.8398469641299506 2.133601974946517 43 48 49
2.0930562034134716 2.8286857263159058 2.1378298074313666 48 49 54
2.084837489735534 2.8166994921434605 2.141380556911762 43 44 49
2.077331118339264 2.8043524480846704 2.1446372902943915 33 34 38
2.0795605997771376 2.7872572787660475 2.1438737956566425 33 34 38
2.062282361720432 2.779647287575798 2.1511659093364703 34 35 39
2.116389059860803 3.7006945412333594 2.1359079976449187 61 62 63
2.2863921993508214 3.346477875286313 2.0678245753006093 35 34 40
2.319795436230484 3.3107829367475006 2.054137913652928 37 36 41
2.2199382327349295 2.8480978748556627 2.1002466769963233 43 42 47
2.094856096720119 2.8467344272870636 2.152729433995956 40 46 46
2.1981385756096183 2.8779555838247304 2.124802866844824 45 44 49
2.1823325274573424 2.8888979698165524 2.147104916932452 39 39 41
2.0891561669439715 3.7281482861776576 2.1965378805679188 78 77 83
2.266187040774772 2.9128269357602083 2.12706685378457 34 33 38
2.2748987517446366 2.8924244360743776 2.1235095175329057 33 32 37
2.087793766253354 3.732594191356793 2.21361071857292 75 77 82
2.152452531390465 3.6757113969877757 2.1863885891994665 72 73 78
1.3003781231137093 2.492793437487565 2.5573623324420938 49 50 54
1.2595672531244275 2.492501304030844 2.574773455479019 58 59 61
2.0912142306014636 3.734110172448208 2.2286795373513835 68 69 74
2.123970115195888 3.696700409905313 2.2148589335241784 68 67 73
1.374746822302634 2.498569139358308 2.542550251476334 44 42 48
1.2744506556742057 2.505959952837583 2.5854717851298736 60 62 65
2.1085906718929865 3.7097020891704524 2.2378804208260936 66 65 69
1.3566554334390035 2.4919305586758247 2.567331604915491 63 65 68
2.113438848840042 3.8323549097647387 2.251790805999615 206 206 204
1.2815754413921159 2.4915596066526877 2.6167742093744124 90 89 90
1.2597780922456883 2.5030309529250663 2.6433508729584876 108 106 107
1.2607041035066633 2.5053180137971975 2.660169488379929 105 104 102
2.3344008618423584 3.501450386864678 2.2057802637695443 50 52 57
1.8615789482273228 2.587801926667913 2.4469963772550485 52 52 56
2.276581804108914 3.395398926417097 2.2795546457014924 49 49 51
2.3844396187265815 3.316065782416881 2.2318117492874494 50 50 52
2.411477320818748 3.2513639775632055 2.2198445213604368 41 41 43
2.359088402305944 3.2650296770687643 2.243034808899101 37 35 39
2.364442239921717 3.212935768399257 2.2406659387027577 30 29 34
2.334604503761445 3.213427058487458 2.2538739517244486 27 26 31
2.291419425261325 3.4235090664399723 2.289101181836515 58 58 60
2.326076776313221 3.353285852800385 2.273649387773385 53 54 56
2.373141592958622 3.3094713349788543 2.2527010832936294 53 57 59
2.390046775062949 3.2505706141770974 2.2451471244828007 46 45 50
2.3418712691032457 3.2617016949641235 2.2665667072512226 44 43 48
2.1902536780594533 2.985097093697447 2.3337649040448976 31 30 35
2.0036441248388814 2.6733411118909647 2.416491473401257 46 47 51
1.9881436934075456 2.664485598963767 2.423374692822432 47 48 52
1.9643306052508929 2.65943227869675 2.4339551374620587 49 49 54
2.0181161887584707 3.81574942142785 2.4277415855146636 87 85 86
2.069729129807926 3.7662418609010415 2.4046402089927437 77 75 78
2.303753257056365 3.3862526622261924 2.2996773823985666 56 57 59
2.3367788801807854 3.350387180408452 2.2848896599193766 57 58 60
2.337824740547627 3.3332272447252187 2.2843990785483017 54 56 60
2.307197675018008 3.334376491137778 2.298068159638386 52 54 59
2.352591749353058 3.2917073636445453 2.2777514927147657 52 53 58
2.3728014940415627 3.2636895662167777 2.2686938330803104 52 51 57
2.377618486822807 3.244566519379929 2.266517635069708 50 49 54
2.3557319982035465 3.240658444663051 2.2762791572543835 49 48 53
2.3515012710861156 3.2266853789372485 2.2781477111065316 48 47 52
2.3306552497988613 3.222080301487745 2.2874439502940653 46 45 50
2.344217569265829 3.019848186269903 2.2811104928493884 41 40 45
2.2223922130154725 2.9713767781526084 2.3354082754179433 42 41 47
2.1992772079096534 2.967202131556614 2.345717658636815 42 41 47
2.0683640871116595 2.6458927907217378 2.403691521059362 52 51 56
2.028582689631351 2.6484599055973 2.4214477406783472 52 51 57
1.9962985135188698 2.647410182453304 2.435853258089585 53 53 57
1.9796184214926815 2.639055651642303 2.443285216637368 54 54 56
2.1165132504772886 3.7235935483233367 2.4003789928959023 74 74 77
2.2235577503550115 3.487181354977166 2.3519214319487003 32 33 37
2.2993629970905864 3.30903027011036 2.3175829413761115 45 46 48
2.310718038212919 3.285992980694062 2.312446951462852 46 47 49
2.3378788565934365 3.2540455831106874 2.300210425318922 49 50 52
2.3269712220142957 3.2438014226259133 2.3050761576235232 50 51 53
2.3016922190366476 3.241636952455756 2.3163979912343664 50 49 53
2.247966368916317 2.977208681576065 2.339915567019856 47 46 51
2.2253242967094464 2.9728679265987634 2.3500513478317924 46 45 50
2.245545543441094 2.9461878241717887 2.3409351745936795 45 44 49
2.2402748827467014 2.9328040473527266 2.34326865086025 45 44 49
2.1833163013467076 2.8010697189197824 2.3685129412608883 46 46 48
2.0763553864407673 2.660874884269015 2.4161432629308477 55 54 59
1.9462670295756361 2.6571996938147406 2.474422238153503 48 47 50
2.2454440511962575 3.5115188205635572 2.358477169560238 45 46 48
2.2197015381530907 3.492902055266523 2.3700053822465046 41 42 46
2.270044799949708 3.4126850576116334 2.3471331994719633 33 32 37
2.2633906248578235 3.3998038181678116 2.350090494701045 39 37 40
2.2677929039954736 3.380499980931733 2.3480559660987295 34 33 36
2.2813432862666008 3.174031111796326 2.3413812094454176 42 41 46
2.278671048836323 3.159108723081708 2.342541481937981 44 43 48
2.276659576028167 3.1438355509782347 2.3434035217647318 45 44 49
2.272552945942747 3.1297219050834095 2.345211332439283 45 44 49
2.2688419938849984 3.1153982217261715 2.346840555950543 46 45 50
2.2551108319414994 3.1065120652900844 2.352992679994569 47 46 51
2.2378825172583277 3.099475751071248 2.360723206873327 48 47 52
2.26284216352271 3.0534397839910445 2.349365854610439 50 49 54
2.192957468934331 2.9440725589222456 2.3804971834922117 46 45 50
2.2449896252795414 2.9011770762856615 2.3569699086327494 45 44 49
2.250827227094172 2.882139304365047 2.354290437743311 45 44 49
2.22312537213183 2.8802163969663237 2.3667468895478123 46 45 51
2.2193310953919183 2.8660823770416037 2.368414129069961 46 45 50
2.170799091167412 2.778120918483635 2.3899998548388446 47 47 51
1.9750773532799764 2.6466807248862247 2.4776778245368583 45 43 48
2.1516708511489058 3.588148653266293 2.417427939009056 47 48 52
2.2370179808995654 3.5030373914637285 2.378581159644722 45 46 49
2.2150647751846075 3.4990933164575275 2.3884826740316085 42 43 47
2.2439876618968224 3.4650563671052503 2.375299827704084 41 42 47
2.2572677777356054 3.440370547744692 2.3692150299248693 41 42 47
2.2601021388528726 3.421885393618375 2.3678699340853124 41 40 45
2.269218307369396 3.399774950440613 2.363674867790518 41 39 42
2.2439193781544704 3.397719553697815 2.375094143234677 39 39 41
2.329751727936571 3.1994579637732046 2.3356307610052074 32 32 34
2.3048153030360226 3.1970046438868898 2.3468849102917986 31 31 34
2.2973189843989945 3.1847688323515144 2.350227712702267 33 32 37
2.373969293035859 3.109741135754598 2.3153443522197095 32 31 36
2.3649830358603294 3.098499335739816 2.3193635906777796 34 33 38
2.340153547993034 3.095904597589288 2.3305689441231308 36 35 40
2.3011590209034454 3.100936630355093 2.348198858023792 32 31 36
2.2857152172890003 3.093044364208479 2.3551464724882867 32 31 36
2.2755719866233 3.082243579985389 2.3596898178151506 33 33 36
2.2430165601882974 2.905158669522483 2.373771753396066 39 38 43
2.2278543807517797 2.8968415562884786 2.380590677391748 40 39 44
2.2135988588845823 2.888019402402984 2.3869983271255544 39 37 44
2.2038499983934665 2.8768728111923205 2.391362336846393 38 36 41
2.1066874845569985 2.7802733680102016 2.4349073715603264 37 36 43
1.995785567470785 2.639886844988731 2.4845041294204306 55 55 57
2.016808103635553 3.8136522864575695 2.4961041452137387 98 98 100
2.123410670473589 3.6779715699278137 2.447190909840749 71 72 74
2.1499893180395055 3.6444708127657197 2.43499701833414 65 65 68
2.169427155493857 3.615434879133937 2.426060077988773 59 60 64
2.18865829843396 3.5866391737829764 2.4172178803539475 53 54 58
2.147211082815033 3.5943471303724506 2.436045256262719 50 51 55
2.21052705852204 3.522256911451442 2.407029391560016 45 46 49
2.19337091170303 3.515404447294306 2.4147801665590025 43 44 48
2.2864644684106383 3.2599761236613984 2.3714872821816857 28 27 30
2.307884577989831 3.2313862842165597 2.361653335113905 27 27 30
2.3632303382163298 3.118803333770192 2.3360807428783623 25 24 29
2.3534573714595926 3.107960596852326 2.3404666638438996 40 39 44
2.348838161959624 3.094276939624955 2.3425035465804593 37 36 41
2.3204903065847224 3.093529243158469 2.3553551339232275 27 26 31
2.307815163561279 3.0841709065312912 2.361063354824689 27 26 31
2.293069128548998 3.075898909466617 2.3677152374428596 31 31 34
2.27464701721308 3.069563614873153 2.3760422654896405 34 34 37
2.2281572899698334 2.9480726603950016 2.3966108387140226 29 28 32
2.2326722961245498 2.92957881676739 2.3944853738889025 30 29 33
2.2132589839827888 2.9234277968742557 2.403262654130221 28 27 31
2.17152570271623 2.8800554340723985 2.4220041193838817 33 31 34
2.164296742474166 2.867544077553844 2.425229379984668 35 33 36
2.0766346514741048 2.6531068833024305 2.464075790404077 69 68 70
2.23023884441185 3.513990176570047 2.414447507416427 47 48 50
2.34979321987228 3.1131124951837537 2.3580410803053438 31 30 35
2.343267006750424 3.100454054809171 2.360949860252296 30 29 34
2.3435473599164314 3.0840770611076938 2.3607414684515153 29 28 33
2.3329515634885922 3.073633138549361 2.365513933432592 27 26 31
2.3202117264834565 3.0643252213229966 2.371268120599585 26 25 30
2.3111006215471295 3.0530288057253356 2.375360444232984 28 27 32
2.2555580930626142 2.90465655012602 2.3999157497641446 34 34 36
2.26322957584107 2.8846574612295184 2.3963245268372044 42 42 44
2.2287028781858162 2.886238196199271 2.41205134241013 51 50 52
2.210561717950375 2.879369226284021 2.4202766244886145 56 54 57
2.208929255100922 2.864095904410042 2.4209445254871795 61 59 62
2.1938472221390133 2.855610306904512 2.4277691025497012 63 61 64
2.184529780299005 2.8441920705466956 2.4319547647934723 64 62 63
1.1480921756681979 2.563579898100426 2.9024315543507795 163 162 159
2.104777603252284 3.7490422915800297 2.4895282279429454 87 86 91
2.26259431651623 3.5321080328192287 2.4161694937715548 61 62 66
2.3392521029392443 3.105787092371623 2.378725698384237 35 34 39
2.335480661784516 3.0915998151677875 2.3803695152376223 34 33 38
2.3286462225602294 3.079084425558376 2.383422800323921 33 32 37
2.3158304350024332 3.0698004383351507 2.389228272258433 35 34 39
2.2878008781578116 2.8750209119376 2.4009412182422425 35 35 37
2.2773215318448017 2.8643817054277574 2.4056711033007256 35 34 37
2.2522423133168443 2.8611401143400923 2.41711603703794 40 38 41
2.2457527886044977 2.848403921570228 2.420010422817168 35 33 36
2.2273637251644534 2.841658440421224 2.42837765079731 35 33 36
2.2192264551401553 2.8297121860318777 2.4320296450623804 39 37 39
2.209400634142362 2.8185968990614736 2.436458130742246 35 35 36
2.207118753222902 2.8037096604810716 2.437417150007222 34 36 37
2.195635765057693 2.7933917228575447 2.4426075925266697 34 34 36
1.1848427414508247 2.5513573147990174 2.903255931358601 107 106 103
2.117956290545155 3.727056943102972 2.500161400827311 67 66 71
2.19555759545002 3.5587419371831026 2.46348162823595 61 61 63
2.216852292202692 3.5289157275200798 2.4535202081139897 58 58 60
2.247197807380124 3.476881201143072 2.439264369465795 54 53 56
2.246161136842995 3.460562960554895 2.439636428347213 52 51 56
2.3380929550732654 3.1258466022789118 2.3953234570164375 35 34 39
2.2826353312967287 2.8806248548060034 2.4192147292792674 18 18 20
2.2806091750036033 2.8656475423762737 2.420049372724884 19 17 20
2.2738863344959515 2.8530733406621174 2.4230545493805544 32 30 33
2.2679798723428153 2.840079150759121 2.4256824291502053 27 25 28
2.2503898368305593 2.832973989287638 2.4337092089597223 17 15 18
2.240938561125944 2.821728359258215 2.437974880503297 20 18 22
2.2288080673176305 2.8118038415625404 2.443478414252625 15 14 18
2.2199622618933104 2.8002143998990645 2.4474640567014014 14 15 18
2.197101596668508 2.795554950692779 2.457925018955109 14 14 18
2.122685533293387 3.710304075258186 2.5146628453572277 55 55 58
2.341220242439934 3.110987093791993 2.409749287430967 36 35 40
2.296304738894809 2.8765659625142126 2.428786036458324 15 15 17
2.287143126445798 2.865254892742887 2.432926924767199 13 13 15
2.2472198433024735 2.805497419265929 2.4508976038447363 14 14 16
2.2246356907463802 2.80078278380999 2.4612689102755634 13 13 15
2.194801228889303 2.799588773492599 2.475005334504656 13 13 17
2.1633647950628463 3.6196014097747926 2.511938277112634 62 61 65
2.194673817348785 3.566292577952418 2.497042692907649 66 66 68
2.2093867077046716 3.5403480090383317 2.4900359384622712 63 63 65
2.224951342603768 3.429071011379742 2.4819716212596377 53 52 57
2.2474118504095086 3.3991062271071133 2.4713501836928553 52 51 56
2.275620586428628 3.3659412254779206 2.458045195067344 50 49 54
2.330792099278014 3.1198625449026745 2.430613624315004 35 34 39
2.2943640871677564 2.8645093241781585 2.445476428391656 15 15 17
2.282977118192537 2.854321664158246 2.4506638878856544 14 14 16
2.3195920338388567 2.8197566559847558 2.433459995649968 16 16 18
2.2432614072312616 2.794395407385562 2.468567114691525 14 14 16
2.2061203450734865 2.7968678597848653 2.4857647815574886 15 14 18
1.9561387189509334 2.6587318848922274 2.6003117217077425 27 26 31
2.242802177557909 3.45588877310058 2.4903375663759557 57 57 59
2.2361894728905396 3.425912605529082 2.493153577066881 54 53 58
2.2521582571000427 3.399725907302089 2.485516376621677 53 52 57
2.2759286059853676 3.36911682613071 2.4742190869739407 51 50 55
2.2951453943741758 3.3412695637899463 2.465059624830902 50 49 54
2.293983391837025 2.867654371086228 2.4615781212028445 20 20 22
2.2698918765581517 2.847903199768215 2.4725969738335265 20 20 22
2.3229130665079794 2.80509209315814 2.447613886708452 24 24 26
2.2618167786785053 2.788032237793835 2.475838214243256 20 20 22
2.222118640779082 2.791817402105909 2.494303600911445 22 21 25
2.267701303439462 3.3940599600108574 2.494592683781278 53 52 57
2.2927953248245063 3.362694250826286 2.4826063109792917 52 51 56
2.1944138130869035 3.101761444530327 2.526065551175387 41 40 44
2.3068405173882764 2.880029449810909 2.4716165340803506 36 36 39
2.312213936037327 2.861265827634376 2.4689389894512734 37 36 39
2.3193673572567923 2.841640528225589 2.46542375862431 37 37 39
2.2698918199302147 2.850841760316368 2.48857166313152 37 37 40
2.291050584432792 2.8241157302650453 2.4784624302953917 37 37 40
2.3299762365448338 2.7885560178995896 2.4599897864437152 39 39 42
2.266291381365998 2.7886892577817184 2.4896779559265583 37 37 40
2.2457521731679084 2.782962241763571 2.4991996750224055 38 37 41
2.2202939946103064 2.7796034454871306 2.511036188925511 41 39 44
2.0361572729349238 2.659453938367772 2.595766355253415 45 45 49
1.8285446404336185 2.5921002731658622 2.691925853624614 55 56 60
1.761852330620855 2.6053872641205422 2.7231370298829414 57 58 61
1.7758779142823962 2.5827731379157313 2.7163908039499667 61 62 64
1.7487739739709298 2.5783168742777134 2.7289843947630077 63 64 66
1.7380008129050781 2.5666270462082568 2.7338987499098475 64 65 67
2.2389816577439974 3.4819979337757547 2.525263826937444 32 30 35
2.264069780211545 3.399556512437863 2.5127054887609623 43 44 47
2.3081694206052052 3.125403091570527 2.489348646167335 47 46 51
2.2491246509036293 3.1248052497037406 2.5169741519871236 46 45 50
2.3115829277926823 2.9932859204455156 2.486440734699563 43 42 47
2.276912989890133 2.9792012866551163 2.5025256689660487 42 41 46
2.3186674030255507 2.844933084861968 2.481653861980041 41 40 45
2.3244392163614336 2.8260476174778293 2.478765475539106 41 40 45
2.241329841880104 2.8361360344153783 2.517758595986333 40 39 44
2.242132173461856 2.8196821828287084 2.5172199187173767 41 40 45
2.2206226753923506 2.798354409874881 2.5270742600139044 41 40 45
2.2147658309377287 2.785228339901333 2.5296849145666402 43 42 47
2.125390426935112 2.7971027237665806 2.571628091015233 42 41 46
1.935753029663666 2.5954216832185772 2.65837303695418 52 52 57
1.9182837757966502 2.587130715725338 2.666465960542695 54 55 59
1.7969863173539142 2.592542079216223 2.72328373158674 58 59 63
2.1986604445713773 3.509337426848332 2.5609886869019967 35 34 39
2.219146739999082 3.480148590788912 2.551053880805408 30 29 34
2.2241705093315067 3.4601676866210593 2.5484812409557915 28 27 32
2.2467721958770537 3.4299444166529325 2.537541630333302 27 26 31
2.2798716977077387 3.3937288624333197 2.5216064553053643 28 27 32
2.2968055538420105 3.367079997422039 2.513367585023502 31 31 36
2.3215139201499237 3.336035984475573 2.5014295349675284 38 37 42
2.293169955924998 3.0712709246890744 2.5119297530305715 46 45 50
2.292959447497207 3.055061133157059 2.5118562638481525 46 45 50
2.287554597473104 3.0416554963410625 2.5142528802044515 45 44 49
2.2888359842676924 3.0246839745711736 2.5134704028941397 45 44 49
2.2969745515726885 3.0041005226934647 2.5094280334672976 46 45 50
2.3077055334091976 2.8534748026427823 2.502784803295572 43 42 47
2.2306226204018818 2.8767140805539464 2.539245240120739 42 41 46
2.309055821637033 2.8208389728571985 2.501803372004377 42 41 46
2.214673308940165 2.820295492528718 2.5461381819245132 43 42 47
2.205076759906695 2.8089980824744893 2.5505264647315653 43 42 47
2.1977729345759496 2.7644346156502144 2.5534838609662027 44 43 48
1.8895543152240073 2.6028206928939257 2.6965652339241113 50 51 55
1.9022003905532487 2.580901979814204 2.6903910522372243 45 46 50
2.18307712524369 3.5049028610091115 2.5848896564323294 48 48 52
2.1851206104531795 3.4865750730956315 2.58371786761744 43 43 47
2.2039908770366656 3.458423230893461 2.5744987037874716 35 35 40
2.2255045767913892 3.428841001171471 2.564016605232855 34 31 37
2.248045487548495 3.398785895491894 2.553044684859314 27 25 29
2.2811770796135145 3.362727642483086 2.5370098358561464 26 27 29
2.3061580006647513 3.331546826295805 2.5248743776288056 26 26 28
2.3256046649137314 3.3036841109196957 2.5153866544674996 25 25 27
2.3736889445855667 3.0632637639880533 2.4899800942811727 43 42 47
2.3247041427479056 3.024844876401312 2.5126462601048773 44 43 48
2.3019514193972164 2.8754012623217444 2.5216805887787364 46 45 50
2.2575855602462123 2.8820583122670054 2.542680020750398 44 43 48
2.230233741660696 2.799373920226348 2.554641161820244 43 42 47
2.2080352774556764 2.7943562583829524 2.5650534668361984 44 43 48
2.2475395425107205 3.351872218184413 2.569168017372404 40 40 42
2.2979328209050305 3.306203013307341 2.544758324782417 33 33 35
2.2849226882931837 3.296946011443092 2.5508062204724515 27 27 28
2.310250529342474 3.2658788123559463 2.53843990540126 26 26 28
2.287888476476176 3.261929707118409 2.548979497006251 28 27 30
2.285080692780799 3.2468857611697772 2.5501272825899526 28 27 31
2.3303476386221944 3.204876664601951 2.528188807908723 25 23 29
2.2876434350889285 2.885723560758608 2.5445554252287437 53 52 58
2.3186233773394527 3.2644025278955406 2.5506998254345032 41 41 44
2.322234686591764 3.2457643122363944 2.5487451525091447 39 39 42
2.317625846618773 3.231801948798787 2.5507570982288303 38 38 40
2.312906723794002 3.217904778025751 2.5528222922079653 31 30 32
2.3072701031998117 3.2045235255017697 2.555330146668756 30 28 31
2.290407695752656 3.1973940742293134 2.563253274940321 30 28 33
2.2904732474239418 3.1808211064516896 2.5630102189713897 30 30 33
2.285684930862863 3.1669543889070693 2.5651086883940546 28 29 31
2.2573893961908706 2.9042658575055307 2.5751981374230843 28 27 33
2.2410055207076027 2.896499876644155 2.582885692668664 29 28 34
2.329610093648326 3.195253240442745 2.560783178260349 40 40 42
2.2444462599612596 3.226245526068397 2.6018338323191506 38 37 42
2.2375532595371506 3.21341824042823 2.6049492927306774 35 35 39
1.6807496335986076 2.541952605853101 2.8615354194715357 54 53 56
1.9191432407948605 4.14730563507648 2.7871193085885766 96 94 98
2.232339316084428 3.2362537282983634 2.6241592951571704 48 50 50
2.3487919254018594 3.089366890957593 2.56629648992191 43 42 47
2.34239344806054 3.0765385973886312 2.5691784907624533 40 39 43
1.9676953714512155 4.137971064588 2.7812991903079936 139 139 140
1.9320274543543916 4.142890181641387 2.798520810308819 89 87 90
2.303063983712085 3.150454108330124 2.605306101620415 58 58 60
1.9838588356584403 4.131357457497509 2.7909796638839035 125 125 126
2.0462581207560855 4.061751544685138 2.794601225554168 76 75 78
2.0553006712540816 4.059793168570509 2.807593226987996 79 79 81
2.0437617223140303 4.049091851750723 2.813034864254119 70 70 72
2.078957591863518 4.048262055990819 2.8132293148389276 81 81 83
2.0848960003913994 4.048322016578671 2.82771760653842 86 86 88
2.1384258995878573 3.9951931150435365 2.800366388459613 79 79 81
2.090833400340937 4.048381873617877 2.842203024417087 92 91 91
2.1481718779598316 3.9747185303658603 2.8124233847418214 73 72 78
2.075993019070055 4.003539336018674 2.8486320375413814 54 56 61
2.170471103289814 3.9640858343615593 2.8184167020860547 78 77 84
2.1234477966163556 3.9766555947696824 2.8419779583848017 64 66 71
2.1852346600619175 4.070484503396085 2.847890822571798 203 202 202
1.3053522895412968 2.513288145241175 3.2525934483736334 76 78 78
1.3895658593819138 3.0374732352589566 3.2402260602919966 33 34 39
1.3522789390910521 2.5310063325420327 3.2473032863856743 68 71 73
1.3326687020142818 2.521962174805699 3.2569221952568967 71 74 75
1.3033317109753497 2.5168331982358287 3.27150464138283 80 81 81
1.346032801074071 3.0434817455476546 3.280324615114892 33 33 37
1.5373717586858158 2.541279968229122 3.172219576168859 46 45 50
1.4491862774034507 2.5445863510638147 3.2166489441291306 53 54 56
1.371321454087599 2.5258774168289957 3.2553671735468575 71 72 73
1.3303315762680525 2.5256495749879706 3.275976854587594 75 76 76
1.3109531064822975 2.516441982984521 3.285505164304587 83 82 81
1.4842281441848089 3.1968683559728235 3.250511995996754 22 20 23
1.4273507224431878 3.2073934894041316 3.279593277654839 23 21 24
1.450177028877417 3.181311953269328 3.285485973732996 22 21 27
2.2351552470876195 3.917125237433635 2.9225314905252846 81 81 82
2.2676465622141753 3.8820298815357486 2.92215453821925 79 79 80
2.3343754865961435 3.8035357493111124 2.885829603857092 73 73 75
1.427238251842343 3.145339392794811 3.3325371193814908 14 13 18
2.306445038745015 3.8329069808643172 2.9521381637337245 76 77 79
2.3359041231816153 3.817676968711038 2.9534695114780396 77 78 80
2.3360346151199027 3.799979713731428 2.9528664389893478 74 75 77
2.3552639015865964 3.791370951222993 2.959610888576507 74 74 76
2.4205650701060595 3.7008888310617523 2.9395732381138084 68 67 72
2.5346296961641186 3.479114582760437 2.8892937253315774 56 56 60
2.464237006918114 3.4715550354838434 2.9260309220848626 53 53 57
2.4605959359071825 3.456834222147666 2.927466030444345 53 52 57
2.4584316551264727 3.4412290282977183 2.9280965639671144 52 51 56
2.1957931544951204 4.050600077357295 3.103405528227865 78 74 79
2.216865012679615 4.018420209568952 3.09122689156725 65 63 68
2.5596494469970565 3.467198024501268 2.892191188162209 57 57 59
2.5439290611696355 3.443258281531286 2.899685136077056 55 55 57
2.5490465810482976 3.423358234609924 2.8963262309294513 55 54 57
2.5334404383100813 3.4160928555228605 2.904313504745215 54 53 58
2.4855119997052144 3.4283302521517216 2.9299904462209114 54 53 58
2.4783912253876634 3.3989431766090092 2.9327693327623825 52 51 56
2.4300469788851418 2.7862729672856097 2.9379196043317717 41 40 45
2.3506277797248867 2.6982683797278852 2.976872449602953 45 44 49
2.0591550258902824 2.4981266690879615 3.1239095800498196 62 62 64
2.039066208760343 2.4909517643105112 3.1342633859507107 63 63 65
1.8971096900062654 2.4885003299775534 3.2090297933281735 69 69 69
1.2471121114413144 2.5262427026201624 3.5529995715464815 110 110 110
2.2052562014269705 4.048298198027444 3.115884681244841 79 75 79
2.2208636765131695 4.019740004204164 3.1066568510646184 67 66 69
2.550676925089837 3.476245462435504 2.913692643565473 57 57 59
2.57309815702777 3.4456289483037725 2.9007894981059517 57 57 59
2.5531356707780164 3.4411066299185524 2.911199046174132 57 57 59
2.553186569851287 3.4243031672609274 2.910601825281085 56 56 59
2.544606877679172 3.412770661398978 2.9147503194376316 55 54 59
2.516459409392306 3.413068704527336 2.929654498492669 54 53 58
2.5143078283730733 3.3975823902563964 2.930267409043025 54 53 58
2.5086521722123067 3.384215840237254 2.9328064219947745 54 53 58
2.5111401266134266 3.3659756281295827 2.930870886474301 53 52 57
2.467693012390366 2.7859087975901846 2.934173942453841 43 42 47
2.442517297140979 2.78284501943955 2.9473915403316964 43 42 47
2.317250806355268 2.717597055145846 3.01146111970597 48 47 52
2.2163236963974415 4.044922326231592 3.1274542954146494 83 79 82
2.2333393944735 4.01543201671912 3.1173957046403427 74 73 76
2.3594263364936383 3.8606278008559847 3.045070983797918 55 54 57
2.367868674032069 3.8374240909171657 3.039783135510955 53 52 57
2.3691647511233125 3.8189288267112196 3.03845346452043 51 50 55
2.576040540246414 3.3971145341545843 2.9139674514296576 52 51 56
2.5377683045229364 3.403621399621471 2.934516869373585 52 51 56
2.525624542636863 3.3942028705613296 2.9406389554878447 53 52 57
2.4717595054335297 2.786764397367268 2.948177098856528 46 45 50
2.4419925717875297 2.786054539382607 2.9639596589235846 45 44 49
2.3179152174146287 2.720158352833267 3.027563364992651 51 50 55
2.1841854066504176 4.107018298358765 3.1643403376772707 96 96 98
2.252726720954684 4.024640059637455 3.124895250505571 83 82 84
2.3835989821897208 3.8133582451351278 3.0476666990993997 51 50 55
2.5577860535117676 3.378227009396816 2.9394256267136956 53 53 57
2.5723349796323536 3.3527854987029 2.930771015117125 53 52 57
2.5529788239074076 3.3477555176755076 2.9409081444801157 53 52 57
2.581585724272798 3.314031015535277 2.924468345674036 53 52 57
2.571008792301388 3.303761992340175 2.929741266623268 53 52 57
2.5208254499170817 2.891985274510248 2.941899141979661 46 45 50
2.4346086442785175 2.7927780814019365 2.984331783138471 49 48 53
2.390132380700546 2.799434533736836 3.0082698982670193 49 48 53
2.261668360430381 2.5899036027388935 3.0693090973108217 57 57 59
1.5698833375241859 2.5715992364992566 3.4373274376649996 51 51 54
1.5856658226744793 2.5478856534252268 3.4280766429784357 51 51 53
2.1906799337285148 4.106705985380958 3.1785407918422703 97 97 99
2.5931951034250362 3.477298226119552 2.940508422189343 49 48 53
2.6084967208245105 3.45103357451217 2.9313750774838327 50 49 54
2.5701509247756955 3.3242462518183724 2.9472976786730256 51 50 55
2.492707290831889 2.8617733282113207 2.9719903688045686 49 48 53
2.4402771295353487 2.7928277872129854 2.997537286018266 51 50 55
2.423339708733352 2.7854618924781676 3.006329244929478 51 50 55
2.3965433718375557 2.7669958689252687 3.019992443507859 53 52 57
2.335763672705997 2.717126149475945 3.0506946659905614 53 52 57
2.1825886169090976 2.5495237068582974 3.126553322251982 58 58 60
2.1818020228420343 2.5338512748229505 3.126407215985591 54 54 56
1.5730881100169558 2.573009596091828 3.453371128001037 50 50 52
2.604340045458298 3.1593122517232537 2.9392520234807757 49 48 53
2.629839829716546 3.0313695207012192 2.9208440139981513 51 50 55
2.5043765824045927 2.8746797984921773 2.982397768733383 49 48 53
2.4985625528856152 2.861703427758549 2.9850392599440756 49 48 53
2.5002217396063804 2.8448102166383467 2.9835252682180298 49 48 53
