ply
format ascii 1.0
element vertex 882
property float x
property float y
property float z
property float nx
property float ny
property float nz
property uchar diffuse_red
property uchar diffuse_green
property uchar diffuse_blue
property uchar class
property uchar detection
end_header
1.5954 3.5310 0.6143 -0.067 -0.997 -0.049 40 40 45 0 0
1.3155 2.4447 0.6854 0.848 -0.457 0.267 30 29 34 0 0
1.3040 2.4351 0.6877 0.514 -0.608 -0.606 30 29 34 0 0
1.2063 2.1267 0.7112 0.432 -0.729 -0.531 32 31 35 0 0
1.1627 2.0492 0.7205 -0.034 -0.710 0.703 22 22 24 0 0
1.1521 2.0392 0.7226 0.316 -0.633 0.707 18 18 20 0 0
0.9543 2.0324 0.7582 -0.371 -0.532 0.761 63 61 64 0 0
1.2843 2.4583 0.7051 -0.350 -0.476 -0.807 30 29 34 0 0
1.6018 3.5291 0.6448 -0.067 -0.997 -0.049 38 38 44 0 0
1.5621 3.5594 0.6515 0.565 -0.773 -0.288 31 30 35 0 0
1.4649 3.1620 0.6754 0.853 -0.522 0.012 38 38 40 0 0
1.4549 3.1426 0.6776 0.769 -0.632 -0.093 44 44 46 0 0
1.2491 2.2664 0.7289 0.958 -0.201 0.203 33 33 35 0 0
1.2065 2.1812 0.7379 0.891 -0.316 0.326 32 31 34 0 0
1.1989 2.1617 0.7396 0.891 -0.316 0.326 31 30 35 0 0
1.1950 2.1321 0.7408 0.290 -0.736 0.612 30 29 34 0 0
1.1811 2.1309 0.7433 -0.016 -0.952 0.307 28 27 32 0 0
1.1809 2.0915 0.7440 0.462 -0.883 -0.081 27 26 29 0 0
0.5461 2.0735 0.8589 0.205 -0.522 -0.828 169 169 167 0 0
1.6049 3.5282 0.6601 0.008 -0.997 -0.078 38 38 43 0 0
1.5888 3.5292 0.6630 -0.020 -0.989 -0.145 34 33 38 0 0
1.2468 2.2804 0.7431 0.928 -0.341 -0.150 31 31 34 0 0
1.2028 2.1986 0.7523 0.445 -0.892 0.080 30 30 33 0 0
1.1905 2.1927 0.7546 0.445 -0.892 0.080 30 29 34 0 0
1.1781 2.1870 0.7569 0.448 -0.886 0.124 30 29 34 0 0
1.1721 2.1633 0.7583 0.742 -0.497 -0.450 29 28 33 0 0
1.1650 2.1428 0.7599 0.823 -0.334 -0.459 27 27 30 0 0
1.6083 3.5265 0.6754 0.037 -0.997 -0.061 39 38 43 0 0
1.5924 3.5263 0.6783 -0.027 -0.996 -0.085 34 33 38 0 0
1.2469 2.2451 0.7576 0.496 -0.792 -0.356 31 30 35 0 0
1.2106 2.2249 0.7645 0.423 -0.899 0.111 29 28 33 0 0
1.1992 2.1749 0.7672 -0.001 -0.620 -0.785 29 28 33 0 0
1.1813 2.1851 0.7703 -0.040 -0.668 -0.743 30 29 34 0 0
1.6114 3.5257 0.6907 0.037 -0.997 -0.061 39 38 43 0 0
1.4834 3.1817 0.7179 0.873 -0.325 0.363 32 32 34 0 0
1.1923 2.1606 0.7825 -0.382 -0.532 -0.755 29 28 33 0 0
0.7776 1.7566 0.8627 -0.528 -0.411 -0.744 58 58 60 0 0
1.4773 3.1579 0.7346 0.972 -0.199 0.127 34 34 36 0 0
1.2421 2.3165 0.7858 0.562 -0.763 0.318 29 28 33 0 0
1.2381 2.2856 0.7869 0.047 -0.994 -0.103 29 28 33 0 0
1.1579 2.1031 0.8033 0.786 -0.079 -0.613 27 27 29 0 0
0.8589 1.9102 0.8598 -0.426 -0.414 -0.805 63 62 67 0 0
1.6175 3.5248 0.7213 0.128 -0.985 -0.115 39 39 44 0 0
1.4193 2.8897 0.7628 0.999 -0.029 -0.020 32 31 36 0 0
1.1778 2.0942 0.8136 0.346 -0.268 -0.899 27 26 31 0 0
0.9262 1.9632 0.8608 -0.001 -0.399 0.917 76 74 75 0 0
1.6328 3.5505 0.7501 -0.553 -0.808 0.202 53 54 59 0 0
1.6247 3.5198 0.7517 0.211 -0.961 -0.182 37 37 42 0 0
0.6928 1.8424 0.9319 0.104 -0.631 0.769 62 62 64 0 0
0.6930 1.8084 0.9320 -0.485 -0.577 -0.657 59 57 60 0 0
1.6383 3.5404 0.7650 -0.401 -0.891 0.212 52 53 58 0 0
1.6281 3.5177 0.7670 0.211 -0.961 -0.182 37 37 42 0 0
1.6406 3.5430 0.7805 -0.357 -0.899 0.252 52 53 58 0 0
1.6223 3.5524 0.7839 -0.178 -0.966 -0.186 37 36 42 0 0
1.0160 1.8675 0.8994 -0.651 -0.565 -0.507 50 50 52 0 0
0.9958 1.8831 0.9031 0.234 -0.233 -0.944 53 53 55 0 0
0.8210 1.8565 0.9355 -0.671 -0.592 -0.447 95 93 95 0 0
1.6428 3.5458 0.7960 -0.357 -0.913 0.198 53 52 58 0 0
1.6255 3.5513 0.7992 -0.047 -0.972 -0.231 36 35 41 0 0
1.4670 2.9822 0.8288 0.866 -0.417 -0.277 42 41 46 0 0
1.6468 3.5416 0.8112 -0.182 -0.983 -0.032 51 49 55 0 0
1.6189 3.5377 0.8323 -0.596 -0.801 -0.051 34 33 38 0 0
1.5858 3.5421 0.8385 0.235 -0.958 -0.162 34 33 38 0 0
0.6356 1.8340 1.0111 -0.668 -0.576 -0.471 49 48 50 0 0
1.6228 3.5338 0.8475 -0.596 -0.801 -0.051 34 33 38 0 0
1.5910 3.5333 0.8534 -0.085 -0.985 -0.151 34 33 38 0 0
1.6553 3.5428 0.8574 -0.198 -0.973 0.115 54 53 59 0 0
1.3307 2.6189 0.9128 0.479 -0.157 -0.864 30 29 34 0 0
1.2855 2.2623 0.9191 0.629 -0.143 -0.764 25 25 27 0 0
1.6582 3.5432 0.8728 -0.092 -0.981 0.169 53 52 58 0 0
1.6169 3.5175 0.8804 -0.397 -0.909 -0.128 32 31 36 0 0
1.5993 3.5241 0.8837 -0.168 -0.986 0.001 34 33 38 0 0
1.3517 2.6079 0.9234 0.560 -0.197 -0.805 35 34 40 0 0
1.6038 3.5178 0.8988 -0.093 -0.987 0.130 34 33 38 0 0
0.8609 1.7653 1.0230 0.213 -0.377 -0.901 12 12 14 0 0
0.5922 1.8543 1.0746 -0.412 -0.911 -0.009 40 38 41 0 0
1.3980 2.8161 0.9461 0.630 -0.774 -0.067 56 56 58 0 0
1.3866 2.8036 0.9482 0.688 -0.725 -0.019 56 56 58 0 0
1.3776 2.7836 0.9497 0.646 -0.737 0.197 55 55 57 0 0
1.0734 1.9150 0.9979 -0.419 -0.404 0.813 33 32 37 0 0
0.9439 1.7408 1.0206 0.508 -0.830 -0.232 38 38 40 0 0
0.9327 1.7338 1.0226 0.466 -0.873 -0.146 38 38 40 0 0
0.8654 1.7600 1.0356 -0.503 -0.841 0.201 11 11 13 0 0
0.8486 1.7663 1.0389 -0.361 -0.899 -0.248 12 12 14 0 0
0.8365 1.7273 1.0408 -0.751 -0.657 -0.063 13 13 15 0 0
0.7890 1.7726 1.0503 -0.727 -0.647 -0.228 16 16 18 0 0
0.7575 1.7128 1.0556 0.012 -0.950 -0.311 27 27 29 0 0
0.7280 1.7152 1.0612 -0.224 -0.963 -0.148 25 25 27 0 0
0.7120 1.7191 1.0642 -0.446 -0.890 0.094 31 31 33 0 0
0.5949 1.8535 1.0879 -0.469 -0.883 -0.034 37 37 39 0 0
1.6671 3.5431 0.9190 0.099 -0.991 -0.091 52 53 58 0 0
1.6631 3.4954 0.9191 -0.363 -0.931 -0.049 38 38 43 0 0
1.4459 2.8166 0.9520 0.337 -0.529 0.778 40 38 43 0 0
1.4108 2.7326 0.9576 0.787 -0.607 0.107 57 57 59 0 0
1.4000 2.7189 0.9595 0.767 -0.633 -0.103 57 57 59 0 0
0.8538 1.7254 1.0510 -0.324 -0.679 0.658 12 12 14 0 0
0.8452 1.7122 1.0524 -0.307 -0.880 0.363 12 12 14 0 0
0.7931 1.7682 1.0630 -0.241 -0.937 -0.255 15 15 17 0 0
0.7814 1.7287 1.0647 0.283 -0.959 0.035 26 26 28 0 0
0.7528 1.6961 1.0698 -0.168 -0.985 0.029 16 16 18 0 0
0.7147 1.7182 1.0773 -0.409 -0.897 0.169 34 34 36 0 0
0.5983 1.8512 1.1010 -0.469 -0.883 -0.034 37 37 39 0 0
0.5454 1.8712 1.1113 0.804 -0.331 -0.494 124 125 124 0 0
1.6665 3.4933 0.9344 -0.363 -0.931 -0.049 37 37 42 0 0
1.5818 3.5138 0.9508 0.204 -0.969 -0.142 40 39 44 0 0
1.4003 2.8266 0.9758 0.731 -0.479 0.487 42 42 44 0 0
1.3926 2.8017 0.9769 0.752 -0.417 0.511 50 50 52 0 0
1.1156 1.8533 1.0164 0.739 -0.335 -0.585 32 31 36 0 0
0.7833 1.7298 1.0779 0.283 -0.959 0.035 30 29 31 0 0
0.7845 1.6939 1.0772 -0.155 -0.982 0.108 30 29 32 0 0
0.7551 1.6961 1.0829 -0.168 -0.985 0.029 18 18 20 0 0
0.5639 1.8680 1.1217 -0.397 -0.917 -0.029 62 64 64 0 0
1.6735 3.5409 0.9497 0.099 -0.991 -0.091 53 54 59 0 0
0.7857 1.7295 1.0910 0.218 -0.962 0.165 31 29 32 0 0
0.7574 1.6961 1.0959 -0.168 -0.985 0.029 20 20 22 0 0
0.5661 1.8682 1.1351 -0.364 -0.925 0.111 84 86 87 0 0
0.5506 1.8699 1.1381 0.309 -0.945 -0.110 165 164 164 0 0
1.3567 2.6905 1.0117 0.521 -0.841 0.145 40 40 44 0 0
1.3345 2.6654 1.0156 0.460 -0.858 -0.229 39 40 42 0 0
1.2315 2.2176 1.0276 0.811 -0.119 0.573 44 45 49 0 0
1.0815 1.8815 1.0506 0.246 -0.497 -0.832 31 30 35 0 0
0.7739 1.6960 1.1063 -0.091 -0.988 0.128 27 27 29 0 0
0.7593 1.6969 1.1091 -0.175 -0.976 0.131 24 24 26 0 0
0.6670 1.7773 1.1281 -0.665 -0.724 0.184 29 29 31 0 0
0.5680 1.8691 1.1487 -0.368 -0.875 0.313 98 100 100 0 0
0.5504 1.8757 1.1522 -0.334 -0.865 0.374 165 164 163 0 0
0.5317 1.8845 1.1559 -0.334 -0.865 0.374 170 170 168 0 0
1.5920 3.5083 0.9967 -0.322 -0.944 -0.066 40 39 44 0 0
1.3449 2.6887 1.0288 -0.070 -0.994 0.089 26 27 29 0 0
1.3347 2.6732 1.0304 0.636 -0.764 -0.109 25 26 29 0 0
1.3454 2.5918 1.0269 0.094 -0.946 0.310 25 26 30 0 0
1.3296 2.5945 1.0299 -0.090 -0.955 0.283 25 24 30 0 0
1.3231 2.5681 1.0307 0.851 -0.399 0.342 29 26 33 0 0
1.2313 2.3103 1.0435 0.939 -0.288 0.189 56 56 58 0 0
1.2132 2.2781 1.0464 0.872 -0.472 0.128 50 51 55 0 0
1.2096 2.2463 1.0465 0.889 -0.292 0.352 47 48 52 0 0
0.6683 1.7795 1.1416 -0.665 -0.724 0.184 30 30 32 0 0
0.5874 1.8637 1.1587 -0.460 -0.813 0.356 59 62 64 0 0
0.5687 1.8729 1.1625 -0.467 -0.799 0.379 95 97 96 0 0
0.5514 1.8787 1.1659 -0.044 -0.860 0.508 165 165 163 0 0
1.3309 2.5987 1.0444 -0.090 -0.955 0.283 16 16 19 0 0
1.3224 2.5785 1.0457 0.333 -0.611 0.718 16 16 19 0 0
1.2310 2.3187 1.0580 0.939 -0.288 0.189 48 49 51 0 0
1.2222 2.3015 1.0593 0.922 -0.388 0.022 56 57 59 0 0
1.2140 2.2829 1.0605 0.902 -0.430 0.037 57 58 60 0 0
1.2057 2.2649 1.0618 0.903 -0.423 0.069 55 56 59 0 0
1.1773 2.0987 1.0639 0.895 -0.164 0.414 29 30 32 0 0
0.7918 1.6981 1.1299 -0.005 -0.953 0.302 32 30 33 0 0
0.7779 1.6976 1.1326 0.155 -0.935 0.319 26 26 28 0 0
0.6697 1.7816 1.1551 -0.665 -0.724 0.184 31 30 34 0 0
0.5682 1.8791 1.1766 -0.465 -0.803 0.371 90 90 88 0 0
0.5498 1.8875 1.1804 -0.057 -0.876 0.478 162 162 161 0 0
1.6926 3.5114 1.0093 0.250 -0.968 0.010 54 55 59 0 0
1.1982 2.2517 1.0771 0.891 -0.447 -0.076 58 59 63 0 0
0.7923 1.7024 1.1435 -0.005 -0.953 0.302 34 32 35 0 0
0.7795 1.6991 1.1458 0.008 -0.958 0.286 25 25 27 0 0
0.6711 1.7838 1.1686 -0.665 -0.724 0.184 30 29 35 0 0
0.6107 1.8548 1.1818 -0.468 -0.835 0.290 40 39 45 0 0
0.5900 1.8685 1.1861 -0.480 -0.827 0.292 61 61 62 0 0
0.5678 1.8854 1.1908 -0.416 -0.842 0.344 83 83 81 0 0
0.5485 1.8956 1.1947 0.140 -0.896 0.422 159 159 158 0 0
0.5341 1.8947 1.1975 0.140 -0.896 0.422 169 169 169 0 0
1.3056 2.6009 1.0788 0.626 -0.443 0.642 16 16 18 0 0
1.1819 2.2221 1.0938 0.849 -0.464 -0.253 58 57 62 0 0
1.1486 1.9165 1.0931 0.601 -0.731 -0.324 31 30 35 0 0
0.7933 1.7055 1.1569 -0.131 -0.973 0.192 32 30 33 0 0
0.7187 1.7459 1.1722 -0.606 -0.769 0.203 31 31 33 0 0
0.6960 1.7651 1.1771 -0.606 -0.769 0.203 31 31 33 0 0
0.5896 1.8746 1.2003 -0.567 -0.803 0.182 60 60 61 0 0
0.5682 1.8896 1.2047 -0.430 -0.873 0.229 79 79 77 0 0
0.5484 1.9010 1.2089 -0.205 -0.928 0.310 153 153 152 0 0
0.5320 1.9048 1.2121 -0.146 -0.918 0.368 170 170 170 0 0
1.4210 3.2451 1.0872 -0.766 -0.585 -0.267 53 52 56 0 0
1.2710 2.5772 1.0996 0.495 -0.450 0.743 25 25 27 0 0
1.1880 2.2120 1.1065 0.768 -0.542 -0.341 54 53 57 0 0
1.1762 2.2041 1.1086 0.722 -0.612 -0.323 58 57 61 0 0
1.1632 2.1997 1.1110 0.493 -0.736 -0.464 53 52 56 0 0
1.1552 1.9821 1.1071 0.226 -0.974 -0.022 31 30 35 0 0
1.1520 1.9136 1.1060 0.601 -0.731 -0.324 32 31 36 0 0
1.1265 1.8683 1.1098 0.429 -0.873 0.233 29 28 33 0 0
0.7945 1.7080 1.1702 -0.131 -0.973 0.192 30 29 32 0 0
0.7811 1.7060 1.1728 0.030 -0.954 0.298 29 29 31 0 0
0.5910 1.8767 1.2140 -0.567 -0.803 0.182 56 57 58 0 0
0.5327 1.9083 1.2261 -0.176 -0.952 0.250 171 171 170 0 0
1.5119 3.0986 1.0813 -0.430 -0.621 -0.655 34 33 38 0 0
1.2800 2.6037 1.1132 0.801 -0.365 0.474 26 27 29 0 0
1.2665 2.5989 1.1157 0.495 -0.450 0.743 28 29 31 0 0
1.1937 2.2026 1.1193 0.198 -0.586 -0.786 27 27 29 0 0
1.1817 2.1957 1.1215 0.198 -0.586 -0.786 51 51 53 0 0
1.1631 1.9671 1.1190 0.766 -0.564 0.308 34 33 38 0 0
1.1505 1.9629 1.1213 0.127 -0.763 -0.633 34 33 38 0 0
0.6752 1.7903 1.2092 -0.665 -0.724 0.184 32 31 36 0 0
0.5924 1.8788 1.2277 -0.567 -0.803 0.182 56 57 58 0 0
0.5683 1.9001 1.2329 -0.412 -0.896 0.163 88 88 86 0 0
0.5505 1.9068 1.2366 -0.327 -0.925 0.193 148 147 145 0 0
0.5326 1.9139 1.2403 -0.327 -0.925 0.193 170 169 167 0 0
1.7088 3.4935 1.0695 0.524 -0.815 -0.249 55 56 60 0 0
1.5719 3.4692 1.0955 0.557 -0.742 0.374 34 33 38 0 0
1.2040 2.6141 1.1431 0.231 -0.326 0.917 22 23 25 0 0
1.1899 2.1792 1.1335 0.099 -0.564 -0.820 26 26 28 0 0
1.1767 2.1756 1.1360 -0.402 -0.495 -0.771 50 50 53 0 0
1.1595 2.1834 1.1396 -0.297 -0.600 -0.743 58 57 62 0 0
1.1458 2.0212 1.1377 0.968 -0.248 0.023 37 36 41 0 0
1.1574 1.9505 1.1334 0.217 -0.697 -0.683 36 35 40 0 0
0.7819 1.7150 1.2000 -0.040 -0.989 0.141 25 25 27 0 0
0.5518 1.9092 1.2504 -0.327 -0.925 0.193 147 146 144 0 0
1.5725 3.4779 1.1116 0.557 -0.742 0.374 35 34 39 0 0
1.3550 2.7160 1.1314 0.253 -0.719 -0.648 25 26 28 0 0
1.3423 2.7083 1.1337 0.263 -0.649 -0.714 22 23 25 0 0
1.1876 2.1518 1.1473 -0.495 -0.482 -0.723 26 26 29 0 0
1.1684 2.1653 1.1515 -0.495 -0.482 -0.723 51 50 55 0 0
1.1534 2.1667 1.1544 -0.396 -0.575 -0.716 56 55 60 0 0
1.1253 2.0059 1.1551 0.978 -0.002 -0.208 36 35 40 0 0
0.9413 1.7116 1.1823 -0.224 -0.956 -0.191 12 13 15 0 0
0.8996 1.7446 1.1915 0.120 -0.794 -0.597 14 14 16 0 0
0.7974 1.7510 1.2117 0.385 -0.898 -0.211 25 25 27 0 0
0.7999 1.7115 1.2100 -0.120 -0.985 -0.123 29 29 31 0 0
0.7829 1.7180 1.2135 0.184 -0.982 0.035 26 26 28 0 0
0.6093 1.8845 1.2524 -0.405 -0.865 0.295 44 44 47 0 0
0.5900 1.8949 1.2565 -0.405 -0.865 0.295 58 59 59 0 0
0.5228 1.9131 1.2702 0.013 -0.996 0.093 169 169 167 0 0
1.6831 3.4929 1.1064 0.601 -0.738 -0.308 37 36 41 0 0
1.6162 3.5058 1.1199 -0.674 -0.683 0.280 42 41 46 0 0
1.1820 2.1340 1.1619 -0.445 -0.552 -0.705 29 29 32 0 0
1.1641 2.1437 1.1657 -0.412 -0.555 -0.723 57 57 59 0 0
0.9724 1.7100 1.1897 -0.090 -0.959 0.268 15 16 18 0 0
0.9522 1.7253 1.1941 -0.101 -0.913 0.394 15 15 18 0 0
0.9372 1.7274 1.1971 -0.053 -0.930 0.363 15 14 17 0 0
0.9192 1.7371 1.2010 0.315 -0.836 0.449 15 13 16 0 0
0.8668 1.7609 1.2120 0.717 -0.682 -0.142 15 15 17 0 0
0.8036 1.7757 1.2249 0.410 -0.709 -0.574 20 20 22 0 0
0.6191 1.8676 1.2639 -0.527 -0.779 0.338 47 47 48 0 0
0.5098 1.9143 1.2869 0.054 -0.996 -0.066 170 171 168 0 0
1.6868 3.4896 1.1215 0.601 -0.738 -0.308 37 36 41 0 0
1.6553 3.4886 1.1277 -0.414 -0.908 0.069 34 33 38 0 0
1.6379 3.4944 1.1313 -0.555 -0.800 0.230 39 38 43 0 0
1.6195 3.5042 1.1352 -0.719 -0.647 0.255 43 42 47 0 0
1.3899 3.1834 1.1698 -0.202 -0.920 -0.335 30 29 32 0 0
1.3690 3.2009 1.1745 -0.448 -0.780 -0.436 24 24 26 0 0
1.3161 3.1664 1.1837 0.230 -0.838 -0.496 33 34 38 0 0
1.1740 2.1227 1.1772 -0.505 -0.579 -0.640 37 37 39 0 0
1.1571 2.1298 1.1807 -0.453 -0.565 -0.689 58 58 60 0 0
1.1407 2.0951 1.1828 0.441 -0.517 -0.733 49 48 53 0 0
0.9322 1.7109 1.2111 0.957 -0.291 0.002 20 18 21 0 0
0.8195 1.7774 1.2355 0.023 -0.612 -0.791 22 21 24 0 0
0.6372 1.8650 1.2742 -0.469 -0.862 0.192 41 42 44 0 0
1.6630 3.4696 1.1415 0.041 -0.970 -0.241 34 33 38 0 0
1.3366 3.1599 1.1951 0.944 -0.295 -0.150 25 26 30 0 0
1.3049 3.1606 1.2014 -0.462 -0.849 -0.256 34 35 39 0 0
1.2741 2.6628 1.1902 -0.375 -0.663 -0.648 8 8 10 0 0
1.1854 2.0977 1.1881 -0.595 -0.569 -0.568 19 19 21 0 0
1.1650 2.1145 1.1927 -0.595 -0.569 -0.568 48 48 50 0 0
1.1527 2.1085 1.1949 -0.348 -0.647 -0.678 55 54 58 0 0
1.1438 2.0933 1.1962 0.023 -0.695 -0.719 50 49 54 0 0
1.1413 1.9432 1.1915 0.659 -0.200 -0.725 45 46 48 0 0
1.0997 1.8277 1.1957 0.883 -0.433 0.182 30 31 35 0 0
1.0932 1.8080 1.1963 0.735 -0.602 0.311 27 28 30 0 0
0.6062 1.9076 1.2957 -0.561 -0.781 0.274 61 61 61 0 0
0.5647 1.9014 1.3037 0.248 -0.887 -0.390 170 170 169 0 0
1.3434 3.2001 1.2109 0.988 -0.128 -0.089 18 18 21 0 0
1.3111 3.1491 1.2154 -0.254 -0.965 -0.067 34 35 39 0 0
1.1781 2.0848 1.2031 0.379 -0.809 -0.449 27 27 29 0 0
1.1655 2.0797 1.2054 0.134 -0.792 -0.596 56 55 59 0 0
1.1381 2.0759 1.2107 0.139 -0.709 -0.691 49 48 53 0 0
1.1318 2.0537 1.2111 0.588 -0.204 -0.783 56 56 60 0 0
1.1184 1.9732 1.2109 0.220 -0.669 -0.710 50 50 53 0 0
1.0933 1.8137 1.2100 0.706 -0.667 0.238 28 29 31 0 0
1.0833 1.8031 1.2116 0.647 -0.682 0.342 18 19 21 0 0
0.6012 1.9244 1.3114 0.716 -0.351 -0.604 81 81 81 0 0
0.5044 1.8440 1.3276 0.616 -0.450 -0.647 166 166 165 0 0
1.6714 3.4596 1.1714 0.262 -0.822 -0.506 33 32 37 0 0
1.6516 3.4751 1.1759 -0.662 -0.692 -0.288 36 35 40 0 0
1.3450 3.2043 1.2264 0.994 -0.107 0.002 16 17 21 0 0
1.3143 3.1478 1.2304 -0.286 -0.953 0.102 35 36 40 0 0
1.3041 3.1295 1.2317 0.737 -0.673 -0.057 33 34 38 0 0
1.2062 2.6552 1.2331 -0.400 -0.660 -0.636 7 7 9 0 0
1.1714 2.0701 1.2179 0.628 -0.702 -0.336 40 40 42 0 0
1.1608 2.0598 1.2196 0.628 -0.702 -0.336 53 53 55 0 0
1.1449 2.0246 1.2214 0.844 -0.314 -0.435 55 55 57 0 0
1.1377 2.0049 1.2221 0.864 -0.278 -0.419 56 56 58 0 0
1.0735 1.7983 1.2270 0.456 -0.885 0.095 16 16 18 0 0
0.8559 1.8447 1.2719 -0.159 -0.662 0.732 40 41 43 0 0
0.7160 1.8340 1.2992 -0.510 -0.577 0.638 54 53 55 0 0
0.6139 1.9345 1.3233 -0.352 -0.542 0.763 82 82 82 0 0
0.5879 1.9600 1.3294 -0.352 -0.542 0.763 105 105 105 0 0
0.5603 1.9890 1.3360 0.026 -0.583 0.812 160 160 160 0 0
1.7275 3.5014 1.1779 0.217 -0.976 -0.005 63 61 66 0 0
1.7199 3.4677 1.1780 0.116 -0.974 -0.194 45 44 49 0 0
1.6779 3.4455 1.1855 0.515 -0.631 -0.581 33 32 37 0 0
1.3675 3.1908 1.2371 -0.418 -0.851 -0.318 17 18 22 0 0
1.3489 3.2007 1.2412 0.974 -0.206 -0.092 16 17 21 0 0
1.1518 2.0123 1.2335 0.922 -0.380 -0.079 53 53 55 0 0
1.1162 1.9539 1.2383 -0.034 -0.889 -0.457 51 54 57 0 0
1.1103 1.9314 1.2386 0.628 -0.691 -0.357 48 49 53 0 0
1.0631 1.7947 1.2425 0.456 -0.885 0.095 24 24 26 0 0
1.0263 1.7808 1.2493 0.399 -0.840 0.369 29 29 31 0 0
1.0121 1.7810 1.2521 0.509 -0.858 -0.068 22 22 24 0 0
0.8221 1.8279 1.2918 0.351 -0.936 0.023 48 47 52 0 0
1.7320 3.4949 1.1927 0.351 -0.909 -0.226 64 62 67 0 0
1.7242 3.4621 1.1929 0.212 -0.964 -0.163 46 44 49 0 0
1.6827 3.4381 1.2002 0.249 -0.814 -0.524 33 32 37 0 0
1.5396 2.9790 1.2098 -0.161 -0.984 -0.073 34 33 38 0 0
1.3741 3.1782 1.2510 -0.428 -0.866 -0.258 19 20 24 0 0
1.3150 3.1644 1.2622 0.265 -0.872 -0.411 34 35 39 0 0
1.2245 2.6159 1.2577 -0.306 -0.864 -0.399 9 9 11 0 0
1.1536 2.0139 1.2471 0.922 -0.380 -0.079 52 52 54 0 0
1.1476 1.9912 1.2474 0.933 -0.323 0.160 53 53 55 0 0
1.1252 1.9360 1.2496 0.734 -0.668 0.123 51 51 56 0 0
1.1134 1.9294 1.2517 0.551 -0.828 -0.106 51 52 56 0 0
1.0759 1.8043 1.2540 0.641 -0.762 0.092 41 41 43 0 0
1.0408 1.7857 1.2602 0.275 -0.952 -0.133 41 41 43 0 0
1.7355 3.4925 1.2079 0.351 -0.909 -0.226 64 63 68 0 0
1.7270 3.4625 1.2083 0.116 -0.974 -0.194 47 45 51 0 0
1.6852 3.4396 1.2157 0.251 -0.923 -0.291 33 32 37 0 0
1.5756 3.1959 1.2272 0.848 -0.095 0.521 38 37 42 0 0
1.5422 2.9797 1.2246 -0.078 -0.994 0.075 34 34 37 0 0
1.3549 3.1994 1.2714 -0.285 -0.861 -0.420 18 18 21 0 0
1.3465 3.1741 1.2720 0.971 -0.210 -0.116 18 18 21 0 0
1.3207 3.1549 1.2763 -0.008 -0.791 -0.612 35 35 38 0 0
1.3130 3.1277 1.2767 0.775 -0.461 -0.432 36 35 39 0 0
1.1638 2.0319 1.2598 0.908 -0.402 0.121 45 44 46 0 0
1.1559 2.0142 1.2606 0.908 -0.402 0.121 55 54 55 0 0
1.1475 1.9981 1.2616 0.926 -0.361 0.113 52 51 51 0 0
1.1167 1.9270 1.2647 0.646 -0.705 0.292 53 54 56 0 0
1.1000 1.8582 1.2651 0.844 -0.534 -0.047 47 47 49 0 0
1.0436 1.7847 1.2733 0.275 -0.952 -0.133 40 39 43 0 0
1.7391 3.4901 1.2231 0.351 -0.909 -0.226 64 63 68 0 0
1.7304 3.4608 1.2235 -0.002 -1.000 -0.031 48 47 52 0 0
1.6879 3.4408 1.2311 0.071 -0.997 0.043 34 33 38 0 0
1.5763 3.2042 1.2430 0.954 0.031 0.297 38 37 42 0 0
1.5448 2.9804 1.2394 -0.108 -0.987 0.121 34 34 36 0 0
1.5273 2.9881 1.2432 -0.388 -0.762 0.518 33 33 35 0 0
1.3815 3.1719 1.2806 -0.399 -0.893 -0.209 22 22 24 0 0
1.3259 3.1468 1.2906 -0.107 -0.872 -0.477 35 35 37 0 0
1.3060 3.1082 1.2929 0.709 -0.607 -0.359 36 35 40 0 0
1.2932 3.0983 1.2950 0.702 -0.686 -0.192 35 34 39 0 0
1.1562 2.0201 1.2747 0.921 -0.313 0.232 52 50 52 0 0
1.1479 2.0037 1.2757 0.898 -0.311 0.311 51 51 50 0 0
1.1243 1.9513 1.2781 0.850 -0.291 0.439 21 21 23 0 0
1.1039 1.9295 1.2812 0.576 -0.798 0.177 49 49 51 0 0
0.7732 1.8581 1.3443 -0.321 -0.558 0.765 86 85 88 0 0
1.7426 3.4877 1.2382 0.351 -0.909 -0.226 63 62 68 0 0
1.7341 3.4574 1.2385 0.103 -0.980 -0.170 47 46 52 0 0
1.3836 3.1745 1.2960 -0.333 -0.941 -0.056 21 21 23 0 0
1.3065 3.1158 1.3088 0.651 -0.714 0.257 36 35 40 0 0
1.2454 3.1091 1.3207 -0.819 -0.567 -0.086 27 27 29 0 0
0.5710 2.0945 1.4096 -0.658 -0.637 0.401 169 169 167 0 0
1.7461 3.4853 1.2534 0.351 -0.909 -0.226 64 63 68 0 0
1.3879 3.1695 1.3106 -0.258 -0.962 0.086 23 23 25 0 0
1.3707 3.1743 1.3142 -0.278 -0.856 -0.435 19 19 21 0 0
1.3422 3.1108 1.3170 0.918 -0.180 -0.354 31 31 33 0 0
1.3322 3.0918 1.3181 0.840 -0.290 -0.459 36 36 39 0 0
1.3058 3.1273 1.3251 0.587 -0.547 0.597 37 36 41 0 0
1.2148 2.5855 1.3177 -0.384 -0.683 -0.622 11 11 13 0 0
1.0582 1.9123 1.3173 0.351 -0.686 0.638 44 44 46 0 0
1.0456 1.9080 1.3196 0.351 -0.686 0.638 45 45 48 0 0
1.0376 1.8917 1.3204 0.336 -0.711 0.618 45 44 48 0 0
0.5624 2.1199 1.4269 -0.597 -0.578 0.556 171 171 170 0 0
1.7497 3.4829 1.2686 0.351 -0.909 -0.226 64 64 66 0 0
1.6987 3.4324 1.2764 -0.086 -0.993 0.078 33 34 38 0 0
1.5727 2.9647 1.2789 -0.035 -0.835 -0.550 37 37 39 0 0
1.5407 2.9702 1.2856 0.284 -0.957 0.052 33 33 36 0 0
1.3757 3.1670 1.3286 -0.139 -0.887 -0.440 17 18 20 0 0
1.3460 3.1076 1.3317 0.886 -0.178 -0.429 30 30 32 0 0
1.1808 2.6048 1.3403 -0.215 -0.659 -0.720 9 9 11 0 0
1.0565 1.9231 1.3320 0.298 -0.753 0.587 32 32 34 0 0
1.0467 1.9114 1.3334 0.289 -0.683 0.671 39 39 41 0 0
1.0270 1.8884 1.3362 0.383 -0.596 0.706 44 44 46 0 0
0.8638 1.9728 1.3733 -0.663 -0.622 0.416 49 48 52 0 0
0.6906 2.0012 1.4097 -0.212 -0.592 0.777 81 81 79 0 0
0.6233 2.0542 1.4259 -0.458 -0.636 0.621 168 168 167 0 0
0.5977 2.0789 1.4322 -0.466 -0.647 0.603 172 172 172 0 0
1.7002 3.4383 1.2923 0.173 -0.984 -0.037 33 34 38 0 0
1.3797 3.1629 1.3432 -0.052 -0.823 -0.565 18 19 21 0 0
1.3608 3.1737 1.3476 0.915 -0.195 -0.353 18 18 20 0 0
1.3546 3.1410 1.3472 0.888 -0.186 -0.420 19 19 21 0 0
1.3487 3.1079 1.3467 0.897 -0.134 -0.422 29 29 31 0 0
1.2605 3.0872 1.3635 0.140 -0.874 0.466 31 31 33 0 0
1.1907 2.5832 1.3521 -0.230 -0.656 -0.719 9 9 11 0 0
1.1702 2.5993 1.3571 -0.478 -0.632 -0.610 8 8 10 0 0
1.1043 2.6140 1.3712 0.480 -0.868 -0.124 9 9 11 0 0
0.8905 1.9125 1.3789 0.251 -0.607 0.754 52 51 55 0 0
0.8731 1.9198 1.3828 0.350 -0.810 0.471 52 51 56 0 0
0.6426 2.0497 1.4360 -0.240 -0.787 0.568 171 171 169 0 0
0.6164 2.0759 1.4427 -0.427 -0.632 0.647 170 170 169 0 0
1.7569 3.4775 1.2989 0.338 -0.823 -0.456 65 65 67 0 0
1.7037 3.4360 1.3075 0.467 -0.883 -0.042 33 34 38 0 0
1.5337 2.9602 1.3171 -0.119 -0.951 -0.284 31 30 35 0 0
1.3765 3.1835 1.3607 0.647 -0.432 -0.628 19 20 22 0 0
1.3612 3.1821 1.3637 0.912 -0.204 -0.356 18 18 20 0 0
1.3582 3.1386 1.3620 0.894 -0.143 -0.424 19 19 21 0 0
1.3054 3.1044 1.3710 0.998 -0.052 -0.042 38 38 40 0 0
1.3025 3.0618 1.3693 0.379 -0.594 0.710 37 37 39 0 0
1.2796 3.0857 1.3752 -0.226 -0.921 0.316 36 36 38 0 0
1.2618 3.0921 1.3792 0.448 -0.839 0.308 33 33 35 0 0
1.1992 2.5656 1.3643 -0.200 -0.704 -0.682 11 11 13 0 0
0.8976 1.9370 1.3927 0.327 -0.817 -0.474 56 52 56 0 0
0.8850 1.9323 1.3950 0.027 -0.678 0.735 56 54 58 0 0
0.6309 2.0828 1.4544 -0.245 -0.590 0.769 171 171 169 0 0
1.7192 3.4491 1.3210 0.639 -0.765 -0.079 35 35 39 0 0
1.7058 3.4393 1.3232 0.476 -0.860 0.186 34 33 37 0 0
1.5396 2.9491 1.3306 0.118 -0.926 -0.359 31 30 35 0 0
1.3814 3.1767 1.3751 0.714 -0.400 -0.575 20 21 23 0 0
1.3599 3.1423 1.3776 0.969 -0.114 -0.218 18 18 20 0 0
1.3137 3.1385 1.3868 0.224 -0.926 -0.303 38 38 40 0 0
1.3070 3.1084 1.3865 0.981 -0.050 -0.186 38 38 40 0 0
1.3029 3.0697 1.3852 0.709 -0.539 0.455 37 37 39 0 0
1.2826 3.0849 1.3902 0.041 -0.996 0.077 37 37 39 0 0
1.2413 2.5371 1.3691 -0.383 -0.878 -0.288 11 11 13 0 0
1.2059 2.5534 1.3772 -0.074 -0.996 -0.056 16 16 18 0 0
1.0988 2.6010 1.4015 0.632 -0.760 -0.153 11 11 13 0 0
1.0873 2.0130 1.3722 0.631 -0.549 0.549 45 45 47 0 0
1.0772 2.0014 1.3736 0.794 -0.502 0.343 49 49 51 0 0
0.6659 2.1119 1.4632 -0.013 -0.424 0.905 170 169 167 0 0
1.5864 2.9554 1.3367 -0.152 -0.983 -0.106 36 36 38 0 0
1.5455 2.9379 1.3440 0.287 -0.792 -0.539 32 31 36 0 0
1.3162 3.1395 1.4020 0.487 -0.712 -0.506 37 37 39 0 0
1.2841 3.1412 1.4086 -0.424 -0.905 0.037 37 37 39 0 0
1.2093 2.5510 1.3911 0.001 -0.953 -0.303 10 10 12 0 0
1.1911 2.5605 1.3954 -0.405 -0.842 -0.356 8 8 10 0 0
1.1016 2.6005 1.4159 0.603 -0.786 -0.137 10 10 12 0 0
0.8149 2.0816 1.4455 0.808 -0.312 0.499 85 85 85 0 0
1.7112 3.4412 1.3542 0.477 -0.876 0.065 35 33 36 0 0
1.6045 2.9551 1.3482 -0.144 -0.986 0.088 37 36 39 0 0
1.5902 2.9515 1.3509 -0.187 -0.968 -0.167 36 36 38 0 0
1.5763 2.9469 1.3535 0.333 -0.823 -0.460 37 37 39 0 0
1.3807 3.1442 1.4048 0.555 -0.732 -0.396 19 19 21 0 0
1.2886 3.1354 1.4231 -0.222 -0.951 0.217 37 37 39 0 0
1.2379 2.5179 1.3982 -0.593 -0.762 -0.259 13 13 15 0 0
1.2156 2.5398 1.4040 -0.365 -0.845 -0.390 10 10 12 0 0
1.1641 2.6034 1.4182 -0.585 -0.801 0.128 8 8 10 0 0
0.7991 2.1270 1.4656 0.352 -0.418 0.837 133 133 132 0 0
1.7135 3.4440 1.3699 0.423 -0.901 -0.096 35 33 36 0 0
0.8920 2.1232 1.4607 0.336 -0.262 -0.905 65 65 65 0 0
1.6958 3.4634 1.3907 -0.554 -0.778 -0.296 34 32 37 0 0
1.6095 2.9570 1.3779 -0.144 -0.986 0.088 35 35 38 0 0
1.7458 3.4656 1.3966 0.359 -0.896 -0.260 38 37 42 0 0
1.3765 3.0803 1.4488 0.776 -0.170 -0.607 19 19 21 0 0
1.3099 3.1454 1.4665 0.494 -0.855 -0.159 41 41 43 0 0
1.2524 2.5432 1.4411 -0.018 -0.994 0.106 15 15 17 0 0
1.2356 2.5486 1.4449 -0.199 -0.962 0.187 13 13 15 0 0
1.3117 3.1490 1.4822 0.240 -0.837 -0.492 40 40 42 0 0
1.3060 3.1152 1.4812 0.839 -0.330 -0.433 38 38 40 0 0
1.1714 2.5681 1.4742 -0.407 -0.867 -0.287 11 11 13 0 0
1.1129 2.6507 1.4916 0.871 -0.446 0.205 9 9 11 0 0
1.8105 3.6209 1.4254 0.972 0.036 -0.233 53 52 56 0 0
1.3580 3.1088 1.4857 -0.332 -0.725 -0.604 23 23 25 0 0
1.0865 2.5140 1.5032 0.328 -0.932 0.154 15 15 17 0 0
1.8143 3.6176 1.4406 0.972 0.042 -0.232 55 56 58 0 0
1.7155 3.4313 1.4487 0.253 -0.964 -0.084 33 32 37 0 0
1.6236 3.0024 1.4391 0.994 0.107 -0.018 39 39 41 0 0
1.1740 2.5760 1.5040 0.789 -0.392 -0.473 12 12 14 0 0
1.1085 2.5456 1.5156 0.289 -0.944 0.160 10 10 12 0 0
1.8084 3.4514 1.4468 0.388 -0.867 -0.312 77 75 77 0 0
1.7193 3.4277 1.4637 0.015 -0.977 -0.211 34 33 38 0 0
1.2918 2.5466 1.4924 0.531 -0.792 -0.301 38 39 39 0 0
1.1405 2.5483 1.5240 -0.124 -0.844 -0.522 9 9 11 0 0
1.0605 2.4739 1.5356 0.376 -0.910 0.177 17 17 19 0 0
0.9071 2.6441 1.5792 -0.764 -0.640 -0.083 47 46 48 0 0
1.8218 3.6109 1.4711 0.970 0.040 -0.242 46 47 49 0 0
1.7503 3.5082 1.4789 0.598 -0.789 0.143 38 38 40 0 0
1.3516 3.1059 1.5339 0.599 -0.800 -0.024 31 31 31 0 0
1.1439 2.5462 1.5381 0.595 -0.479 -0.645 9 9 11 0 0
1.8242 3.9737 1.5129 0.950 -0.182 -0.255 157 157 158 0 0
1.8269 3.6021 1.4857 0.964 0.038 -0.264 48 49 52 0 0
1.8159 3.4445 1.4767 0.515 -0.762 -0.392 76 74 76 0 0
1.3436 3.0892 1.5501 0.199 -0.893 0.404 36 36 38 0 0
1.0593 2.4916 1.5668 0.609 -0.793 0.012 20 20 22 0 0
1.7528 3.4564 1.5069 0.905 -0.423 -0.046 36 36 38 0 0
1.4592 2.9801 1.5490 -0.448 -0.407 -0.796 52 51 54 0 0
1.8351 3.9667 1.5607 0.910 -0.405 -0.091 162 162 162 0 0
1.8271 3.4345 1.5217 0.650 -0.740 -0.173 72 70 72 0 0
1.6195 2.8549 1.5211 -0.072 -0.997 -0.039 49 48 53 0 0
1.3949 2.9974 1.5794 -0.118 -0.084 -0.990 51 51 53 0 0
1.8487 3.9943 1.5769 0.886 -0.419 -0.197 169 169 169 0 0
1.8375 3.9703 1.5774 0.886 -0.419 -0.197 162 162 162 0 0
1.8301 3.4344 1.5371 0.615 -0.775 -0.146 72 70 73 0 0
1.3940 2.9575 1.5920 -0.719 -0.269 -0.641 55 55 57 0 0
1.8417 3.9651 1.5929 0.874 -0.416 -0.252 161 161 161 0 0
1.8468 3.6507 1.5668 0.951 0.052 -0.305 59 59 62 0 0
1.8333 3.4332 1.5523 0.455 -0.854 -0.254 70 68 71 0 0
1.7987 3.2504 1.5451 0.133 -0.759 -0.637 35 35 37 0 0
1.4764 2.6888 1.5686 -0.779 -0.250 -0.575 37 37 39 0 0
0.6545 2.9020 1.7597 -0.105 -0.963 -0.247 173 173 173 0 0
1.8516 3.6429 1.5815 0.943 0.056 -0.328 53 53 54 0 0
1.0983 2.5553 1.6530 0.086 -0.792 0.604 30 30 30 0 0
1.8572 3.6314 1.5957 0.943 0.056 -0.328 51 51 51 0 0
1.8437 3.3471 1.5750 0.950 -0.119 -0.290 57 55 59 0 0
1.0669 2.4788 1.6684 0.527 -0.636 -0.564 20 20 22 0 0
1.8605 3.7018 1.6173 0.957 0.042 -0.287 65 65 64 0 0
1.8618 3.6244 1.6105 0.957 0.042 -0.287 57 57 57 0 0
1.7185 2.9325 1.5826 0.221 -0.455 0.862 46 45 50 0 0
1.1525 2.5904 1.6744 0.325 -0.421 0.847 16 16 18 0 0
1.0692 2.4796 1.6829 0.823 -0.540 -0.178 29 29 31 0 0
1.8367 3.3350 1.6073 0.347 -0.757 -0.554 48 47 51 0 0
1.4475 2.5226 1.6205 -0.375 -0.918 -0.130 43 42 47 0 0
1.4154 2.5306 1.6281 -0.462 -0.884 0.065 44 43 48 0 0
1.2393 2.5656 1.6688 -0.437 -0.581 0.687 56 55 54 0 0
1.8429 3.3211 1.6206 0.488 -0.593 -0.641 53 52 56 0 0
1.4082 2.5144 1.6430 0.153 -0.977 -0.146 40 40 40 0 0
1.3941 2.5118 1.6458 0.153 -0.977 -0.146 39 39 39 0 0
1.2809 2.5387 1.6725 0.133 -0.443 -0.887 66 64 64 0 0
1.2337 2.5906 1.6871 -0.364 -0.600 0.712 67 66 65 0 0
1.2272 2.5644 1.6862 -0.637 -0.742 -0.209 60 58 62 0 0
1.8843 3.4255 1.6369 0.892 -0.025 -0.451 82 81 84 0 0
1.4255 2.5148 1.6541 0.087 -0.994 0.073 36 34 35 0 0
1.4111 2.5133 1.6571 0.100 -0.994 -0.051 36 34 35 0 0
1.2347 2.5957 1.7024 -0.459 -0.777 0.431 48 47 48 0 0
1.8931 3.3995 1.6487 0.807 0.013 -0.590 82 81 84 0 0
1.3969 2.5196 1.6755 0.423 -0.906 -0.004 66 64 65 0 0
1.3821 2.5195 1.6787 0.225 -0.974 0.037 68 66 67 0 0
1.3111 2.5545 1.6972 0.905 -0.061 -0.420 58 56 59 0 0
1.3075 2.5191 1.6948 0.908 -0.005 -0.420 57 57 59 0 0
1.3974 2.5266 1.6909 0.484 -0.829 0.281 66 64 65 0 0
1.3840 2.5216 1.6933 0.410 -0.906 0.106 63 61 62 0 0
1.4001 2.5262 1.7051 0.768 -0.638 0.056 54 54 55 0 0
0.8193 2.7848 1.8553 0.587 -0.638 -0.498 49 48 52 0 0
0.8080 2.7371 1.8688 0.056 -0.974 -0.220 60 60 61 0 0
1.7884 2.9233 1.6890 -0.292 -0.672 0.680 47 46 51 0 0
1.7718 2.9293 1.6932 0.378 -0.660 0.649 48 47 52 0 0
1.7595 2.9182 1.6948 0.705 -0.509 0.494 48 47 52 0 0
1.7406 2.9328 1.7004 0.657 -0.143 0.740 49 48 53 0 0
1.0829 2.6766 1.8185 -0.267 -0.871 -0.413 22 22 24 0 0
0.8299 2.7708 1.8828 0.653 -0.541 -0.530 46 45 48 0 0
0.8182 2.7595 1.8842 0.549 -0.599 -0.583 51 51 53 0 0
1.7828 2.9567 1.7089 0.191 -0.412 0.891 50 49 54 0 0
1.7673 2.9581 1.7124 0.200 -0.412 0.889 49 48 53 0 0
0.8239 2.7513 1.8977 0.608 -0.553 -0.570 50 50 52 0 0
0.8300 2.7422 1.9110 0.789 -0.385 -0.479 48 47 52 0 0
0.8351 2.7356 1.9248 0.789 -0.385 -0.479 47 46 51 0 0
1.9029 3.0824 1.7728 0.990 -0.067 -0.123 55 55 57 0 0
1.8991 3.0341 1.7684 0.990 -0.067 -0.123 78 78 80 0 0
1.4145 2.4943 1.8918 -0.469 -0.792 -0.390 13 13 15 0 0
1.1675 2.5591 1.9545 -0.137 -0.096 -0.986 11 11 13 0 0
1.7154 3.6130 1.9703 0.172 -0.940 0.295 43 44 46 0 0
1.7004 3.6081 1.9731 0.215 -0.926 0.312 51 51 53 0 0
1.4644 2.4855 1.8945 -0.157 -0.986 -0.054 15 15 17 0 0
1.4541 2.4708 1.8951 0.253 -0.878 -0.405 20 20 21 0 0
1.4412 2.4646 1.8972 -0.007 -0.976 -0.219 22 22 23 0 0
1.9543 3.4927 1.9190 -0.176 -0.983 -0.056 70 70 71 0 0
1.9374 3.4976 1.9233 -0.347 -0.900 0.264 67 65 68 0 0
1.7097 3.5822 1.9845 0.157 -0.974 0.165 54 55 57 0 0
1.4596 2.4616 1.9076 0.230 -0.958 0.170 36 36 36 0 0
1.4452 2.4603 1.9107 0.019 -0.956 0.292 42 42 42 0 0
1.2658 2.5535 1.9620 0.380 -0.107 -0.919 42 41 46 0 0
1.2559 2.5376 1.9623 0.239 -0.145 -0.960 41 40 45 0 0
1.2641 2.4670 1.9521 -0.004 -0.075 -0.997 40 40 43 0 0
0.9663 2.4934 2.0221 0.081 -0.777 -0.624 34 34 36 0 0
1.9996 3.7427 1.9551 -0.812 -0.555 -0.179 132 132 132 0 0
1.9552 3.5022 1.9361 -0.050 -0.998 -0.030 68 67 70 0 0
1.4661 2.4488 1.9194 0.352 -0.927 0.131 41 41 41 0 0
1.2775 2.5260 1.9711 0.467 -0.126 -0.875 45 44 49 0 0
1.2699 2.5028 1.9700 0.281 -0.959 -0.044 44 43 48 0 0
1.2702 2.4563 1.9644 0.056 -0.385 -0.921 44 43 48 0 0
1.2418 2.4517 1.9702 -0.171 -0.504 -0.847 45 44 49 0 0
1.9972 3.6919 1.9661 0.327 -0.559 -0.762 96 96 96 0 0
1.2095 2.4660 1.9942 0.255 -0.323 -0.911 47 46 51 0 0
1.1626 2.4264 1.9999 -0.208 -0.698 -0.686 47 46 51 0 0
1.4985 2.4079 1.9366 0.302 -0.894 -0.330 34 34 34 0 0
1.4860 2.4009 1.9386 0.122 -0.987 -0.106 42 42 42 0 0
1.0398 2.3963 2.0389 0.072 -0.989 -0.126 52 51 56 0 0
1.5037 2.3996 1.9491 -0.021 -0.918 -0.397 39 39 39 0 0
1.0541 2.4484 2.0572 0.122 -0.990 -0.065 46 45 49 0 0
1.3380 2.4642 2.0097 -0.398 -0.735 0.549 35 34 39 0 0
1.0734 2.4441 2.0673 0.081 -0.954 -0.290 45 44 49 0 0
1.3483 2.4404 2.0192 0.133 -0.730 0.671 53 52 56 0 0
1.2730 2.4420 2.0366 -0.090 -0.519 0.850 41 40 45 0 0
1.0501 2.4316 2.0860 0.330 -0.809 -0.486 41 41 43 0 0
1.5911 2.6327 2.0037 -0.060 -0.073 -0.996 23 23 25 0 0
1.5677 2.4076 1.9797 0.158 -0.879 -0.451 40 40 43 0 0
1.3496 2.4445 2.0343 0.314 -0.862 -0.399 40 39 42 0 0
1.5735 2.4059 2.0076 0.259 -0.940 -0.222 44 43 49 0 0
1.1489 2.5646 2.1262 -0.672 -0.711 -0.206 34 33 37 0 0
1.1246 2.5909 2.1353 -0.761 -0.648 -0.022 35 34 39 0 0
1.5749 2.4599 2.0293 0.349 -0.899 -0.264 45 44 50 0 0
1.1667 2.5201 2.1313 -0.712 -0.696 0.092 32 32 34 0 0
1.6979 2.4769 2.0625 0.105 -0.994 0.029 47 46 51 0 0
2.0641 3.3487 2.1333 0.172 -0.271 -0.947 62 62 64 0 0
1.6743 2.5281 2.1051 0.032 -0.998 0.049 38 37 42 0 0
1.7205 2.4865 2.1180 0.243 -0.906 -0.348 44 43 48 0 0
2.1092 3.7141 2.2258 0.856 0.009 -0.516 142 142 142 0 0
2.1073 3.5637 2.2037 0.863 0.055 -0.503 83 84 84 0 0
2.0720 3.2077 2.1585 0.769 -0.082 -0.634 65 65 67 0 0
1.0547 2.4282 2.2804 0.624 -0.575 0.528 37 37 40 0 0
2.1152 3.5395 2.2146 0.863 0.055 -0.503 80 81 84 0 0
2.0783 3.1915 2.1704 0.843 -0.081 -0.532 71 72 73 0 0
1.6848 2.5290 2.1625 0.273 -0.810 -0.520 42 41 46 0 0
1.6716 2.5232 2.1647 0.273 -0.810 -0.520 42 41 46 0 0
2.0447 3.0785 2.1769 0.670 -0.544 -0.505 54 53 58 0 0
1.6880 2.5271 2.1764 0.137 -0.973 -0.186 41 41 43 0 0
1.6726 2.5293 2.1804 0.258 -0.963 -0.074 41 41 43 0 0
2.0463 3.0842 2.1931 0.655 -0.350 0.670 47 46 51 0 0
1.7055 2.5266 2.1872 0.536 -0.843 0.047 41 40 43 0 0
1.6912 2.5250 2.1903 0.032 -0.993 -0.109 41 41 43 0 0
1.0652 2.4205 2.3221 -0.286 -0.895 0.342 42 41 46 0 0
1.0284 2.3966 2.4178 -0.156 -0.976 -0.153 40 39 44 0 0
1.0319 2.3942 2.4317 -0.105 -0.985 -0.139 40 39 44 0 0
1.0341 2.3952 2.4465 0.310 -0.943 0.122 41 40 45 0 0
2.1096 3.4977 2.3896 0.256 -0.251 -0.934 48 48 54 0 0
2.0971 3.4816 2.3898 0.370 -0.147 -0.917 45 46 50 0 0
1.7489 2.5094 2.3086 0.431 -0.202 -0.879 69 68 73 0 0
1.7574 2.4878 2.3178 0.352 -0.291 -0.890 63 61 66 0 0
0.7110 2.7285 2.6121 0.547 0.041 -0.836 179 179 177 0 0
2.1280 3.3124 2.4181 0.983 -0.176 0.047 73 73 76 0 0
2.1256 3.2485 2.4073 0.847 -0.303 -0.437 69 69 72 0 0
2.0263 3.2085 2.4245 -0.256 -0.011 -0.966 34 35 38 0 0
1.0169 2.3943 2.5264 -0.390 -0.820 0.419 37 37 39 0 0
2.1422 3.3334 2.4345 0.972 -0.231 0.039 88 88 90 0 0
2.1330 3.3024 2.4312 0.964 -0.098 -0.247 78 78 80 0 0
2.0991 3.1689 2.4156 0.687 -0.300 -0.662 63 64 66 0 0
2.0783 3.1232 2.4126 0.548 -0.300 -0.781 56 56 58 0 0
1.0205 2.3916 2.5402 -0.506 -0.846 0.169 44 44 46 0 0
2.1469 3.3248 2.4479 0.984 -0.140 -0.109 82 82 84 0 0
2.1365 3.2998 2.4460 0.964 -0.098 -0.247 84 84 86 0 0
1.1987 2.5011 2.5315 0.691 0.215 -0.690 16 16 18 0 0
2.1591 3.4342 2.4810 0.906 -0.373 -0.200 86 87 87 0 0
2.1509 3.3967 2.4761 0.938 -0.287 -0.194 78 78 79 0 0
2.1462 3.3430 2.4675 0.966 -0.095 -0.239 73 73 74 0 0
2.1187 3.1763 2.4440 0.891 -0.263 -0.369 75 75 77 0 0
1.2317 2.4560 2.5305 0.637 0.148 -0.756 30 30 33 0 0
2.1675 3.4865 2.5048 0.339 -0.832 -0.439 119 121 120 0 0
2.1617 3.4363 2.4970 0.920 -0.185 -0.345 87 89 88 0 0
1.2445 2.4255 2.5370 0.751 0.132 -0.646 41 39 44 0 0
2.1714 3.4820 2.5195 0.363 -0.795 -0.486 122 123 123 0 0
2.1498 3.3544 2.5012 0.936 -0.184 -0.301 70 70 70 0 0
1.1015 2.4078 2.5841 0.701 -0.512 -0.496 53 53 55 0 0
2.0337 2.8429 2.4506 -0.162 -0.068 -0.984 56 56 58 0 0
2.1273 3.1915 2.5085 0.966 -0.170 -0.195 50 49 53 0 0
1.6765 2.5146 2.5076 0.893 -0.323 0.312 47 46 51 0 0
1.0094 2.5590 2.6813 -0.863 -0.505 0.024 39 39 41 0 0
2.0895 3.1800 2.5477 0.815 -0.577 0.050 41 40 45 0 0
1.6724 2.4861 2.5182 0.699 -0.604 -0.384 49 48 53 0 0
1.6516 2.4551 2.5175 0.491 -0.864 -0.113 49 48 53 0 0
0.9696 2.6339 2.7211 -0.614 -0.599 0.513 46 45 50 0 0
1.7901 2.5511 2.5166 0.898 -0.281 -0.339 41 40 45 0 0
1.6621 2.4276 2.5246 0.604 -0.772 -0.201 47 46 51 0 0
1.4406 2.4255 2.5793 0.132 -0.083 -0.988 41 41 41 0 0
1.2586 2.3407 2.6082 0.802 -0.595 0.042 26 25 30 0 0
2.1765 3.3890 2.5987 0.981 -0.136 0.141 108 107 105 0 0
1.1557 2.4284 2.6660 0.086 -0.887 0.454 45 44 49 0 0
1.1390 2.4327 2.6710 -0.104 -0.884 0.456 48 47 52 0 0
1.2697 2.3678 2.6408 0.239 -0.970 0.051 30 29 34 0 0
1.1336 2.4558 2.6922 -0.457 -0.834 0.308 42 41 46 0 0
1.1141 2.4677 2.6994 -0.436 -0.768 0.469 41 40 45 0 0
2.0420 3.0986 2.6074 0.745 -0.184 -0.641 30 31 36 0 0
0.9402 2.7020 2.8048 -0.451 -0.568 -0.688 53 53 53 0 0
0.9178 2.7198 2.8139 -0.528 -0.405 -0.746 59 59 61 0 0
2.1684 3.3180 2.6355 0.982 -0.166 0.087 84 83 87 0 0
2.0590 3.0343 2.6062 0.187 -0.061 -0.980 43 43 47 0 0
0.9819 2.6372 2.7972 0.351 -0.277 -0.895 52 53 54 0 0
2.1592 3.2253 2.6353 0.974 -0.181 -0.140 77 77 79 0 0
2.0680 3.0061 2.6141 0.358 -0.124 -0.925 51 51 53 0 0
2.2148 3.8536 2.7652 0.598 -0.216 -0.772 176 176 176 0 0
2.1590 3.2408 2.6546 0.982 -0.155 -0.105 70 70 72 0 0
1.7625 2.6051 2.6253 0.737 -0.232 0.635 26 25 30 0 0
2.1662 3.1444 2.6492 0.814 -0.534 -0.227 65 65 67 0 0
2.1156 3.0225 2.6369 0.830 -0.336 -0.444 65 64 68 0 0
1.4133 2.4764 2.7024 0.764 -0.217 -0.607 18 18 21 0 0
1.1940 2.4969 2.7620 0.481 -0.850 0.214 50 49 54 0 0
2.1702 3.2146 2.6786 0.930 -0.367 0.020 64 64 66 0 0
1.4053 2.5107 2.7268 0.739 -0.292 0.607 31 30 35 0 0
1.2735 2.4494 2.7475 -0.258 -0.900 -0.351 47 46 51 0 0
1.1980 2.4931 2.7757 0.347 -0.862 0.368 53 52 57 0 0
2.0921 2.8792 2.6446 0.688 -0.640 -0.343 55 55 59 0 0
2.0738 2.8946 2.6525 0.111 -0.519 -0.847 56 55 59 0 0
1.2770 2.4470 2.7614 -0.465 -0.850 -0.248 52 51 56 0 0
1.2051 2.4799 2.7865 -0.060 -0.998 -0.029 55 54 59 0 0
1.3357 2.4141 2.7548 0.026 -0.776 0.630 51 50 55 0 0
1.0387 2.5668 2.8624 -0.698 -0.669 0.253 47 46 51 0 0
1.3538 2.4681 2.7922 0.315 -0.917 0.246 43 42 47 0 0
1.3401 2.4637 2.7947 -0.005 -0.953 0.303 42 41 46 0 0
1.0813 2.5493 2.8791 -0.638 -0.749 0.179 41 40 45 0 0
1.0161 2.6015 2.9069 -0.772 -0.312 -0.554 48 47 52 0 0
1.7585 2.5247 2.7160 0.182 -0.742 -0.645 48 47 52 0 0
1.4667 2.4527 2.7753 -0.141 -0.990 0.031 43 43 43 0 0
1.4207 2.4557 2.7876 0.389 -0.885 -0.256 37 37 38 0 0
1.9285 2.6813 2.7216 0.951 -0.185 -0.248 36 35 39 0 0
1.9177 2.6647 2.7207 0.861 -0.509 -0.011 40 39 44 0 0
1.8364 2.5757 2.7223 0.082 -0.677 -0.731 33 32 37 0 0
1.8097 2.5648 2.7268 0.775 -0.508 -0.377 31 30 35 0 0
1.7656 2.5080 2.7258 0.570 -0.805 0.163 32 31 36 0 0
1.7129 2.5388 2.7460 0.519 -0.694 0.500 34 34 36 0 0
1.4972 2.4593 2.7841 -0.011 -0.849 -0.529 28 28 30 0 0
1.4857 2.4480 2.7846 -0.229 -0.967 -0.112 27 27 29 0 0
1.6992 2.5444 2.7660 0.496 -0.854 0.158 26 26 26 0 0
1.4891 2.4456 2.7984 -0.229 -0.967 -0.112 26 26 28 0 0
1.8352 2.5443 2.7462 0.799 -0.589 0.122 37 35 38 0 0
1.8078 2.5362 2.7514 0.900 -0.436 -0.005 35 35 37 0 0
1.5489 2.4543 2.8001 0.009 -0.716 -0.698 26 26 28 0 0
0.5756 3.1174 3.1969 0.776 -0.452 -0.439 84 85 87 0 0
1.4975 2.4354 2.8244 -0.281 -0.950 -0.139 43 44 45 0 0
0.5558 3.0881 3.2123 0.263 -0.630 -0.730 136 135 135 0 0
1.5768 2.4790 2.8288 0.400 -0.871 -0.285 58 57 60 0 0
1.5324 2.4274 2.8288 0.443 -0.631 0.637 62 60 64 0 0
1.4227 2.4435 2.8607 0.328 -0.939 -0.105 61 61 62 0 0
1.8368 2.5698 2.7971 0.772 -0.487 0.409 71 69 70 0 0
1.8267 2.5516 2.7956 0.703 -0.522 0.483 68 68 68 0 0
1.8094 2.5612 2.8022 0.591 -0.507 -0.628 68 68 68 0 0
1.7975 2.5501 2.8028 0.459 -0.663 -0.592 68 68 68 0 0
1.7522 2.5534 2.8153 0.545 -0.732 -0.409 66 66 66 0 0
1.6867 2.5212 2.8251 0.756 -0.645 0.116 70 68 70 0 0
1.4833 2.4016 2.8509 0.774 -0.593 -0.224 66 66 68 0 0
0.5700 3.0660 3.2373 0.069 -0.646 -0.760 116 118 117 0 0
1.7874 2.5990 2.8318 0.562 -0.715 0.416 75 74 75 0 0
1.7749 2.5899 2.8330 0.562 -0.715 0.416 75 73 74 0 0
1.7010 2.5328 2.8392 0.368 -0.890 0.268 77 75 78 0 0
1.6904 2.5173 2.8385 0.730 -0.671 0.130 77 75 77 0 0
1.6527 2.4929 2.8428 0.788 -0.546 -0.284 76 74 75 0 0
1.4758 2.4838 2.8866 0.437 -0.681 -0.588 68 68 68 0 0
0.5778 3.0530 3.2491 0.069 -0.646 -0.760 111 113 112 0 0
1.7875 2.6092 2.8495 0.445 -0.385 0.809 81 78 79 0 0
1.3245 2.5397 2.9541 -0.821 -0.546 0.167 74 74 74 0 0
0.6023 3.0406 3.2567 -0.342 -0.721 -0.603 88 90 91 0 0
0.5848 3.0422 3.2616 0.104 -0.634 -0.766 109 111 109 0 0
0.5701 3.0366 3.2642 0.104 -0.634 -0.766 157 159 156 0 0
1.7720 2.6216 2.8717 0.540 -0.295 0.789 82 79 80 0 0
1.3262 2.5428 2.9699 -0.823 -0.542 0.172 73 73 73 0 0
0.7738 2.8578 3.1866 -0.559 -0.708 -0.430 48 49 53 0 0
0.6794 2.9336 3.2287 -0.672 -0.690 -0.270 68 68 69 0 0
0.6080 3.0329 3.2702 -0.138 -0.695 -0.706 89 89 91 0 0
0.5926 3.0292 3.2734 0.104 -0.634 -0.766 109 110 109 0 0
0.7023 2.8804 3.2269 -0.653 -0.686 -0.322 68 68 69 0 0
0.7051 2.8804 3.2426 -0.723 -0.658 -0.209 69 69 72 0 0
0.6258 2.9432 3.3445 0.715 -0.319 -0.622 184 186 183 0 0
0.6419 2.9523 3.3591 0.762 -0.303 -0.572 157 157 155 0 0
2.3907 3.4641 3.0365 0.987 -0.092 0.134 105 105 105 0 0
2.3797 3.4374 3.0329 0.078 -0.493 -0.867 93 93 94 0 0
0.6432 2.9562 3.3763 0.774 -0.633 -0.024 168 168 166 0 0
2.3966 3.4474 3.0474 0.916 0.171 -0.364 112 112 112 0 0
2.3214 2.9548 2.9621 0.949 -0.088 0.303 52 51 55 0 0
2.2022 3.1015 3.0302 0.294 0.068 -0.953 40 39 44 0 0
1.1291 2.4318 3.1505 0.378 -0.896 -0.232 34 35 40 0 0
1.5117 2.3810 3.0512 -0.718 -0.444 -0.536 23 24 28 0 0
1.1457 2.4358 3.1626 0.378 -0.896 -0.232 37 37 45 0 0
1.1325 2.4296 3.1646 0.378 -0.896 -0.232 34 34 40 0 0
1.0965 2.4444 3.1779 -0.587 -0.808 -0.042 46 46 49 0 0
1.1620 2.4408 3.1750 0.245 -0.956 -0.161 45 43 49 0 0
1.1501 2.4307 3.1756 -0.042 -0.995 -0.093 40 39 46 0 0
1.1379 2.4215 3.1766 0.017 -0.980 -0.200 37 36 41 0 0
1.1229 2.4205 3.1804 0.017 -0.980 -0.200 42 41 46 0 0
1.1018 2.4367 3.1901 -0.429 -0.871 -0.239 51 51 54 0 0
2.3591 3.1214 3.0414 0.972 -0.121 -0.203 73 73 75 0 0
1.1789 2.4441 3.1868 0.303 -0.945 -0.127 45 43 48 0 0
1.1651 2.4394 3.1893 0.130 -0.991 0.011 52 50 55 0 0
1.1532 2.4296 3.1901 -0.088 -0.993 -0.083 45 43 48 0 0
1.1414 2.4191 3.1905 -0.007 -0.966 -0.257 39 37 41 0 0
1.1266 2.4175 3.1941 0.026 -0.965 -0.263 46 44 47 0 0
1.1103 2.4200 3.1991 -0.052 -0.904 -0.424 55 54 57 0 0
1.0624 2.4682 3.2241 -0.590 -0.556 -0.586 58 58 61 0 0
2.4122 3.5375 3.1488 0.900 0.083 -0.429 77 76 77 0 0
2.4001 3.4254 3.1236 0.944 -0.044 -0.326 87 85 87 0 0
1.5676 2.2710 3.0539 -0.610 -0.529 -0.590 20 21 23 0 0
1.4028 2.3720 3.1239 0.893 -0.105 -0.437 25 25 28 0 0
1.1817 2.4437 3.2015 0.352 -0.914 -0.203 51 51 54 0 0
1.1683 2.4381 3.2037 0.206 -0.937 -0.282 53 53 56 0 0
1.1546 2.4332 3.2061 -0.061 -0.972 -0.227 46 45 48 0 0
1.1452 2.4158 3.2042 0.050 -0.974 -0.222 40 39 41 0 0
1.1304 2.4141 3.2077 0.185 -0.962 -0.203 50 50 51 0 0
1.1161 2.4112 3.2109 0.071 -0.929 -0.363 58 58 61 0 0
2.4133 3.5494 3.1683 0.966 0.076 -0.245 75 75 75 0 0
2.4041 3.4199 3.1377 0.928 -0.043 -0.369 76 76 77 0 0
2.2756 2.8067 3.0154 0.964 -0.142 0.226 56 54 60 0 0
1.4200 2.3735 3.1349 0.559 -0.824 0.091 33 33 35 0 0
1.4075 2.3655 3.1362 0.844 -0.534 0.051 34 34 36 0 0
1.3644 2.3128 3.1343 0.820 -0.394 -0.414 38 37 42 0 0
1.3454 2.3251 3.1426 0.527 -0.427 -0.735 38 37 42 0 0
2.2730 2.8338 3.0386 0.972 -0.135 0.192 58 57 61 0 0
2.2692 2.7790 3.0255 0.964 -0.145 0.221 55 55 58 0 0
2.2645 2.7299 3.0142 0.964 -0.145 0.221 54 52 57 0 0
2.2597 2.6812 3.0029 0.964 -0.145 0.221 52 49 56 0 0
1.5821 2.2892 3.0847 0.960 -0.112 -0.257 28 32 33 0 0
1.5758 2.2614 3.0793 -0.717 -0.593 -0.366 30 33 34 0 0
1.5608 2.2623 3.0836 -0.371 -0.908 0.196 32 34 36 0 0
1.0961 2.4393 3.2545 -0.437 -0.880 -0.187 61 62 66 0 0
2.4148 3.4843 3.1845 0.967 -0.079 -0.244 69 69 69 0 0
2.2724 2.8515 3.0590 0.975 -0.146 0.165 60 60 62 0 0
2.2628 2.7519 3.0358 0.964 -0.145 0.221 57 55 60 0 0
2.2581 2.7030 3.0244 0.964 -0.145 0.221 55 53 59 0 0
1.1068 2.4680 3.2903 -0.250 -0.931 0.267 66 66 70 0 0
1.0883 2.4765 3.2975 -0.244 -0.893 0.377 64 65 69 0 0
2.2091 2.6843 3.0636 0.933 -0.190 0.307 56 56 58 0 0
2.0414 2.4569 3.0494 0.994 -0.090 -0.061 45 44 49 0 0
1.5413 2.3042 3.1450 -0.386 -0.280 -0.879 44 43 48 0 0
1.1073 2.4741 3.3074 -0.023 -0.887 0.461 66 67 69 0 0
1.0837 2.4971 3.3199 0.029 -0.981 0.191 66 67 68 0 0
1.5762 2.2949 3.1482 0.960 0.071 -0.272 46 45 50 0 0
1.1018 2.4975 3.3308 -0.185 -0.868 0.462 67 68 68 0 0
1.0836 2.5051 3.3377 -0.185 -0.868 0.462 67 69 68 0 0
1.2565 2.4132 3.2819 0.152 -0.907 0.393 56 55 60 0 0
1.2326 2.4391 3.2953 -0.273 -0.922 -0.275 55 54 58 0 0
1.1020 2.5047 3.3484 -0.428 -0.876 0.223 66 67 68 0 0
2.2158 2.7627 3.1290 0.904 -0.426 -0.048 59 59 61 0 0
2.2068 2.7354 3.1241 0.905 -0.419 0.070 57 57 59 0 0
2.0558 2.4921 3.1002 0.934 -0.040 -0.356 50 49 54 0 0
1.6260 2.3441 3.1780 0.399 -0.912 0.096 47 48 52 0 0
1.3791 2.3711 3.2526 -0.713 -0.392 -0.581 52 51 56 0 0
1.2129 2.4599 3.3218 0.106 -0.971 0.216 55 54 59 0 0
1.1089 2.4925 3.3589 -0.073 -0.992 0.105 61 61 64 0 0
2.2811 2.8189 3.1418 -0.153 -0.211 -0.965 53 53 55 0 0
2.0574 2.4967 3.1162 0.950 -0.309 0.052 51 50 55 0 0
1.1854 2.4579 3.3444 0.486 -0.866 0.116 49 48 52 0 0
1.0869 2.5186 3.3877 0.002 -0.981 0.194 43 42 48 0 0
1.0712 2.5187 3.3920 0.004 -0.996 0.085 45 44 49 0 0
2.2343 2.7720 3.1576 0.052 -0.143 -0.988 52 52 54 0 0
1.5133 2.3912 3.2520 0.496 -0.818 0.292 51 50 55 0 0
1.1170 2.5297 3.3983 -0.507 -0.862 0.026 42 41 46 0 0
1.0838 2.5353 3.4089 0.501 -0.788 0.358 42 41 47 0 0
2.0901 2.5686 3.1573 0.372 -0.564 0.737 55 54 59 0 0
1.4706 2.3439 3.2662 0.440 -0.762 0.475 53 52 57 0 0
1.2127 2.4842 3.3753 0.401 -0.915 0.036 41 40 45 0 0
1.1001 2.5411 3.4218 -0.562 -0.826 0.044 41 40 46 0 0
1.0860 2.5366 3.4245 0.108 -0.800 0.590 40 39 45 0 0
0.7970 2.8495 3.5892 -0.720 -0.683 0.122 78 78 80 0 0
1.8283 2.3398 3.1818 -0.634 -0.755 0.168 49 48 53 0 0
1.6383 2.3896 3.2478 0.595 -0.530 -0.604 50 49 54 0 0
1.4944 2.3725 3.2828 0.552 -0.834 -0.020 52 51 56 0 0
1.2175 2.4780 3.3880 0.184 -0.983 -0.021 42 41 46 0 0
1.5053 2.3455 3.2876 0.624 -0.676 -0.393 48 47 52 0 0
1.4790 2.3826 3.3051 0.911 -0.412 -0.029 48 47 52 0 0
1.4124 2.3555 3.3160 0.433 -0.883 -0.181 46 45 50 0 0
1.3983 2.3525 3.3191 0.286 -0.916 -0.282 45 44 49 0 0
1.2201 2.4782 3.4030 0.184 -0.983 -0.021 48 47 52 0 0
1.0467 2.5746 3.4775 0.406 -0.485 0.775 57 57 59 0 0
1.8052 2.3921 3.2330 0.689 -0.617 0.380 45 45 49 0 0
1.7636 2.3830 3.2419 0.252 -0.961 0.112 47 47 52 0 0
1.7498 2.3797 3.2448 0.252 -0.961 0.112 47 47 52 0 0
1.5204 2.3535 3.3010 0.702 -0.632 -0.328 45 44 49 0 0
1.5097 2.3397 3.3001 0.550 -0.494 -0.673 43 42 47 0 0
1.4817 2.3823 3.3197 0.863 -0.425 -0.272 42 41 46 0 0
1.4714 2.3671 3.3183 0.107 -0.988 -0.109 42 41 46 0 0
1.0231 2.6043 3.5082 0.045 -0.721 0.692 61 61 63 0 0
1.7885 2.4093 3.2576 0.431 -0.419 -0.799 43 42 46 0 0
1.7339 2.3935 3.2683 -0.175 -0.512 -0.841 41 42 47 0 0
1.6345 2.3791 3.2918 0.170 -0.838 0.519 38 37 42 0 0
1.5129 2.3381 3.3140 0.181 -0.402 -0.898 40 39 44 0 0
1.0768 2.5939 3.5064 -0.299 -0.835 0.463 51 51 53 0 0
1.0446 2.5959 3.5159 0.355 -0.827 0.436 60 60 62 0 0
1.7296 2.3655 3.2769 0.158 -0.475 -0.866 48 49 52 0 0
1.5288 2.3434 3.3264 0.636 -0.602 -0.482 38 37 42 0 0
1.4688 2.3442 3.3433 -0.031 -0.887 0.460 38 38 40 0 0
1.4530 2.3469 3.3484 0.191 -0.928 0.320 38 38 41 0 0
1.2079 2.4925 3.4574 0.164 -0.941 0.295 46 45 50 0 0
1.0504 2.5871 3.5278 0.470 -0.848 -0.245 60 60 62 0 0
1.7221 2.3492 3.2896 0.432 -0.299 -0.851 61 61 64 0 0
1.5219 2.3259 3.3387 0.600 -0.624 -0.501 34 33 38 0 0
1.4734 2.3379 3.3555 0.085 -0.968 0.235 30 30 32 0 0
1.4042 2.4149 3.3966 -0.146 -0.768 0.624 27 27 32 0 0
1.2714 2.4569 3.4611 -0.466 -0.497 -0.732 45 44 48 0 0
1.2095 2.4578 3.4786 0.099 -0.989 0.106 50 49 53 0 0
1.1781 2.4593 3.4878 -0.267 -0.910 -0.318 43 42 47 0 0
2.3036 2.7742 3.2794 0.183 -0.360 -0.915 50 50 52 0 0
1.5945 2.3998 3.3701 0.639 -0.613 -0.465 25 26 28 0 0
1.5511 2.3952 3.3809 0.934 -0.226 -0.277 29 30 32 0 0
1.2248 2.5124 3.5056 0.098 -0.975 0.200 49 48 53 0 0
1.2214 2.4764 3.4963 0.561 -0.792 -0.240 49 48 53 0 0
1.2119 2.4586 3.4938 -0.029 -0.987 -0.161 47 46 51 0 0
2.3083 2.7649 3.2911 0.220 -0.188 -0.957 49 49 52 0 0
1.5366 2.3528 3.3882 0.066 -0.904 -0.422 22 23 25 0 0
1.4867 2.3692 3.4068 -0.362 -0.931 -0.056 24 24 26 0 0
1.2241 2.4762 3.5112 0.569 -0.814 -0.114 49 48 53 0 0
1.2145 2.4587 3.5088 0.005 -0.999 0.053 48 47 52 0 0
2.2797 2.7747 3.3175 -0.650 -0.480 -0.589 50 50 52 0 0
2.2729 2.6624 3.2868 0.840 -0.174 -0.514 48 48 50 0 0
2.2639 2.6353 3.2815 0.870 -0.124 -0.477 45 45 47 0 0
1.5624 2.4257 3.4174 0.781 -0.325 0.533 24 25 27 0 0
1.3525 2.4200 3.4746 -0.361 -0.854 0.375 43 42 45 0 0
1.2311 2.4635 3.5212 0.246 -0.924 0.292 49 48 53 0 0
2.2757 2.6623 3.3015 0.860 -0.305 -0.408 47 47 49 0 0
2.2679 2.6292 3.2940 0.892 -0.197 -0.407 46 46 48 0 0
2.1382 2.6203 3.3278 -0.145 -0.724 0.675 41 40 43 0 0
2.0365 2.5509 3.3362 0.096 -0.846 0.524 37 37 39 0 0
1.5421 2.3522 3.4171 -0.090 -0.996 -0.026 36 36 38 0 0
1.3683 2.4268 3.4877 -0.218 -0.935 -0.280 42 41 46 0 0
2.2649 2.6576 3.3186 0.972 -0.187 -0.141 47 47 49 0 0
2.1384 2.5002 3.3080 0.112 -0.704 0.701 40 39 44 0 0
1.2080 2.4560 3.5570 0.353 -0.934 0.050 45 45 47 0 0
1.5486 2.4071 3.4776 0.860 -0.407 0.309 39 38 42 0 0
1.1844 2.4503 3.5934 0.401 -0.906 0.137 46 46 50 0 0
1.2002 2.4573 3.6068 0.671 -0.736 -0.089 39 38 43 0 0
1.1855 2.4550 3.6102 0.214 -0.974 0.074 48 47 52 0 0
1.1710 2.4520 3.6134 0.214 -0.974 0.074 52 52 55 0 0
0.6064 3.1130 3.9708 -0.512 -0.576 -0.637 185 185 187 0 0
