ply
format ascii 1.0
element vertex 879
property float x
property float y
property float z
property float nx
property float ny
property float nz
property uchar diffuse_red
property uchar diffuse_green
property uchar diffuse_blue
property uchar class
property uchar detection
end_header
0.5840 3.1946 0.5254 -0.825 -0.521 -0.219 27 27 29 0 0
0.5714 3.2193 0.5237 -0.979 -0.192 0.063 25 25 27 0 0
0.5483 3.2542 0.5218 -0.927 -0.365 -0.084 31 30 35 0 0
0.5859 3.3663 0.5082 -0.707 0.477 0.522 14 12 17 0 0
0.9258 2.1382 0.6217 -0.311 -0.792 -0.526 41 42 46 0 0
0.4019 2.4634 0.6233 -0.871 -0.453 -0.191 19 19 21 0 0
0.4146 2.4970 0.6192 -0.957 -0.071 0.281 26 24 27 0 0
0.5764 3.1920 0.5400 -0.763 0.150 -0.629 26 26 28 0 0
0.5720 3.2207 0.5375 -0.979 -0.192 0.063 25 25 27 0 0
0.5451 3.2229 0.5390 -0.996 0.083 0.044 25 25 27 0 0
0.6620 3.5013 0.5039 -0.988 -0.051 -0.148 13 11 16 0 0
0.6723 3.5226 0.5011 -0.962 0.269 0.050 13 11 16 0 0
0.6826 3.5601 0.4968 -0.999 0.015 0.036 19 17 22 0 0
0.6843 3.5770 0.4950 -0.915 -0.311 0.258 28 28 30 0 0
1.0164 2.0815 0.6354 -0.770 -0.557 -0.310 65 66 67 0 0
0.9266 2.1104 0.6382 -0.537 -0.613 -0.580 45 46 51 0 0
0.4573 2.4580 0.6336 -0.957 -0.179 -0.227 39 39 41 0 0
0.4534 2.4708 0.6326 -0.787 0.502 -0.360 39 39 41 0 0
0.4451 2.6984 0.6107 -0.940 -0.236 0.247 43 42 47 0 0
0.5681 3.2199 0.5517 -0.984 0.069 0.163 25 25 27 0 0
0.4840 3.2858 0.5505 -0.188 -0.980 0.058 13 12 16 0 0
0.6921 3.5662 0.5099 -0.928 -0.160 0.336 18 16 21 0 0
0.6898 3.5811 0.5085 -0.862 -0.374 0.342 26 26 28 0 0
0.7069 3.6709 0.4986 -0.739 0.661 -0.128 45 45 47 0 0
1.0580 2.0667 0.6482 -0.018 -0.843 -0.538 134 134 136 0 0
0.9138 2.1216 0.6517 0.004 -0.889 -0.458 41 42 47 0 0
0.8646 2.1341 0.6535 -0.307 -0.634 -0.709 43 44 48 0 0
0.9423 2.1748 0.6447 -0.369 -0.579 -0.727 48 48 50 0 0
0.5355 2.2614 0.6613 -0.377 -0.259 0.889 17 16 21 0 0
0.4368 2.4082 0.6530 -0.521 -0.815 0.253 38 37 42 0 0
0.4515 2.6876 0.6248 -0.940 -0.236 0.247 44 43 48 0 0
0.4479 2.7006 0.6238 -0.940 -0.236 0.247 43 42 47 0 0
0.5483 3.2575 0.5632 -0.732 -0.657 0.179 29 29 31 0 0
0.5227 3.2756 0.5630 -0.637 -0.761 0.126 21 21 23 0 0
0.4836 3.2867 0.5643 -0.188 -0.980 0.058 13 12 17 0 0
0.6762 3.5270 0.5290 -0.804 0.463 0.373 13 11 16 0 0
0.6961 3.6178 0.5189 -0.954 0.298 -0.031 35 35 39 0 0
0.9210 2.1686 0.6605 -0.369 -0.579 -0.727 50 50 52 0 0
0.7966 2.1841 0.6665 -0.898 0.100 -0.429 41 41 42 0 0
0.5363 2.2626 0.6744 -0.103 -0.431 0.896 17 16 21 0 0
0.5380 2.2916 0.6715 -0.324 -0.382 0.866 17 16 21 0 0
0.4606 2.6925 0.6372 -0.738 -0.179 0.651 43 42 47 0 0
0.6847 3.5486 0.5406 -0.815 0.395 0.423 14 12 17 0 0
0.9910 2.0762 0.6792 -0.496 -0.702 -0.512 55 54 58 0 0
0.8694 2.1087 0.6831 -0.094 -0.847 -0.523 42 43 48 0 0
0.8526 2.1176 0.6833 -0.205 -0.777 -0.595 46 47 52 0 0
0.7903 2.1829 0.6806 -0.832 -0.240 -0.500 38 38 38 0 0
0.4995 2.3066 0.6856 -0.242 -0.709 0.662 24 21 27 0 0
0.5044 2.7270 0.6448 -0.686 -0.349 0.638 42 41 46 0 0
0.5541 3.1396 0.6020 -0.909 0.087 -0.407 26 26 28 0 0
0.5124 3.1499 0.6035 -0.803 0.596 -0.022 25 25 27 0 0
0.5731 3.2411 0.5911 -0.967 -0.249 -0.047 27 27 29 0 0
0.5095 3.2866 0.5905 -0.416 -0.877 0.242 14 14 16 0 0
0.5081 3.1337 0.6191 -0.803 -0.592 0.066 24 24 26 0 0
0.9069 2.0653 0.7127 -0.359 -0.296 -0.885 42 43 48 0 0
0.8003 2.1594 0.7096 -0.592 0.714 0.375 43 43 45 0 0
0.5321 2.5217 0.6899 -0.645 -0.764 0.005 40 40 42 0 0
0.5376 2.5966 0.6824 -0.879 -0.297 0.373 41 41 43 0 0
0.6003 2.6814 0.6709 0.162 -0.986 0.042 41 41 43 0 0
0.4885 2.8254 0.6633 -0.864 -0.186 0.468 37 37 40 0 0
0.5117 3.1366 0.6324 -0.726 -0.613 0.313 24 24 26 0 0
0.5199 3.2786 0.6184 -0.560 -0.829 0.003 20 20 22 0 0
0.9333 2.0460 0.7268 -0.172 -0.562 -0.809 47 46 54 0 0
0.8892 2.0461 0.7292 -0.230 -0.501 -0.835 42 42 49 0 0
0.8748 2.0558 0.7290 -0.338 -0.211 -0.917 40 41 46 0 0
0.7939 2.0865 0.7305 -0.428 -0.477 -0.768 53 54 56 0 0
0.8077 2.1630 0.7225 -0.531 0.713 0.458 35 34 39 0 0
0.7746 2.1948 0.7213 -0.813 0.204 0.545 25 26 30 0 0
0.6142 2.6735 0.6845 -0.112 -0.701 -0.704 42 42 44 0 0
0.4800 2.7931 0.6804 -0.180 -0.225 0.958 36 36 38 0 0
0.4548 2.7967 0.6814 -0.430 0.461 0.776 37 37 39 0 0
0.4804 2.8228 0.6776 -0.428 0.459 0.778 36 36 39 0 0
0.4555 3.0501 0.6574 -0.945 -0.077 0.317 28 28 30 0 0
0.6624 3.6700 0.5875 -0.896 0.444 -0.018 44 45 47 0 0
0.8927 2.0339 0.7439 -0.172 -0.562 -0.809 43 42 48 0 0
0.5105 2.8373 0.6882 -0.430 0.461 0.776 35 35 38 0 0
0.5278 3.0099 0.6710 -0.980 0.122 -0.154 30 29 33 0 0
0.5365 3.0290 0.6688 -0.552 -0.485 0.679 29 28 32 0 0
0.6367 3.6573 0.6044 -0.866 0.492 -0.089 40 41 44 0 0
0.5135 2.7952 0.7056 -0.640 0.714 0.285 34 34 36 0 0
0.5554 2.8284 0.7004 -0.607 0.719 0.338 34 34 36 0 0
0.5118 2.8240 0.7030 -0.771 0.319 0.552 34 34 36 0 0
0.5500 2.9158 0.6925 -0.673 0.331 0.661 32 33 38 0 0
0.4614 3.0100 0.6881 -0.468 0.338 0.817 25 25 27 0 0
0.4643 3.0264 0.6865 -0.636 0.512 0.577 25 25 27 0 0
0.5999 3.2445 0.6592 -0.929 -0.309 -0.203 29 29 31 0 0
0.7798 3.6546 0.6116 -0.954 -0.126 0.270 24 24 24 0 0
0.7888 3.6921 0.6077 0.107 -0.962 0.251 33 32 35 0 0
0.6582 3.6540 0.6179 -0.991 0.128 0.022 37 36 41 0 0
0.6669 3.6749 0.6155 -0.978 0.014 -0.206 39 38 43 0 0
0.8610 3.8969 0.5848 -0.798 0.594 -0.102 141 141 139 0 0
0.8033 2.1644 0.7636 -0.956 -0.232 0.181 29 30 35 0 0
0.5150 2.3610 0.7595 -0.907 -0.416 0.070 32 33 37 0 0
0.5902 2.4764 0.7451 -0.762 0.520 -0.387 39 38 43 0 0
0.5887 2.9344 0.7025 -0.830 0.353 -0.433 29 30 34 0 0
0.5969 3.2441 0.6733 -0.929 -0.309 -0.203 29 29 31 0 0
0.5805 3.2825 0.6706 -0.917 -0.187 0.352 28 28 30 0 0
0.6509 3.6512 0.6328 -0.968 0.087 -0.234 37 36 41 0 0
0.6639 3.6744 0.6300 -0.978 0.014 -0.206 40 39 44 0 0
0.8598 3.8975 0.5996 -0.815 0.579 -0.011 138 138 136 0 0
0.9003 1.9818 0.7895 -0.270 -0.405 -0.874 45 44 50 0 0
0.5527 2.8742 0.7236 -0.891 -0.184 -0.415 27 28 32 0 0
0.5560 2.8906 0.7219 -0.741 0.252 -0.623 27 28 32 0 0
0.5988 3.2462 0.6870 -0.974 -0.211 0.077 31 31 33 0 0
0.5967 3.2606 0.6858 -0.981 -0.149 0.124 33 33 35 0 0
0.5858 3.2863 0.6839 -0.873 -0.326 0.363 28 28 30 0 0
0.5801 3.2990 0.6831 -0.926 -0.173 0.337 20 20 22 0 0
0.6608 3.6739 0.6445 -0.978 0.014 -0.206 41 40 45 0 0
0.6980 3.7104 0.6394 -0.840 0.407 0.360 50 48 52 0 0
0.8609 3.8993 0.6142 -0.815 0.579 -0.011 142 141 139 0 0
0.7303 2.3285 0.7792 -0.641 0.537 0.549 15 13 18 0 0
0.5314 2.4409 0.7781 -0.309 -0.945 0.106 35 34 39 0 0
0.5010 2.4721 0.7766 -0.829 0.168 0.534 36 35 40 0 0
0.6069 2.6313 0.7571 -0.149 -0.910 0.388 33 33 35 0 0
0.5672 2.9268 0.7318 -0.596 -0.602 -0.531 27 28 30 0 0
0.5260 3.1501 0.7132 -0.904 0.404 -0.136 19 19 21 0 0
0.5840 3.3020 0.6966 -0.897 -0.211 0.389 16 16 18 0 0
0.6550 3.6558 0.6608 -0.903 -0.136 -0.407 37 36 41 0 0
0.6656 3.6777 0.6583 -0.931 0.317 -0.182 45 44 49 0 0
0.6983 3.7118 0.6537 -0.946 0.284 0.155 47 46 49 0 0
0.7160 3.7377 0.6505 -0.841 0.436 -0.320 46 46 47 0 0
0.7294 3.7614 0.6477 -0.841 0.436 -0.320 47 47 48 0 0
0.5591 2.3808 0.7958 -0.773 0.627 -0.097 32 32 34 0 0
0.5520 2.5514 0.7805 -0.598 -0.796 0.096 31 30 35 0 0
0.5397 2.9604 0.7437 -0.722 -0.073 -0.688 20 20 22 0 0
0.5376 2.9745 0.7425 -0.857 0.497 -0.135 19 19 21 0 0
0.5229 2.9828 0.7424 -0.122 -0.863 0.491 18 18 20 0 0
0.5613 3.1223 0.7280 -0.671 0.624 0.400 15 15 17 0 0
0.5664 3.1708 0.7234 -0.976 -0.044 -0.215 20 20 22 0 0
0.5660 3.1860 0.7220 -0.976 -0.044 -0.215 25 25 27 0 0
0.5568 3.1969 0.7214 -0.976 -0.172 -0.136 28 28 29 0 0
0.5966 3.2628 0.7136 -0.942 -0.138 0.305 37 36 39 0 0
0.6790 3.7024 0.6698 -0.899 0.349 -0.264 42 41 46 0 0
0.7112 3.7363 0.6653 -0.794 0.475 -0.379 42 41 46 0 0
0.5212 2.4965 0.8003 -0.803 -0.032 0.595 30 29 35 0 0
0.5181 2.8173 0.7714 -0.611 0.515 -0.601 21 22 24 0 0
0.5431 2.8731 0.7652 -0.894 0.338 -0.296 22 22 24 0 0
0.5459 2.9042 0.7623 -0.947 -0.096 -0.308 20 20 22 0 0
0.5446 2.9187 0.7610 -0.764 -0.457 -0.456 19 19 21 0 0
0.5379 2.9307 0.7603 -0.764 -0.457 -0.456 16 16 18 0 0
0.5357 2.9447 0.7591 -0.828 -0.177 -0.531 16 16 18 0 0
0.5341 2.9590 0.7579 -0.865 -0.134 -0.483 17 17 19 0 0
0.5367 2.9752 0.7563 -0.870 0.446 -0.210 17 17 19 0 0
0.5658 3.1256 0.7414 -0.737 0.645 0.200 16 16 18 0 0
0.5752 3.1761 0.7364 -0.961 -0.260 0.094 23 23 25 0 0
0.5689 3.1885 0.7355 -0.969 -0.242 0.044 28 28 30 0 0
0.5563 3.1977 0.7352 -0.968 -0.236 -0.083 30 30 32 0 0
0.5992 3.2652 0.7273 -0.941 -0.174 0.290 36 36 39 0 0
0.5981 3.2802 0.7260 -0.942 -0.138 0.305 28 28 30 0 0
0.6713 3.6832 0.6863 -0.966 0.073 -0.247 39 38 43 0 0
0.6812 3.7048 0.6839 -0.784 0.337 -0.522 39 38 44 0 0
0.8590 3.9020 0.6583 -0.858 0.511 -0.059 124 124 121 0 0
0.9616 1.8330 0.8552 -0.568 -0.659 -0.494 90 89 94 0 0
0.9486 1.8434 0.8548 -0.596 -0.580 -0.555 68 66 72 0 0
0.4726 2.3355 0.8303 -0.619 -0.785 0.011 29 28 34 0 0
0.5333 2.3729 0.8244 -0.592 0.259 -0.763 30 29 35 0 0
0.5084 2.4636 0.8173 -0.884 0.084 0.461 29 28 33 0 0
0.5328 2.5021 0.8128 -0.632 0.140 0.762 28 27 33 0 0
0.5249 2.6884 0.7963 -0.825 0.473 0.309 23 23 29 0 0
0.5405 2.8879 0.7777 -0.919 0.376 -0.122 19 19 21 0 0
0.5414 2.9033 0.7763 -0.947 -0.096 -0.308 18 18 20 0 0
0.5448 2.9198 0.7747 -0.872 -0.454 -0.183 16 16 18 0 0
0.5334 2.9297 0.7742 -0.654 -0.732 -0.194 15 15 17 0 0
0.5267 2.9416 0.7735 -0.719 -0.656 -0.230 16 16 18 0 0
0.5258 2.9562 0.7722 -0.837 -0.546 -0.039 17 17 19 0 0
0.5187 2.9680 0.7714 -0.876 -0.265 0.402 18 18 20 0 0
0.5113 2.9796 0.7707 -0.982 -0.085 -0.168 17 17 19 0 0
0.5694 3.1898 0.7493 -0.942 -0.321 0.098 32 32 34 0 0
0.5570 3.1992 0.7490 -0.965 -0.227 0.129 35 35 38 0 0
0.6025 3.2680 0.7409 -0.982 -0.005 0.187 34 34 38 0 0
0.6024 3.2990 0.7381 -0.970 -0.111 0.217 18 18 20 0 0
0.6437 3.3825 0.7289 -0.748 0.502 -0.434 13 13 15 0 0
0.6674 3.6822 0.7009 -0.988 0.049 -0.145 38 37 42 0 0
0.7093 3.7214 0.6956 -0.837 0.063 -0.543 38 37 43 0 0
0.5484 2.4660 0.8289 -0.136 -0.906 0.401 27 26 32 0 0
0.5153 2.4673 0.8301 -0.901 0.026 0.433 27 26 32 0 0
0.5661 2.5019 0.8249 -0.930 -0.367 -0.030 27 26 32 0 0
0.5670 2.5168 0.8236 -0.922 -0.249 0.296 25 24 30 0 0
0.5422 2.7115 0.8071 -0.825 0.473 0.309 22 21 26 0 0
0.4891 2.7328 0.8073 -0.471 -0.760 0.448 20 21 25 0 0
0.5241 2.9265 0.7886 -0.799 -0.002 -0.602 15 15 17 0 0
0.5228 2.9409 0.7874 -0.719 -0.656 -0.230 16 16 18 0 0
0.5133 2.9515 0.7868 -0.719 -0.656 -0.230 16 16 18 0 0
0.5813 3.1046 0.7704 -0.872 0.296 0.390 14 14 16 0 0
0.5979 3.2668 0.7552 -0.906 -0.402 0.135 30 30 33 0 0
0.6097 3.3038 0.7514 -0.933 0.264 0.245 17 17 19 0 0
0.6069 3.3180 0.7503 -0.981 0.096 0.166 16 16 18 0 0
0.7063 3.7046 0.7117 -0.959 -0.146 -0.241 38 37 42 0 0
0.7351 3.7367 0.7077 -0.555 -0.519 -0.651 39 38 44 0 0
0.7135 3.7411 0.7081 -0.835 0.167 -0.524 41 40 46 0 0
0.7134 3.7574 0.7067 -0.798 0.594 -0.105 47 46 52 0 0
0.5035 2.3066 0.8582 -0.435 -0.805 -0.405 24 23 29 0 0
0.5252 2.4723 0.8427 -0.931 -0.306 0.198 25 24 30 0 0
0.5442 2.9217 0.8020 -0.807 -0.152 0.571 16 16 18 0 0
0.5258 2.9433 0.8007 -0.947 -0.139 0.289 15 15 17 0 0
0.5169 2.9543 0.8001 -0.847 -0.526 0.072 14 14 16 0 0
0.5031 2.9629 0.7999 -0.405 -0.910 -0.085 14 14 16 0 0
0.5861 3.0774 0.7865 -0.774 -0.615 -0.149 14 14 16 0 0
0.5825 3.1062 0.7841 -0.945 -0.223 -0.241 14 14 16 0 0
0.6146 3.2451 0.7705 -0.981 -0.180 0.076 40 39 44 0 0
0.6117 3.2592 0.7693 -0.980 -0.141 0.140 34 33 38 0 0
0.6001 3.2690 0.7689 -0.921 -0.369 -0.124 24 23 27 0 0
0.6069 3.3035 0.7656 -0.964 0.213 0.160 17 17 19 0 0
0.7075 3.7065 0.7259 -0.961 -0.274 0.025 37 36 41 0 0
0.7240 3.7318 0.7230 -0.570 -0.639 -0.517 38 37 42 0 0
0.7223 3.7472 0.7217 -0.946 -0.197 -0.258 41 41 46 0 0
0.7061 3.7546 0.7217 -0.797 0.604 -0.006 52 52 57 0 0
0.8768 3.9324 0.6993 -0.847 0.532 0.018 143 143 141 0 0
0.5732 2.5068 0.8513 -0.736 -0.661 -0.149 21 20 26 0 0
0.5677 2.8434 0.8217 -0.864 -0.470 0.181 19 19 21 0 0
0.5346 2.9484 0.8137 -0.621 -0.777 -0.098 14 14 16 0 0
0.6213 3.2340 0.7853 -0.958 -0.194 0.213 40 39 44 0 0
0.6124 3.2452 0.7846 -0.822 -0.569 -0.039 37 36 41 0 0
0.6074 3.2582 0.7836 -0.915 -0.394 0.087 29 28 33 0 0
0.6011 3.2706 0.7828 -0.928 -0.339 0.156 23 23 26 0 0
0.6094 3.3216 0.7780 -0.953 -0.073 0.293 15 15 17 0 0
0.6079 3.3364 0.7767 -0.953 -0.073 0.293 15 15 17 0 0
0.6961 3.7015 0.7412 -0.855 0.080 0.512 35 34 39 0 0
0.7080 3.7569 0.7359 -0.809 0.587 0.020 59 60 62 0 0
0.5734 2.5079 0.8647 -0.713 -0.701 -0.019 19 19 24 0 0
0.5821 2.7168 0.8460 -0.894 0.110 0.434 17 17 22 0 0
0.5656 2.8885 0.8316 -0.815 -0.563 -0.140 16 16 18 0 0
0.5617 2.9167 0.8292 -0.883 0.409 0.230 16 16 18 0 0
0.5798 3.0766 0.8146 -0.972 -0.146 -0.184 16 16 18 0 0
0.5800 3.0919 0.8132 -0.995 -0.092 -0.032 16 16 18 0 0
0.6167 3.2329 0.7995 -0.954 -0.169 0.248 39 39 42 0 0
0.6139 3.2470 0.7984 -0.954 -0.169 0.248 30 30 33 0 0
0.6117 3.2615 0.7972 -0.940 -0.122 0.318 24 24 27 0 0
0.6075 3.2749 0.7962 -0.923 -0.029 0.383 21 21 23 0 0
0.7073 3.7088 0.7546 -0.781 -0.060 0.622 35 34 37 0 0
0.7102 3.7266 0.7529 -0.843 -0.309 0.439 41 42 43 0 0
0.7129 3.7444 0.7513 -0.858 0.334 0.391 53 54 56 0 0
0.7101 3.7592 0.7501 -0.809 0.587 0.020 52 53 55 0 0
0.5730 2.8778 0.8460 -0.689 -0.672 -0.271 16 16 18 0 0
0.5633 2.8885 0.8454 -0.804 -0.595 -0.017 15 15 17 0 0
0.5656 2.9045 0.8439 -0.830 0.308 0.466 15 15 17 0 0
0.5992 2.9650 0.8375 -0.995 -0.099 -0.017 14 14 16 0 0
0.5670 3.0108 0.8346 -0.741 0.175 0.648 13 13 15 0 0
0.6070 3.1674 0.8196 -0.953 0.244 0.181 38 38 40 0 0
0.6107 3.1846 0.8180 -0.974 0.164 0.156 38 38 40 0 0
0.6170 3.2031 0.8161 -0.988 0.064 0.143 39 39 41 0 0
0.6166 3.2184 0.8148 -0.923 0.187 0.337 40 40 42 0 0
0.6191 3.2351 0.8133 -0.982 -0.044 0.182 34 34 36 0 0
0.6241 3.2532 0.8115 -0.920 0.051 0.389 24 24 26 0 0
0.6147 3.2641 0.8109 -0.909 -0.204 0.362 20 20 22 0 0
0.7263 3.7203 0.7674 -0.749 -0.606 0.268 39 39 41 0 0
0.7196 3.7330 0.7665 -0.693 -0.115 0.712 47 47 49 0 0
0.7148 3.7466 0.7655 -0.871 0.203 0.448 47 47 49 0 0
0.6162 2.4687 0.8938 -0.667 -0.738 -0.100 16 17 21 0 0
0.6018 2.4776 0.8935 -0.825 -0.518 0.227 16 17 21 0 0
0.5525 2.4871 0.8942 -0.595 -0.804 -0.000 15 16 20 0 0
0.5597 2.8729 0.8606 -0.766 -0.405 -0.499 15 15 17 0 0
0.6025 2.9676 0.8510 -0.996 -0.018 -0.088 13 13 15 0 0
0.6075 3.1687 0.8334 -0.954 0.267 0.140 38 38 40 0 0
0.6088 3.1848 0.8320 -0.965 0.260 0.020 37 37 39 0 0
0.6193 3.2054 0.8299 -0.988 0.116 -0.100 39 39 41 0 0
0.6210 3.2217 0.8284 -0.964 0.219 0.151 33 33 35 0 0
0.6249 3.2391 0.8268 -0.958 0.166 0.235 25 25 27 0 0
0.6319 3.2581 0.8249 -0.884 0.131 0.449 18 18 20 0 0
0.6193 3.2675 0.8245 -0.909 -0.204 0.362 18 18 20 0 0
0.7291 3.7231 0.7815 -0.749 -0.606 0.268 40 40 42 0 0
0.7301 3.7400 0.7800 -0.753 -0.302 0.585 42 41 45 0 0
0.7345 3.7587 0.7783 -0.955 -0.293 0.034 44 42 47 0 0
0.8816 3.9401 0.7578 -0.816 0.577 0.036 159 159 158 0 0
0.9782 1.7876 0.9547 -0.390 -0.773 0.500 62 61 66 0 0
0.5576 2.5774 0.8998 -0.851 0.298 -0.432 11 12 16 0 0
0.6264 2.6793 0.8889 -0.523 0.304 0.797 13 14 18 0 0
0.6115 3.1872 0.8457 -0.956 0.291 0.013 40 40 42 0 0
0.6133 3.2036 0.8442 -0.929 -0.042 -0.367 33 33 35 0 0
0.5932 3.4591 0.8229 -0.655 0.458 -0.602 11 11 13 0 0
0.7265 3.7392 0.7947 -0.685 -0.648 0.333 41 39 43 0 0
0.8842 3.9428 0.7723 -0.816 0.577 0.036 154 154 153 0 0
0.5400 3.4012 0.8435 -0.637 0.279 -0.719 11 11 13 0 0
0.7538 3.7390 0.8084 -0.658 -0.473 0.586 38 38 40 0 0
0.9718 1.7876 0.9823 -0.470 -0.751 0.464 59 59 64 0 0
0.9654 1.8000 0.9815 -0.727 -0.545 0.417 48 47 52 0 0
0.6211 3.1941 0.8728 -0.966 0.256 0.037 25 25 27 0 0
0.6502 3.2705 0.8656 -0.974 0.150 0.168 15 15 17 0 0
0.7543 3.7404 0.8228 -0.976 -0.112 0.185 38 38 40 0 0
0.7511 3.7550 0.8217 -0.652 -0.738 0.172 39 38 41 0 0
0.7602 3.7765 0.8196 -0.687 -0.662 -0.299 40 37 44 0 0
0.9584 1.7989 0.9955 -0.947 -0.273 -0.167 47 46 51 0 0
0.6940 1.8600 0.9973 -0.896 -0.194 -0.400 63 61 64 0 0
0.5397 3.4190 0.8701 -0.695 -0.675 -0.248 25 25 27 0 0
0.5711 3.4668 0.8652 -0.681 0.595 -0.427 12 12 14 0 0
0.7530 3.7573 0.8360 -0.549 -0.790 0.272 37 36 40 0 0
0.8902 3.9499 0.8161 -0.796 0.600 -0.080 124 124 125 0 0
0.9589 1.7716 1.0115 -0.447 -0.893 -0.050 69 70 73 0 0
0.9697 1.7889 1.0097 -0.655 -0.755 -0.022 60 61 64 0 0
0.9508 1.7976 1.0095 -0.879 -0.046 -0.475 45 45 50 0 0
0.5827 2.9488 0.9223 -0.950 0.159 0.270 12 12 14 0 0
0.5356 3.4180 0.8843 -0.695 -0.675 -0.248 16 16 18 0 0
0.7489 3.7727 0.8493 -0.820 -0.282 0.497 43 41 47 0 0
0.9586 1.7725 1.0251 -0.611 -0.790 -0.056 70 71 73 0 0
0.5993 3.0793 0.9249 -0.973 -0.222 -0.057 38 36 40 0 0
0.5876 3.1197 0.9218 -0.905 -0.360 -0.225 28 28 30 0 0
0.5890 3.1357 0.9205 -0.956 -0.275 0.101 26 26 28 0 0
0.5842 3.4129 0.8976 -0.248 -0.968 -0.026 12 12 14 0 0
0.5639 3.4182 0.8976 -0.248 -0.968 -0.026 12 12 14 0 0
0.5314 3.4170 0.8985 -0.695 -0.675 -0.248 18 18 20 0 0
0.7291 3.7302 0.8679 -0.820 0.242 0.518 35 35 37 0 0
0.7548 3.7607 0.8647 -0.561 -0.702 0.439 39 38 42 0 0
0.7501 3.7745 0.8637 -0.593 -0.432 0.680 48 47 52 0 0
1.1662 1.7896 1.0329 0.130 -0.991 0.039 163 163 164 0 0
0.5968 2.9423 0.9502 -0.976 -0.096 0.197 12 12 14 0 0
0.5951 2.9567 0.9490 -0.976 -0.096 0.197 13 13 15 0 0
0.5957 2.9720 0.9478 -0.996 -0.044 0.083 13 13 16 0 0
0.5308 3.4178 0.9124 -0.854 -0.501 0.138 11 11 13 0 0
0.7256 3.7296 0.8825 -0.985 -0.089 -0.148 37 37 40 0 0
0.7554 3.7787 0.8778 -0.758 -0.264 0.597 41 40 45 0 0
0.7406 3.7869 0.8774 -0.967 0.244 0.079 42 41 46 0 0
1.0681 1.7772 1.0499 0.113 -0.993 0.034 87 88 90 0 0
0.5968 2.9736 0.9615 -0.996 -0.044 0.083 27 26 31 0 0
0.6059 3.1460 0.9472 -0.918 0.147 0.368 15 15 17 0 0
0.5794 3.4285 0.9246 -0.093 -0.996 -0.010 11 11 13 0 0
0.7211 3.7283 0.8972 -0.935 -0.040 -0.352 37 36 41 0 0
0.7346 3.7520 0.8950 -0.988 0.080 -0.129 38 37 42 0 0
0.7361 3.7692 0.8935 -0.988 0.080 -0.129 39 38 43 0 0
0.7494 3.7930 0.8913 -0.948 0.222 -0.228 41 40 45 0 0
1.0661 1.7776 1.0638 0.106 -0.994 0.038 84 85 87 0 0
0.6112 3.1497 0.9607 -0.844 0.009 0.536 13 13 15 0 0
0.7572 3.7985 0.9053 -0.909 0.162 -0.384 40 39 45 0 0
1.0637 1.7778 1.0777 0.106 -0.994 0.038 80 81 83 0 0
0.5953 2.7053 1.0108 -0.429 -0.578 0.694 12 12 14 0 0
0.5869 2.7313 1.0089 -0.580 -0.634 0.512 13 13 15 0 0
0.5653 2.8411 1.0004 -0.451 0.356 0.818 13 12 16 0 0
0.5856 2.8651 0.9981 -0.536 0.416 0.735 16 14 19 0 0
0.5875 3.1087 0.9784 -0.919 -0.362 -0.154 12 12 14 0 0
0.5854 3.1384 0.9761 -0.879 -0.224 -0.420 12 12 14 0 0
0.6839 3.6779 0.9309 -0.953 -0.028 0.302 33 32 37 0 0
0.7334 3.7702 0.9226 -0.905 0.301 -0.300 38 39 42 0 0
0.7504 3.7960 0.9202 -0.909 0.162 -0.384 39 40 44 0 0
1.0614 1.7781 1.0916 0.106 -0.994 0.038 77 78 80 0 0
0.6076 2.5934 1.0333 -0.827 -0.530 0.185 15 15 18 0 0
0.6182 2.6124 1.0316 -0.117 -0.954 -0.276 15 15 17 0 0
0.6020 2.8284 1.0146 -0.860 -0.399 0.317 16 15 20 0 0
0.5965 2.8410 1.0137 -0.917 -0.079 0.390 18 18 22 0 0
0.5947 2.8552 1.0125 -0.779 0.426 0.461 24 23 29 0 0
0.5473 3.4309 0.9672 -0.591 0.340 0.731 11 11 13 0 0
0.6159 3.5143 0.9594 -0.658 0.750 0.069 15 15 17 0 0
0.6824 3.6783 0.9453 -0.923 0.094 0.373 30 29 34 0 0
0.7386 3.7907 0.9354 -0.897 0.441 -0.032 38 40 45 0 0
0.9045 3.9667 0.9187 -0.794 0.607 0.041 118 119 117 0 0
0.6050 2.2318 1.0757 -0.876 -0.482 -0.014 15 16 20 0 0
0.6283 2.5587 1.0494 -0.751 -0.660 0.018 27 26 30 0 0
0.6046 2.5931 1.0470 -0.774 -0.631 -0.053 26 25 28 0 0
0.6288 2.7067 1.0377 -0.159 -0.711 0.685 24 24 27 0 0
0.6072 2.8468 1.0268 -0.866 -0.447 0.224 37 37 40 0 0
0.6086 2.8624 1.0256 -0.877 0.398 0.267 39 39 44 0 0
0.6023 3.0414 1.0114 -0.963 -0.186 0.197 13 14 16 0 0
0.5972 3.0848 1.0080 -0.959 -0.080 0.271 12 12 14 0 0
0.5956 3.0994 1.0069 -0.959 -0.080 0.271 12 12 14 0 0
0.5999 3.1168 1.0055 -0.986 0.076 0.147 11 11 13 0 0
0.6159 3.1398 1.0034 -0.792 0.516 -0.325 12 12 14 0 0
0.6706 3.6730 0.9603 -0.965 0.092 0.247 28 27 31 0 0
0.9023 3.9667 0.9337 -0.814 0.580 -0.002 112 113 111 0 0
0.6430 2.4485 1.0716 -0.780 0.591 -0.205 33 32 37 0 0
0.6300 2.8278 1.0418 -0.710 -0.671 0.213 40 41 44 0 0
0.5990 3.0868 1.0218 -0.998 -0.050 0.029 11 12 14 0 0
0.6072 3.1060 1.0202 -0.860 -0.192 0.473 11 12 14 0 0
0.5938 3.1150 1.0196 -0.733 0.476 0.487 17 17 19 0 0
0.6745 3.6763 0.9743 -0.964 0.263 0.028 25 25 27 0 0
0.5988 2.7258 1.0640 -0.427 -0.794 0.432 42 43 47 0 0
0.5944 2.7536 1.0619 -0.747 0.459 0.480 44 45 49 0 0
0.6192 2.8091 1.0572 -0.498 -0.515 0.698 42 43 47 0 0
0.6225 2.8858 1.0512 -0.978 0.000 0.211 45 44 49 0 0
0.6194 2.8995 1.0502 -0.949 -0.203 0.241 44 43 48 0 0
0.6001 3.0731 1.0368 -0.998 -0.050 0.029 11 12 14 0 0
0.6044 3.0904 1.0354 -0.940 -0.135 0.314 11 12 14 0 0
0.6012 3.1042 1.0343 -0.808 0.177 0.562 9 10 12 0 0
0.6917 1.8279 1.1466 -0.510 -0.461 -0.726 26 24 27 0 0
0.5320 2.3503 1.1075 -0.808 0.083 0.583 43 43 45 0 0
0.6348 2.8621 1.0668 -0.754 -0.180 0.632 44 45 50 0 0
0.6350 2.8773 1.0656 -0.903 -0.160 0.398 44 43 48 0 0
0.6285 2.8895 1.0647 -0.894 -0.354 0.275 40 39 44 0 0
0.6282 2.9045 1.0635 -0.781 -0.584 0.222 40 39 44 0 0
0.7213 3.7204 0.9992 -0.693 0.701 -0.165 32 32 34 0 0
0.7125 3.7647 0.9959 -0.837 0.542 -0.074 38 42 45 0 0
0.6313 2.2023 1.1316 -0.713 -0.490 0.502 12 15 18 0 0
0.6796 2.6428 1.0972 -0.699 0.666 0.262 29 29 31 0 0
0.7278 2.6925 1.0930 -0.694 0.607 0.388 29 29 31 0 0
0.7326 2.7095 1.0916 -0.954 0.279 -0.114 28 28 30 0 0
0.6346 2.9084 1.0771 -0.512 -0.855 -0.080 40 39 44 0 0
0.6215 3.2243 1.0528 -0.397 -0.739 -0.545 24 24 26 0 0
0.6881 3.6549 1.0191 -0.381 -0.908 -0.176 36 35 40 0 0
0.6729 3.6629 1.0186 -0.577 -0.775 -0.257 33 33 37 0 0
0.7449 3.8167 1.0061 -0.837 0.527 -0.146 43 44 48 0 0
0.6681 2.6094 1.1136 -0.965 0.184 0.185 19 19 21 0 0
0.6680 2.6242 1.1125 -0.958 -0.014 0.287 19 19 21 0 0
0.6674 2.6388 1.1114 -0.886 0.404 0.228 18 18 20 0 0
0.6710 2.6551 1.1101 -0.991 -0.044 0.130 19 19 21 0 0
0.6697 2.6695 1.1090 -0.993 -0.030 0.112 18 18 21 0 0
0.7107 2.7014 1.1063 -0.800 0.384 -0.461 19 18 22 0 0
0.6247 3.2115 1.0678 -0.397 -0.739 -0.545 27 27 29 0 0
0.7260 3.6278 1.0353 0.270 -0.954 -0.131 33 33 35 0 0
0.6752 3.6653 1.0328 -0.906 -0.421 -0.048 34 33 37 0 0
0.6995 2.6530 1.1239 -0.821 0.335 -0.462 17 17 19 0 0
0.6712 2.6711 1.1227 -0.993 -0.084 -0.085 16 16 19 0 0
0.6389 2.2080 1.1715 -0.956 -0.061 0.287 16 15 20 0 0
0.7311 2.7421 1.1310 -0.637 0.099 -0.765 16 15 20 0 0
0.6364 3.2038 1.0965 -0.612 -0.739 -0.281 23 23 25 0 0
0.7754 3.8208 1.0495 -0.864 0.445 -0.236 41 42 45 0 0
0.5908 2.2344 1.1831 -0.589 0.477 0.652 39 36 43 0 0
0.7285 2.7722 1.1426 -0.735 -0.643 -0.216 37 35 39 0 0
0.7185 2.7830 1.1419 -0.706 -0.699 -0.109 45 43 47 0 0
0.6742 2.8244 1.1388 -0.933 -0.358 0.033 39 39 41 0 0
0.7911 2.9365 1.1302 -0.505 0.300 0.809 20 20 22 0 0
0.6339 3.1727 1.1129 -0.964 -0.087 0.251 19 19 21 0 0
0.6342 3.2039 1.1105 -0.789 -0.608 0.084 24 24 26 0 0
0.6254 3.2151 1.1097 -0.789 -0.608 0.084 21 21 23 0 0
0.7992 2.0650 1.2091 -0.568 0.695 -0.441 13 12 17 0 0
0.6392 2.1248 1.2047 -0.830 -0.300 0.470 14 12 17 0 0
0.6294 2.1355 1.2039 -0.951 0.105 0.290 16 14 19 0 0
0.7134 2.7819 1.1559 -0.947 -0.113 0.301 48 46 51 0 0
0.8537 2.9652 1.1423 -0.538 0.591 0.601 22 22 24 0 0
0.6620 3.1254 1.1304 -0.867 0.385 0.316 10 11 13 0 0
0.6437 3.1631 1.1276 -0.846 -0.478 -0.236 16 16 18 0 0
0.6411 3.1773 1.1266 -0.972 -0.192 -0.133 20 20 22 0 0
0.6384 3.1915 1.1255 -0.972 -0.192 -0.133 23 23 25 0 0
0.7778 2.0731 1.2221 -0.465 0.760 -0.455 15 13 18 0 0
0.6495 2.2004 1.2125 -0.689 0.508 0.518 21 19 25 0 0
0.8350 2.8963 1.1616 -0.329 0.383 0.863 24 24 26 0 0
0.8615 2.9543 1.1573 -0.524 0.452 0.722 25 25 27 0 0
0.6386 3.1772 1.1406 -0.995 0.057 0.081 22 22 24 0 0
0.7630 3.8010 1.0949 -0.827 0.525 -0.202 42 43 47 0 0
0.7909 3.8330 1.0926 -0.846 0.532 -0.022 46 47 51 0 0
0.6209 1.9660 1.2431 -0.659 -0.585 0.473 33 31 37 0 0
0.7926 2.1365 1.2311 -0.005 -0.951 -0.308 14 11 16 0 0
0.7846 2.3807 1.2133 -0.335 0.134 0.933 105 103 104 0 0
0.7157 3.6457 1.1207 -0.918 -0.387 -0.082 36 37 41 0 0
0.8771 2.8858 1.1909 -0.565 0.615 0.551 27 27 29 0 0
0.9698 2.9727 1.1850 -0.774 0.038 0.632 32 32 34 0 0
0.9953 3.0154 1.1820 -0.877 -0.329 -0.351 31 31 33 0 0
0.6438 3.1820 1.1684 -0.711 -0.655 0.256 27 27 29 0 0
0.6476 3.1993 1.1672 -0.445 -0.808 0.387 23 23 25 0 0
0.6833 3.6618 1.1338 -0.523 -0.393 0.756 35 36 40 0 0
0.6433 1.9612 1.2702 -0.366 -0.658 0.658 34 37 42 0 0
0.6391 2.0018 1.2673 -0.721 -0.066 0.689 29 27 34 0 0
0.8792 2.7801 1.2128 -0.313 -0.905 -0.288 12 12 14 0 0
0.9847 3.0118 1.1968 -0.850 -0.361 -0.383 31 31 33 0 0
0.6459 3.1841 1.1824 -0.869 -0.491 0.061 23 23 25 0 0
0.7769 3.3582 1.1706 -0.854 -0.498 -0.152 14 15 17 0 0
0.7086 3.7255 1.1438 -0.665 0.508 0.547 35 34 39 0 0
0.6843 2.0036 1.2808 -0.656 0.188 0.731 31 32 37 0 0
0.6602 2.0097 1.2802 -0.636 0.123 0.762 32 31 37 0 0
1.0291 2.9850 1.2135 -0.648 -0.686 -0.330 35 34 37 0 0
0.7481 3.3451 1.1857 -0.397 -0.836 0.380 14 14 16 0 0
0.6887 3.6347 1.1646 -0.978 -0.183 0.102 36 37 41 0 0
0.6668 1.9847 1.2954 -0.427 -0.364 0.828 34 34 40 0 0
1.0378 2.7240 1.2466 -0.773 -0.627 -0.097 10 11 15 0 0
1.0365 2.7390 1.2455 -0.861 -0.112 0.496 10 11 13 0 0
0.7004 3.7071 1.1740 -0.592 -0.313 -0.743 28 29 31 0 0
0.6595 2.1813 1.2950 -0.594 0.512 0.620 44 43 49 0 0
0.7298 2.2492 1.2910 -0.563 0.567 0.601 25 23 28 0 0
0.7515 2.2860 1.2886 -0.638 0.567 0.521 67 65 68 0 0
0.9467 2.7806 1.2560 -0.019 -0.866 -0.500 10 11 13 0 0
1.0171 2.9820 1.2427 -0.582 -0.772 -0.254 36 35 40 0 0
0.9601 3.0200 1.2394 -0.681 -0.683 -0.262 20 19 24 0 0
0.8219 3.8410 1.1804 -0.740 0.546 0.393 47 48 52 0 0
0.6793 2.1892 1.3082 -0.624 0.534 0.571 29 28 34 0 0
0.7049 2.2126 1.3069 -0.566 0.636 0.524 14 13 19 0 0
0.7298 2.2358 1.3056 -0.566 0.636 0.524 13 11 17 0 0
0.7544 2.2590 1.3043 -0.560 0.615 0.555 20 18 21 0 0
0.7512 2.2724 1.3033 -0.627 0.585 0.514 66 64 67 0 0
1.0084 2.7298 1.2746 -0.374 -0.900 -0.225 9 10 12 0 0
1.0121 2.9810 1.2572 -0.582 -0.772 -0.254 38 37 42 0 0
0.8387 3.8682 1.1935 -0.831 0.279 0.481 45 46 50 0 0
0.6369 2.0479 1.3309 -0.766 -0.125 -0.630 38 39 44 0 0
0.6979 2.1967 1.3215 -0.624 0.534 0.571 14 12 18 0 0
0.7163 2.2176 1.3203 -0.630 0.565 0.533 14 12 17 0 0
0.7332 2.2380 1.3191 -0.632 0.569 0.526 16 14 18 0 0
0.7505 2.2586 1.3179 -0.646 0.579 0.497 65 64 64 0 0
1.0111 2.7319 1.2889 -0.321 -0.947 -0.025 8 9 11 0 0
0.9951 2.9904 1.2709 -0.699 -0.713 -0.066 38 38 42 0 0
1.0135 2.7340 1.3032 -0.402 -0.847 0.347 8 9 11 0 0
0.8319 3.8669 1.2230 -0.971 0.135 -0.196 45 44 49 0 0
1.0348 2.7282 1.3183 -0.683 -0.730 0.004 9 10 12 0 0
1.0139 2.7352 1.3175 -0.486 -0.670 0.561 8 9 11 0 0
0.9975 2.9779 1.3008 -0.708 -0.657 -0.259 40 39 44 0 0
0.8046 2.0069 1.3769 -0.128 -0.520 0.844 41 40 46 0 0
0.7733 2.2407 1.3607 -0.426 0.676 0.601 118 116 117 0 0
0.6386 3.6644 1.2626 -0.719 0.651 -0.243 29 30 34 0 0
1.0350 3.0282 1.3272 -0.898 0.440 0.021 14 14 16 0 0
0.6230 3.6571 1.2772 -0.732 0.681 -0.004 21 22 24 0 0
0.6738 3.7010 1.2753 -0.696 0.716 -0.047 23 24 26 0 0
1.2332 2.6381 1.3717 0.144 -0.932 -0.331 157 155 158 0 0
0.9757 2.7384 1.3596 -0.449 -0.879 0.159 11 11 13 0 0
1.0370 3.0302 1.3417 -0.842 0.524 0.125 14 14 16 0 0
0.7690 3.8202 1.2839 -0.704 0.699 -0.124 50 51 54 0 0
1.2034 2.6278 1.3864 0.150 -0.940 -0.306 134 132 135 0 0
0.9852 2.7433 1.3739 -0.644 -0.765 0.018 12 12 14 0 0
1.0149 2.9584 1.3605 -0.889 -0.129 -0.439 37 38 43 0 0
1.0409 3.0330 1.3562 -0.842 0.524 0.125 13 13 15 0 0
1.2462 2.6296 1.4020 0.150 -0.940 -0.306 155 154 157 0 0
1.0090 2.9570 1.3750 -0.867 -0.164 -0.470 36 39 42 0 0
1.0063 3.0189 1.3709 -0.678 0.703 0.213 12 12 14 0 0
0.6645 3.6994 1.3185 -0.724 0.688 -0.057 36 37 40 0 0
1.2258 2.0881 1.4509 -0.041 -0.447 0.894 168 168 170 0 0
1.2210 2.6211 1.4165 0.143 -0.935 -0.325 135 134 137 0 0
0.6327 3.6671 1.3341 -0.776 0.630 0.027 34 35 39 0 0
0.6644 3.7006 1.3328 -0.732 0.674 -0.094 37 38 42 0 0
1.1849 2.6084 1.4310 0.115 -0.899 -0.422 114 113 115 0 0
1.0741 2.9399 1.4069 -0.552 -0.813 0.186 38 37 42 0 0
1.0612 2.9501 1.4059 -0.991 0.132 0.022 38 37 42 0 0
0.6167 3.5953 1.3526 -0.378 -0.888 0.262 39 40 44 0 0
1.0543 2.9325 1.4214 -0.473 -0.657 -0.586 39 38 43 0 0
1.0693 2.9547 1.4204 -0.814 -0.438 -0.381 39 38 43 0 0
0.5535 3.0795 1.3976 -0.868 0.008 0.497 20 20 22 0 0
0.6332 3.5732 1.3688 -0.974 0.194 -0.114 39 40 44 0 0
0.6111 3.5934 1.3669 -0.630 -0.738 0.243 39 40 44 0 0
1.1760 2.1799 1.4867 -0.109 -0.252 0.962 169 169 169 0 0
1.1016 2.2149 1.4822 -0.421 0.243 0.874 168 168 168 0 0
1.1848 2.5950 1.4610 0.058 -0.809 -0.585 115 113 114 0 0
1.0855 2.9312 1.4370 -0.570 -0.822 -0.001 40 39 44 0 0
1.0656 2.9385 1.4359 -0.600 -0.200 -0.774 39 38 43 0 0
1.0760 2.9587 1.4350 -0.361 -0.834 -0.417 39 38 43 0 0
0.9898 2.9846 1.4307 -0.724 0.659 0.202 14 15 17 0 0
1.0073 3.0080 1.4298 -0.745 0.664 0.058 13 14 16 0 0
0.7323 3.0565 1.4184 -0.229 -0.760 -0.609 12 13 15 0 0
0.6324 3.5739 1.3830 -0.989 0.116 -0.089 39 40 44 0 0
0.6404 3.5943 1.3820 -0.943 -0.201 -0.264 40 41 45 0 0
0.6119 3.5950 1.3811 -0.851 -0.501 -0.157 39 40 44 0 0
0.6003 3.6048 1.3801 -0.667 0.666 -0.335 34 35 38 0 0
0.8715 3.9517 1.3668 -0.934 -0.355 0.042 61 62 62 0 0
0.8621 3.9632 1.3658 -0.782 -0.621 0.060 78 80 77 0 0
1.0803 2.9143 1.4525 -0.825 -0.546 -0.146 39 38 43 0 0
1.0650 2.9551 1.4495 -0.300 -0.831 -0.468 39 38 43 0 0
1.0103 2.9947 1.4453 -0.680 0.660 0.320 13 14 16 0 0
1.0117 3.0111 1.4443 -0.748 0.657 0.088 13 14 16 0 0
0.6279 3.5727 1.3973 -0.983 0.094 -0.159 39 40 44 0 0
0.6091 3.5947 1.3953 -0.814 -0.067 -0.577 39 40 44 0 0
0.5838 3.5970 1.3944 -0.734 0.516 -0.442 35 36 38 0 0
0.6056 3.6249 1.3933 -0.751 0.207 -0.627 23 24 26 0 0
0.6134 3.6452 1.3923 -0.959 0.233 -0.158 19 20 23 0 0
0.6701 3.7085 1.3902 -0.734 0.678 0.041 21 23 24 0 0
0.8754 3.9551 1.3816 -0.865 -0.442 0.238 77 78 78 0 0
0.8671 3.9673 1.3806 -0.772 -0.576 0.268 96 97 95 0 0
1.0809 2.9314 1.4661 -0.375 -0.844 -0.382 40 39 44 0 0
0.9847 2.9218 1.4634 -0.736 -0.668 0.107 38 37 42 0 0
1.0238 3.0017 1.4599 -0.632 0.644 0.431 13 14 16 0 0
0.6156 3.5994 1.4095 -0.852 0.192 -0.486 39 40 44 0 0
0.5788 3.5955 1.4085 -0.657 0.618 -0.432 35 36 39 0 0
0.8780 3.9579 1.3964 -0.865 -0.442 0.238 88 88 89 0 0
1.0689 2.9116 1.4815 -0.812 -0.348 -0.468 40 39 44 0 0
1.0488 2.9189 1.4804 -0.744 -0.591 -0.312 40 39 44 0 0
1.0390 2.9304 1.4793 -0.710 -0.655 -0.258 40 39 45 0 0
0.9784 2.9202 1.4778 -0.963 0.066 0.261 37 36 41 0 0
0.9506 2.9551 1.4747 -0.586 -0.772 0.247 15 15 17 0 0
0.6279 3.6232 1.4228 -0.839 -0.545 -0.003 36 37 40 0 0
0.6300 3.6404 1.4219 -0.191 -0.935 -0.298 31 32 35 0 0
0.5934 3.6366 1.4208 -0.733 0.484 -0.479 28 29 32 0 0
0.8755 3.9409 1.4123 -0.984 0.177 -0.017 72 72 73 0 0
1.0569 2.9077 1.4959 -0.781 -0.433 -0.451 40 39 44 0 0
1.0436 2.9178 1.4948 -0.744 -0.591 -0.312 40 39 45 0 0
0.6050 3.5960 1.4380 -0.790 0.272 0.549 39 40 44 0 0
0.6302 3.6256 1.4371 -0.540 -0.655 0.529 39 40 44 0 0
0.8732 3.9577 1.4261 -0.988 -0.146 -0.046 69 71 72 0 0
0.8668 3.9709 1.4251 -0.984 -0.177 -0.027 80 81 81 0 0
0.8641 3.9863 1.4240 -0.984 -0.177 -0.027 102 102 100 0 0
0.8389 2.6641 1.5166 -0.697 -0.710 0.099 25 24 29 0 0
0.8279 2.6747 1.5156 -0.697 -0.710 0.099 30 30 33 0 0
1.0508 2.9062 1.5103 -0.860 -0.463 -0.216 39 38 43 0 0
0.6186 3.6045 1.4523 -0.795 0.230 0.561 39 40 44 0 0
0.6352 3.6295 1.4514 -0.552 -0.629 0.547 38 39 43 0 0
0.8830 3.9645 1.4410 -0.935 -0.354 -0.018 66 67 71 0 0
1.0521 2.8921 1.5258 -0.642 -0.093 0.761 39 38 43 0 0
1.0256 2.8966 1.5245 -0.980 0.024 -0.196 38 37 42 0 0
0.6355 3.6309 1.4657 -0.551 -0.725 0.413 31 32 36 0 0
0.9571 2.6069 1.5530 -0.848 -0.496 -0.187 15 14 21 0 0
0.6284 3.5480 1.4846 -0.956 -0.152 0.252 38 39 43 0 0
0.8717 3.9100 1.4736 -0.942 -0.212 0.261 45 46 48 0 0
0.8931 3.9558 1.4718 -0.598 -0.768 -0.229 53 53 53 0 0
0.8683 3.9755 1.4696 -0.675 -0.700 -0.233 71 73 72 0 0
1.0396 2.9520 1.5509 -0.712 0.642 0.285 14 13 17 0 0
0.8559 3.9697 1.4843 -0.933 -0.183 -0.311 73 75 74 0 0
0.9468 2.6355 1.5794 -0.497 -0.649 -0.576 15 14 20 0 0
0.8549 3.9536 1.5001 -0.982 0.028 -0.186 69 70 70 0 0
0.8543 3.9700 1.4991 -0.972 -0.093 -0.218 82 84 83 0 0
0.8073 3.8944 1.5162 -0.809 0.568 -0.152 70 71 72 0 0
0.8465 3.9500 1.5148 -0.959 0.279 -0.045 83 85 84 0 0
0.9645 2.5988 1.6108 -0.481 -0.760 -0.437 38 38 40 0 0
0.6276 3.5683 1.5406 -0.922 0.388 0.011 41 42 46 0 0
0.8504 3.9366 1.5306 -0.959 0.273 -0.071 80 82 81 0 0
0.6370 3.5584 1.5560 -0.419 -0.790 0.447 40 41 45 0 0
0.6314 3.5715 1.5550 -0.758 -0.635 0.152 41 42 46 0 0
0.8514 3.9385 1.5455 -0.981 0.140 -0.134 73 75 74 0 0
0.9425 2.5923 1.6386 -0.456 -0.780 -0.428 45 44 50 0 0
0.6009 3.6204 1.5651 -0.400 -0.880 0.257 52 53 57 0 0
0.8344 3.9469 1.5590 -0.945 0.289 -0.154 76 78 77 0 0
1.1486 2.5344 1.6667 0.017 -0.941 -0.337 70 71 73 0 0
0.9303 2.5887 1.6524 -0.298 -0.841 -0.451 36 35 41 0 0
0.6117 2.9705 1.6151 -0.882 0.354 0.311 18 17 23 0 0
0.6136 3.5803 1.5822 -0.907 0.175 -0.383 41 42 46 0 0
0.6029 3.5906 1.5811 -0.953 -0.288 0.094 38 39 41 0 0
0.6089 3.6099 1.5804 -0.060 -0.971 -0.231 35 36 39 0 0
0.6023 3.6223 1.5793 -0.570 -0.791 0.221 39 40 42 0 0
1.1703 2.5282 1.6827 0.058 -0.900 -0.433 76 76 78 0 0
1.0247 2.5500 1.6737 -0.333 -0.943 -0.012 51 50 55 0 0
0.9976 2.5550 1.6720 -0.453 -0.768 -0.452 49 48 53 0 0
0.8631 2.7149 1.6562 -0.716 0.698 -0.011 36 37 42 0 0
0.6384 2.8773 1.6355 -0.993 0.110 -0.047 42 41 45 0 0
0.6359 3.5613 1.5987 -0.869 -0.475 0.137 40 39 44 0 0
0.6084 3.5947 1.5955 -0.548 -0.698 -0.461 34 35 37 0 0
0.5990 3.6217 1.5935 -0.649 -0.738 -0.182 23 24 26 0 0
0.8688 3.9689 1.5894 -0.450 -0.883 0.131 66 68 68 0 0
0.8557 3.9784 1.5882 -0.558 -0.828 0.052 81 83 82 0 0
0.8426 3.9877 1.5870 -0.575 -0.818 -0.020 113 113 112 0 0
1.1918 2.5218 1.6988 0.081 -0.904 -0.420 89 89 91 0 0
1.1034 2.5196 1.6940 0.023 -0.901 -0.432 67 67 69 0 0
1.0013 2.5574 1.6864 -0.459 -0.888 0.007 47 46 51 0 0
0.9503 2.5530 1.6838 -0.569 -0.354 -0.742 47 46 51 0 0
0.6428 3.5661 1.6132 -0.954 -0.292 0.065 40 39 44 0 0
0.6064 3.5788 1.6105 -0.940 0.254 -0.227 40 39 44 0 0
0.6680 3.6927 1.6079 -0.597 0.550 -0.584 18 19 21 0 0
0.6820 3.7167 1.6074 -0.631 0.658 -0.411 25 26 28 0 0
0.8677 3.9695 1.6042 -0.483 -0.874 -0.055 61 62 65 0 0
1.1672 2.5137 1.7124 0.058 -0.900 -0.433 72 72 74 0 0
1.1012 2.5199 1.7083 -0.043 -0.895 -0.445 59 59 62 0 0
0.6090 2.9269 1.6591 -0.929 -0.218 0.298 52 51 56 0 0
0.7555 3.5785 1.6333 -0.742 -0.624 -0.247 32 31 36 0 0
0.6173 3.6019 1.6242 -0.771 0.079 0.632 34 34 37 0 0
0.6162 3.6173 1.6233 -0.491 -0.510 0.706 28 28 30 0 0
0.9352 2.5796 1.7100 -0.471 -0.804 0.362 50 49 54 0 0
0.8206 2.6251 1.7010 -0.253 -0.681 0.687 49 49 51 0 0
0.5989 2.9690 1.6702 -0.965 -0.242 -0.106 44 42 47 0 0
0.5802 3.0824 1.6633 -0.550 -0.112 -0.828 28 28 30 0 0
0.6360 3.5649 1.6415 -0.992 0.094 -0.081 41 40 45 0 0
0.6249 3.6071 1.6387 -0.880 -0.137 0.455 36 35 40 0 0
0.6212 3.6212 1.6378 -0.562 -0.620 0.548 31 31 33 0 0
0.8484 3.9610 1.6334 -0.923 -0.382 -0.052 76 77 77 0 0
0.9877 2.5858 1.7270 -0.095 -0.834 0.543 51 50 55 0 0
0.9578 2.5895 1.7251 -0.208 -0.803 0.558 53 52 57 0 0
0.9289 2.5934 1.7231 -0.309 -0.737 0.601 52 51 56 0 0
0.7124 3.5099 1.6633 -0.615 0.782 0.096 16 16 18 0 0
0.6291 3.6106 1.6531 -0.860 -0.380 0.340 38 37 42 0 0
0.6223 3.6230 1.6521 -0.448 -0.828 0.339 39 39 41 0 0
0.6145 3.6509 1.6502 -0.750 0.536 -0.388 37 41 42 0 0
0.8460 3.9609 1.6482 -0.918 -0.366 -0.151 87 88 88 0 0
0.8421 3.9756 1.6472 -0.904 -0.416 -0.096 106 106 105 0 0
0.5170 3.0851 1.6872 -0.735 -0.571 -0.367 24 24 26 0 0
0.6307 3.6126 1.6675 -0.776 -0.561 0.289 40 39 44 0 0
0.6259 3.6261 1.6665 -0.608 -0.770 0.196 48 48 50 0 0
0.6242 3.6574 1.6648 -0.339 -0.909 0.243 60 61 61 0 0
0.9690 4.0663 1.6653 -0.977 0.205 0.061 157 157 155 0 0
0.8839 2.6384 1.7465 -0.167 -0.669 0.725 45 44 49 0 0
0.6908 2.6954 1.7315 -0.670 -0.395 -0.628 40 38 43 0 0
0.6627 2.8037 1.7243 -0.648 -0.723 -0.237 20 20 22 0 0
0.6593 2.8173 1.7234 -0.878 -0.408 -0.249 18 18 20 0 0
0.5830 2.9649 1.7112 -0.686 -0.347 -0.640 74 74 76 0 0
0.5474 3.3013 1.6922 -0.877 -0.478 -0.043 14 14 16 0 0
0.5157 3.3009 1.6902 -0.757 0.227 0.613 14 14 16 0 0
0.5226 3.3199 1.6897 -0.784 0.313 0.536 12 12 14 0 0
0.6321 3.6468 1.6802 -0.740 -0.538 -0.403 50 50 51 0 0
0.6387 3.6665 1.6797 -0.432 -0.885 -0.173 58 57 59 0 0
0.8455 3.9632 1.6778 -0.952 -0.211 -0.220 79 80 81 0 0
0.8424 3.9783 1.6769 -0.952 -0.211 -0.220 95 95 94 0 0
0.6919 2.6969 1.7454 -0.908 -0.361 -0.212 36 35 40 0 0
0.6820 2.7078 1.7442 -0.699 -0.709 -0.092 38 37 42 0 0
0.6627 2.8199 1.7374 -0.876 -0.431 -0.217 20 20 22 0 0
0.6564 2.8323 1.7364 -0.828 -0.527 0.190 17 17 19 0 0
0.4668 3.3081 1.7007 -0.624 0.765 -0.162 15 15 17 0 0
1.1560 2.5005 1.7995 -0.309 -0.886 -0.346 59 59 62 0 0
1.2567 2.5533 1.8036 -0.539 -0.576 -0.615 48 47 52 0 0
1.1974 2.5468 1.8000 -0.754 0.412 0.511 46 45 51 0 0
1.2085 2.5665 1.7998 -0.696 0.386 0.606 46 45 50 0 0
0.6981 2.7156 1.7588 -0.747 -0.267 0.609 32 31 36 0 0
0.6645 2.7916 1.7529 -0.537 0.121 -0.835 32 33 36 0 0
0.6787 2.8430 1.7513 -0.506 -0.144 -0.851 18 18 20 0 0
0.6638 2.8517 1.7499 -0.623 -0.545 -0.561 16 16 18 0 0
0.6726 2.8707 1.7496 -0.337 -0.936 0.098 15 15 17 0 0
0.6530 2.8772 1.7479 -0.361 -0.858 0.365 14 14 16 0 0
0.5920 3.0016 1.7378 -0.022 -0.575 0.818 34 33 39 0 0
0.5080 3.2992 1.7178 -0.350 0.017 -0.937 15 15 17 0 0
0.5224 3.3532 1.7161 -0.693 0.712 -0.115 14 14 16 0 0
0.6232 3.5800 1.7117 -0.771 0.131 -0.623 40 41 45 0 0
0.6193 3.6100 1.7100 -0.535 -0.572 -0.622 18 19 21 0 0
1.2427 2.5647 1.8168 -0.662 -0.456 -0.595 46 45 51 0 0
1.2483 2.5824 1.8163 -0.722 0.259 -0.642 46 45 50 0 0
0.7749 2.7488 1.7763 -0.136 -0.121 0.983 34 33 38 0 0
0.6715 2.8713 1.7634 -0.416 -0.327 -0.849 16 16 18 0 0
0.6517 2.8929 1.7611 -0.225 -0.860 -0.458 14 14 16 0 0
0.5176 3.0138 1.7462 -0.824 0.294 -0.484 39 38 44 0 0
0.5025 3.2821 1.7322 -0.719 0.694 -0.047 15 15 17 0 0
0.5402 3.3635 1.7308 -0.593 -0.217 -0.775 15 15 17 0 0
0.6123 3.5913 1.7247 -0.845 -0.010 -0.534 28 29 33 0 0
0.6043 3.6031 1.7236 -0.579 -0.568 -0.585 22 23 25 0 0
0.6092 3.6379 1.7223 -0.718 -0.298 -0.629 22 22 24 0 0
0.6091 3.6539 1.7215 -0.825 0.135 -0.549 25 25 27 0 0
0.6125 3.6719 1.7209 -0.825 0.135 -0.549 22 22 26 0 0
1.2335 2.5780 1.8302 -0.698 0.288 -0.656 47 46 51 0 0
0.6214 2.8202 1.7764 -0.536 -0.835 -0.125 39 41 45 0 0
0.6516 2.8636 1.7764 -0.274 0.052 -0.960 22 24 25 0 0
0.6442 2.9058 1.7739 -0.182 -0.308 -0.934 13 13 15 0 0
0.6280 2.9138 1.7724 -0.234 -0.462 -0.856 13 13 15 0 0
0.6201 2.9254 1.7713 -0.402 -0.468 -0.787 15 13 16 0 0
0.5955 2.9598 1.7680 -0.867 0.157 -0.473 14 13 16 0 0
0.6308 3.0065 1.7682 -0.960 0.118 -0.252 15 16 20 0 0
0.5496 3.0298 1.7615 -0.544 -0.697 0.466 36 36 38 0 0
0.6236 3.5986 1.7395 -0.797 -0.414 0.441 31 32 37 0 0
0.6222 3.6139 1.7387 -0.745 -0.649 0.151 28 29 33 0 0
0.6136 3.6253 1.7375 -0.733 -0.642 0.223 29 30 32 0 0
0.6014 3.6348 1.7362 -0.640 -0.723 0.259 34 34 38 0 0
0.9679 2.5551 1.8272 0.136 -0.990 -0.030 61 62 64 0 0
0.8328 2.6990 1.8109 0.155 -0.772 0.616 40 39 44 0 0
0.6012 2.8275 1.7885 -0.529 -0.496 -0.689 37 41 43 0 0
0.6101 2.9523 1.7833 -0.510 -0.094 -0.855 12 12 14 0 0
0.6146 2.9696 1.7828 -0.389 -0.585 -0.712 13 13 16 0 0
0.6058 2.9808 1.7816 -0.410 -0.638 -0.652 13 14 17 0 0
0.5847 2.9863 1.7799 -0.673 -0.739 0.045 13 14 17 0 0
0.5191 3.0927 1.7703 -0.982 -0.080 -0.168 41 42 47 0 0
0.4760 3.3019 1.7574 -0.756 -0.122 -0.643 15 15 17 0 0
0.6201 3.6140 1.7529 -0.866 -0.173 0.470 30 31 34 0 0
0.6294 3.6351 1.7525 -0.843 0.070 0.533 33 34 36 0 0
0.6317 3.6525 1.7519 -0.791 0.089 0.605 40 40 44 0 0
0.8830 3.9907 1.7537 -0.640 0.765 0.069 67 67 71 0 0
0.5841 2.8210 1.8014 -0.478 -0.329 -0.815 30 31 33 0 0
0.6036 2.9505 1.7968 -0.323 -0.050 -0.945 13 14 16 0 0
0.6109 2.9690 1.7965 -0.297 -0.079 -0.952 13 13 15 0 0
0.6091 2.9834 1.7957 -0.295 -0.165 -0.941 13 14 16 0 0
0.5858 2.9879 1.7938 -0.422 -0.264 -0.868 14 15 17 0 0
0.5697 3.0109 1.7916 -0.589 -0.783 0.199 15 15 17 0 0
0.5574 3.0204 1.7903 -0.528 -0.731 0.432 18 18 20 0 0
0.4795 3.2738 1.7729 -0.413 -0.597 0.687 17 17 17 0 0
0.4631 3.2810 1.7714 -0.439 -0.786 0.435 18 18 19 0 0
0.4483 3.2889 1.7699 -0.547 -0.785 0.290 17 17 19 0 0
0.5916 3.5677 1.7673 -0.899 -0.322 -0.298 41 42 46 0 0
0.5968 2.8126 1.8166 -0.339 -0.601 -0.724 16 16 19 0 0
0.5029 3.0871 1.7971 -0.975 0.007 0.222 32 33 36 0 0
0.4553 3.2782 1.7848 -0.214 -0.476 0.853 23 22 23 0 0
0.6204 3.5363 1.7852 -0.863 0.376 -0.337 39 39 43 0 0
1.2103 2.4805 1.8917 -0.621 -0.707 -0.337 56 56 62 0 0
0.5472 2.9572 1.8202 -0.570 -0.042 -0.820 37 38 39 0 0
1.2215 2.4857 1.9069 -0.893 -0.032 -0.448 50 50 54 0 0
0.5132 3.0942 1.8253 -0.990 -0.055 -0.129 16 15 17 0 0
0.5134 3.1096 1.8246 -0.969 -0.247 -0.020 20 19 22 0 0
0.4971 3.1323 1.8224 -0.994 -0.028 0.106 27 27 29 0 0
1.2071 2.4661 1.9212 -0.832 -0.002 -0.555 62 62 64 0 0
0.5068 3.0314 1.8414 -0.446 0.225 -0.866 37 38 41 0 0
0.5178 3.0518 1.8414 -0.396 0.241 -0.886 31 31 33 0 0
0.4876 3.1451 1.8488 -0.866 -0.494 -0.074 14 15 17 0 0
0.4809 3.1571 1.8478 -0.968 -0.232 -0.100 13 14 16 0 0
0.5234 3.2551 1.8469 -0.780 0.455 -0.430 16 17 19 0 0
0.5274 3.2726 1.8465 -0.960 0.248 -0.132 18 19 21 0 0
0.8030 4.0031 1.8367 -0.360 -0.832 0.423 165 165 163 0 0
0.5330 2.9701 1.8739 -0.215 -0.247 0.945 23 24 26 0 0
0.5514 3.3325 1.8599 -0.633 -0.649 0.423 24 23 26 0 0
0.5332 3.4171 1.8547 -0.970 -0.169 -0.178 70 68 68 0 0
0.5330 3.5911 1.8473 -0.612 -0.789 -0.045 40 42 42 0 0
0.8140 4.0108 1.8522 -0.769 -0.422 0.481 162 162 160 0 0
0.5636 3.4026 1.8720 -0.524 -0.836 0.162 42 42 42 0 0
0.5290 3.4475 1.8672 -0.885 -0.213 0.415 69 69 72 0 0
0.5485 3.5052 1.8664 -0.888 0.411 -0.207 53 53 57 0 0
1.1655 2.3939 1.9791 -0.344 -0.698 -0.628 175 174 177 0 0
1.1760 2.4283 1.9786 -0.883 0.437 0.173 76 76 77 0 0
0.5393 3.4699 1.8813 -0.648 -0.284 0.707 64 64 67 0 0
0.5491 3.5067 1.8806 -0.925 0.365 0.103 60 59 64 0 0
0.5431 3.5511 1.8782 -0.918 -0.241 -0.316 51 51 55 0 0
0.5398 3.5652 1.8774 -0.890 -0.371 -0.265 54 55 58 0 0
0.5427 3.5827 1.8769 -0.680 -0.731 0.063 52 53 56 0 0
0.4404 3.1265 1.9010 -0.721 0.060 -0.690 33 34 38 0 0
0.4443 3.1589 1.9001 -0.827 0.071 -0.557 43 44 48 0 0
0.5560 3.5115 1.8952 -0.610 0.449 -0.652 59 59 63 0 0
0.4248 3.1048 1.9144 -0.953 0.304 0.003 23 24 26 0 0
0.4260 3.1206 1.9138 -0.972 0.162 -0.167 21 22 26 0 0
0.8182 2.5548 1.9852 -0.415 -0.771 -0.483 51 50 55 0 0
0.8029 2.5638 1.9835 -0.420 -0.900 -0.120 41 40 45 0 0
0.7578 2.5173 1.9952 -0.119 -0.959 -0.255 60 61 63 0 0
1.1669 2.5125 2.1200 -0.631 0.775 0.025 51 52 56 0 0
1.0557 2.5477 2.1076 -0.173 -0.528 0.831 62 62 64 0 0
0.9415 2.5649 2.0955 -0.136 -0.971 0.197 52 52 54 0 0
0.7614 2.5846 2.0768 -0.572 -0.816 0.083 58 58 60 0 0
0.9393 2.5662 2.1238 -0.218 -0.851 0.477 56 56 58 0 0
0.8956 2.5643 2.1193 -0.166 -0.928 0.333 54 54 56 0 0
1.2883 2.4670 2.1779 -0.092 -0.972 -0.218 77 77 79 0 0
0.7073 2.6257 2.1117 -0.798 -0.376 -0.471 61 59 64 0 0
1.2642 2.4594 2.1904 -0.049 -0.972 -0.230 75 75 77 0 0
0.7052 2.6259 2.1255 -0.660 -0.743 -0.113 62 61 65 0 0
0.6663 2.7007 2.1327 -0.680 -0.195 -0.707 27 27 29 0 0
0.3661 3.0154 2.0901 -0.553 0.777 0.301 35 36 38 0 0
0.6581 2.6983 2.1458 -0.709 -0.417 -0.569 29 29 31 0 0
0.3801 2.9793 2.1201 -0.184 -0.530 -0.828 13 14 18 0 0
0.8263 3.7401 2.1454 -0.877 -0.413 0.246 58 59 63 0 0
0.8299 3.7587 2.1453 -0.869 0.326 -0.373 52 53 57 0 0
0.7923 3.9378 2.1354 -0.059 -0.993 -0.098 94 96 93 0 0
0.7603 3.9364 2.1319 -0.392 -0.839 -0.378 133 133 131 0 0
0.6556 2.6844 2.1738 -0.947 -0.121 -0.299 48 48 52 0 0
0.6407 2.6931 2.1719 -0.645 -0.750 -0.144 41 40 44 0 0
0.6356 2.7059 2.1709 -0.479 -0.768 -0.426 35 34 38 0 0
0.8471 3.7526 2.1622 -0.024 -0.752 0.658 60 61 64 0 0
0.9322 3.8660 2.1682 0.146 -0.899 0.414 46 47 51 0 0
0.6345 2.7065 2.1846 -0.574 -0.781 -0.246 44 43 48 0 0
0.5728 2.7102 2.1775 -0.239 -0.895 0.377 36 36 40 0 0
0.8109 3.7839 2.1719 -0.663 0.359 -0.657 49 50 53 0 0
0.7400 3.9439 2.1590 -0.158 -0.987 0.037 159 160 157 0 0
1.2307 2.4691 2.2744 -0.959 0.205 -0.194 45 44 49 0 0
0.6731 3.8407 2.1691 -0.810 0.325 -0.488 63 67 69 0 0
0.6368 2.6946 2.2130 -0.881 -0.425 -0.207 54 53 58 0 0
0.5079 2.8629 2.1930 -0.801 0.238 -0.550 46 45 51 0 0
0.4946 2.8719 2.1912 -0.686 -0.715 0.135 46 45 51 0 0
0.6408 3.8401 2.1800 -0.778 0.528 -0.339 71 75 77 0 0
0.6675 3.8718 2.1822 -0.759 0.543 -0.359 81 82 81 0 0
0.6281 2.7218 2.2251 -0.956 -0.291 -0.042 52 51 56 0 0
0.5485 3.6919 2.1878 -0.158 -0.694 -0.703 50 51 54 0 0
0.6261 2.7221 2.2387 -0.978 -0.199 -0.065 44 43 48 0 0
0.5932 2.8580 2.2309 -0.130 -0.957 0.259 47 48 52 0 0
0.5444 2.8664 2.2249 -0.459 -0.589 0.665 46 47 53 0 0
0.4723 2.8938 2.2154 -0.836 0.285 0.469 47 48 52 0 0
0.6038 3.8216 2.2052 -0.850 0.502 -0.160 66 66 68 0 0
0.7200 3.9541 2.2154 -0.999 0.001 -0.038 166 168 166 0 0
0.6403 2.6992 2.2549 -0.790 -0.552 0.267 42 41 46 0 0
0.6303 2.7099 2.2534 -0.800 -0.563 0.208 37 36 41 0 0
0.5807 2.8686 2.2430 -0.485 -0.511 0.709 47 48 53 0 0
0.7336 3.9465 2.2320 -0.401 -0.916 -0.005 105 107 103 0 0
1.2013 2.4792 2.3439 -0.627 0.686 0.369 44 44 48 0 0
0.6308 2.7112 2.2673 -0.855 -0.504 0.120 38 37 42 0 0
0.4891 2.8887 2.2451 -0.483 -0.852 0.203 33 34 38 0 0
0.4341 2.9383 2.2370 -0.743 -0.392 0.543 44 44 47 0 0
0.5162 3.7419 2.2255 -0.712 0.682 0.165 66 66 67 0 0
0.7338 3.9312 2.2473 -0.642 -0.766 -0.041 83 84 84 0 0
0.7323 3.9470 2.2466 -0.401 -0.916 -0.005 111 113 108 0 0
0.6703 2.7139 2.2861 -0.436 -0.432 0.789 40 39 44 0 0
0.6154 2.7356 2.2787 -0.595 0.694 -0.406 34 34 38 0 0
0.4400 2.9421 2.2514 -0.762 -0.554 0.336 25 24 29 0 0
0.5507 3.4742 2.2512 -0.239 0.351 -0.905 27 28 33 0 0
0.7275 3.9121 2.2617 -0.829 -0.543 -0.134 80 80 82 0 0
0.6250 2.8008 2.2921 0.079 -0.981 0.177 34 33 37 0 0
0.5559 2.8607 2.2818 -0.589 -0.296 -0.752 19 20 25 0 0
0.4738 2.8988 2.2705 -0.377 -0.888 -0.265 20 19 26 0 0
0.4003 3.3807 2.2488 -0.739 0.654 -0.160 29 30 34 0 0
0.5565 3.7508 2.2590 -0.621 0.427 -0.657 72 72 72 0 0
0.7214 3.9432 2.2749 -0.965 -0.260 0.030 129 130 126 0 0
0.7130 3.9550 2.2736 -0.872 -0.488 -0.029 183 183 181 0 0
0.5412 2.8703 2.2936 -0.670 -0.504 -0.545 31 32 37 0 0
0.4345 2.9417 2.2781 -0.378 -0.901 0.213 23 24 29 0 0
0.4068 2.9887 2.2734 -0.726 -0.338 0.599 21 22 27 0 0
0.7215 3.9445 2.2897 -0.965 -0.260 0.030 163 163 159 0 0
1.1867 2.3859 2.4028 0.113 -0.984 -0.141 71 72 77 0 0
0.5396 2.8556 2.3076 -0.569 -0.366 -0.736 39 40 45 0 0
0.4717 2.9000 2.2977 -0.534 -0.845 -0.033 31 32 36 0 0
0.4001 2.9567 2.2870 -0.536 -0.777 0.330 28 29 33 0 0
0.4111 3.2497 2.2813 -0.623 0.234 -0.746 25 25 32 0 0
0.6740 3.8688 2.3001 -0.825 0.529 -0.199 96 97 93 0 0
0.7287 3.9332 2.3056 -0.843 -0.504 -0.188 157 157 155 0 0
0.7183 3.9439 2.3040 -0.946 -0.314 -0.086 193 193 191 0 0
0.5151 2.8608 2.3181 -0.639 -0.056 -0.767 27 28 33 0 0
0.7162 3.8952 2.3344 -0.233 -0.882 -0.409 87 87 87 0 0
0.7060 3.9226 2.3324 -0.184 -0.686 -0.704 183 183 181 0 0
0.4547 2.8954 2.3368 -0.462 0.033 -0.886 27 27 34 0 0
0.4429 3.0402 2.3319 -0.844 -0.215 0.492 33 34 40 0 0
0.3635 2.9290 2.3374 -0.174 -0.854 0.490 28 29 34 0 0
0.4090 3.0553 2.3408 -0.834 -0.182 0.521 32 33 38 0 0
0.5026 3.3629 2.3467 -0.636 0.756 0.157 41 42 46 0 0
1.2470 2.4146 2.5126 -0.342 -0.936 0.086 49 49 55 0 0
1.2322 2.4248 2.5103 -0.896 0.405 -0.183 46 43 51 0 0
1.3258 2.3670 2.5542 -0.602 0.733 -0.319 203 203 205 0 0
0.9275 2.5649 2.5790 -0.071 -0.753 -0.654 46 45 51 0 0
0.7275 3.8843 2.5279 0.023 -0.935 0.355 120 121 118 0 0
0.3583 3.1961 2.5098 0.157 -0.713 -0.683 25 26 29 0 0
1.1165 2.5022 2.6525 0.149 -0.985 -0.090 24 24 26 0 0
0.7133 3.8646 2.5850 -0.943 -0.028 -0.331 80 82 81 0 0
0.4999 2.7104 2.5800 -0.050 -0.884 0.465 48 47 52 0 0
0.4641 3.3456 2.5663 -0.618 0.772 -0.148 22 23 25 0 0
0.7139 3.7506 2.6013 -0.637 0.753 0.166 38 37 42 0 0
0.7018 3.8772 2.6124 -0.788 -0.522 -0.326 115 116 115 0 0
0.6867 3.8852 2.6099 -0.563 -0.801 -0.201 175 175 173 0 0
0.9598 2.5391 2.6846 -0.033 -0.683 0.730 49 50 54 0 0
0.3880 2.7669 2.5885 -0.942 -0.309 -0.129 23 24 26 0 0
0.6951 3.8427 2.6412 -0.992 -0.084 -0.098 86 86 88 0 0
0.7016 3.8629 2.6420 -0.960 -0.279 -0.019 101 102 104 0 0
0.6977 3.8773 2.6412 -0.838 -0.544 0.053 134 134 134 0 0
0.4687 2.8953 2.6416 -0.298 -0.864 0.405 14 15 17 0 0
0.4479 2.9008 2.6381 -0.298 -0.864 0.405 11 12 14 0 0
0.5891 3.7389 2.6827 -0.704 -0.150 -0.695 80 80 82 0 0
0.6596 3.8275 2.6940 -0.684 0.585 0.435 108 109 107 0 0
0.7719 3.9579 2.7122 -0.189 -0.414 0.891 191 191 191 0 0
1.4057 2.5263 2.8628 0.134 -0.980 -0.150 82 80 81 0 0
1.3436 2.5196 2.8521 0.124 -0.974 -0.189 82 80 81 0 0
0.4643 3.3737 2.7207 -0.735 0.665 -0.132 17 18 20 0 0
0.3230 3.2100 2.7103 -0.466 0.564 0.681 15 14 19 0 0
