ply
format ascii 1.0
element vertex 879
property float x
property float y
property float z
property float nx
property float ny
property float nz
property uchar diffuse_red
property uchar diffuse_green
property uchar diffuse_blue
property uchar class
property uchar detection
end_header
0.4335 2.2718 0.6596 -0.474 -0.879 0.051 24 24 26 0 0
0.4518 2.3617 0.6537 -0.779 -0.594 0.201 35 35 37 0 0
0.4441 2.3720 0.6541 -0.779 -0.594 0.201 37 38 40 0 0
0.4344 2.2720 0.6716 -0.474 -0.879 0.051 27 27 30 0 0
0.4513 2.3599 0.6661 -0.506 -0.723 -0.471 37 37 39 0 0
0.4430 2.3694 0.6666 -0.621 -0.571 -0.537 38 39 41 0 0
0.4339 2.3776 0.6672 -0.603 -0.537 -0.591 39 40 42 0 0
0.5497 2.8648 0.6343 -0.851 0.284 0.442 62 62 64 0 0
0.9437 2.0523 0.6384 -0.196 -0.865 -0.462 43 43 45 0 0
0.4293 2.2637 0.6845 -0.517 -0.855 -0.030 29 29 33 0 0
0.4201 2.3566 0.6817 -0.906 -0.311 -0.288 52 53 55 0 0
0.5686 2.9637 0.6411 -0.916 -0.003 0.400 52 52 54 0 0
0.6110 3.0776 0.6320 -0.957 -0.225 -0.183 49 49 51 0 0
0.9384 2.0446 0.6516 -0.326 -0.892 -0.314 42 42 44 0 0
0.7447 2.0773 0.6707 -0.935 -0.174 -0.310 55 55 55 0 0
0.6752 2.1067 0.6769 -0.062 -0.632 -0.773 36 36 38 0 0
0.4296 2.2631 0.6966 -0.517 -0.855 -0.030 31 31 33 0 0
0.5481 2.8836 0.6596 -0.765 0.287 0.576 54 54 56 0 0
0.9335 2.0377 0.6647 -0.738 -0.623 0.259 42 42 44 0 0
0.5918 2.9257 0.6663 -0.705 0.326 0.629 54 54 56 0 0
0.5786 2.9531 0.6667 -0.745 0.027 0.667 50 50 52 0 0
0.6536 2.0763 0.7045 -0.228 -0.512 -0.828 34 34 36 0 0
0.6139 3.1031 0.6705 -0.913 0.034 0.407 42 42 44 0 0
0.9293 2.0305 0.6901 -0.760 -0.024 -0.649 41 41 43 0 0
0.6559 2.0384 0.7177 -0.982 -0.149 -0.119 50 49 52 0 0
0.9181 1.9961 0.7047 -0.675 -0.181 -0.716 42 42 44 0 0
0.8828 1.9722 0.7091 0.319 -0.801 -0.507 40 40 42 0 0
0.6514 2.0316 0.7304 -0.819 -0.467 -0.333 50 48 51 0 0
0.6369 2.0324 0.7319 -0.531 -0.687 -0.496 40 38 43 0 0
0.6486 2.0878 0.7288 -0.935 0.354 -0.007 29 30 34 0 0
0.6219 3.0888 0.6968 -0.944 -0.101 0.315 39 39 41 0 0
0.8663 1.9509 0.7236 0.339 -0.700 -0.629 43 43 45 0 0
0.7646 2.0186 0.7316 -0.388 -0.231 -0.892 73 73 73 0 0
0.6741 2.0009 0.7412 -0.842 -0.384 -0.379 73 72 70 0 0
0.6626 2.0056 0.7422 -0.981 -0.135 -0.142 70 69 69 0 0
0.8503 1.9302 0.7380 0.333 -0.688 -0.645 51 51 53 0 0
0.7529 1.9636 0.7466 -0.661 0.017 -0.750 73 73 75 0 0
0.6619 2.0433 0.7531 -0.949 0.257 -0.182 49 47 51 0 0
0.6462 2.1026 0.7527 -0.888 0.207 -0.410 24 25 29 0 0
0.5237 2.2851 0.7590 -0.818 0.170 0.549 21 22 20 0 0
0.5295 2.3354 0.7568 -0.788 0.134 0.601 31 31 34 0 0
0.8302 1.9044 0.7529 0.270 -0.610 -0.745 54 54 56 0 0
0.6124 1.9973 0.7714 -0.615 -0.711 0.339 41 40 45 0 0
0.6278 2.0572 0.7680 -0.940 0.245 -0.237 28 29 32 0 0
0.5260 2.2662 0.7715 -0.843 0.282 0.459 18 19 21 0 0
0.6154 2.0003 0.7829 -0.615 -0.711 0.339 47 46 51 0 0
0.5349 2.2777 0.7825 -0.851 0.295 0.435 20 21 23 0 0
0.5408 2.3070 0.7811 -0.854 0.278 0.439 24 25 27 0 0
0.6252 1.9923 0.7942 -0.751 -0.661 -0.006 65 63 67 0 0
0.6177 2.0022 0.7946 -0.834 -0.551 -0.041 55 53 58 0 0
0.5510 2.3202 0.7920 -0.848 0.295 0.440 25 26 28 0 0
0.4987 2.3737 0.7955 -0.836 0.065 0.545 46 47 52 0 0
0.6718 1.9732 0.8022 -0.700 0.078 0.709 92 90 92 0 0
0.6331 1.9819 0.8057 -0.305 -0.947 0.103 75 73 76 0 0
0.6191 1.9834 0.8070 -0.521 -0.850 -0.073 66 64 68 0 0
0.6085 1.9892 0.8078 -0.451 -0.893 -0.003 58 56 60 0 0
0.4983 2.3508 0.8084 -0.932 0.004 0.363 45 46 49 0 0
0.6214 1.9657 0.8192 -0.048 -0.997 -0.063 69 67 70 0 0
0.6185 1.9815 0.8190 -0.497 -0.823 -0.274 65 63 66 0 0
0.6080 1.9876 0.8198 -0.497 -0.823 -0.274 60 58 61 0 0
0.5101 2.3240 0.8203 -0.915 -0.157 0.371 38 38 40 0 0
0.5034 2.3569 0.8200 -0.947 -0.101 0.304 45 45 47 0 0
0.7615 1.8529 0.8209 -0.987 0.109 -0.114 51 52 54 0 0
0.9947 1.9251 0.8097 -0.952 0.268 -0.145 92 92 94 0 0
0.7412 1.8647 0.8344 -0.532 -0.290 -0.796 51 52 54 0 0
0.8250 3.8991 0.7789 -0.901 0.433 -0.033 159 159 156 0 0
0.8853 1.8312 0.8340 0.115 -0.507 -0.854 72 72 74 0 0
0.7539 1.8415 0.8457 -0.687 -0.719 -0.111 50 51 54 0 0
0.7469 1.8518 0.8461 -0.440 -0.756 -0.485 51 52 54 0 0
0.9742 1.8796 0.8371 -0.914 0.050 -0.403 89 89 91 0 0
0.8837 1.8095 0.8466 0.115 -0.507 -0.854 72 72 74 0 0
0.7289 1.8085 0.8724 0.280 -0.843 -0.459 54 54 58 0 0
0.6426 3.0585 0.8553 -0.824 -0.097 0.559 38 38 40 0 0
0.9146 1.8067 0.8680 0.000 -0.500 -0.866 70 69 73 0 0
0.5604 2.1791 0.8921 0.515 -0.667 -0.539 18 18 20 0 0
0.9121 1.7841 0.8807 0.007 -0.499 -0.867 66 64 69 0 0
0.6889 1.9286 0.8975 -0.336 -0.779 -0.529 73 71 74 0 0
0.6738 1.9288 0.8988 -0.562 -0.644 0.518 70 68 71 0 0
0.6764 1.9516 0.8981 -0.635 -0.541 0.551 64 64 66 0 0
0.6841 3.0955 0.8777 -0.694 -0.342 -0.634 38 37 42 0 0
0.7501 3.5015 0.8649 -0.993 -0.098 0.060 32 31 36 0 0
0.7550 3.5356 0.8639 -0.985 0.149 0.086 31 30 35 0 0
0.6537 3.0721 0.8940 -0.989 0.097 0.115 40 39 42 0 0
0.7501 3.5004 0.8789 -0.990 -0.108 0.091 32 31 36 0 0
0.7564 3.5366 0.8778 -0.985 0.149 0.086 31 30 35 0 0
0.7166 3.4989 0.8818 -0.802 -0.129 0.584 30 29 34 0 0
0.9664 1.7714 0.9003 -0.865 0.120 0.487 83 81 85 0 0
0.6598 3.0561 0.9071 -0.998 -0.067 -0.002 39 38 43 0 0
0.7513 3.5011 0.8928 -0.990 -0.108 0.091 31 30 35 0 0
0.7578 3.5376 0.8917 -0.985 0.149 0.086 31 30 35 0 0
0.7285 3.5169 0.8945 -0.918 0.228 0.325 31 30 35 0 0
0.7529 3.5025 0.9066 -0.985 -0.112 0.132 31 31 34 0 0
0.7742 3.6157 0.9033 -0.866 0.207 0.456 33 32 36 0 0
0.6872 1.9809 0.9448 -0.921 0.332 -0.203 52 52 54 0 0
0.5345 2.3470 0.9528 -0.901 -0.226 0.370 34 33 38 0 0
0.7067 3.3504 0.9263 -0.965 0.253 -0.073 45 46 48 0 0
0.7549 3.5044 0.9204 -0.942 -0.203 0.269 31 31 33 0 0
0.7599 3.5386 0.9196 -0.992 0.099 0.080 31 31 33 0 0
0.6686 1.8402 0.9599 -0.434 0.002 -0.901 87 86 84 0 0
0.6771 1.9865 0.9576 -0.696 -0.479 0.535 55 55 57 0 0
0.5291 2.3384 0.9657 0.276 -0.635 0.721 34 33 38 0 0
0.5038 2.3237 0.9679 0.307 -0.632 0.711 35 34 39 0 0
0.6708 3.0452 0.9463 -0.966 -0.185 0.181 41 42 46 0 0
0.6641 3.1079 0.9462 -0.982 -0.093 0.163 65 66 68 0 0
0.7577 3.5077 0.9341 -0.901 -0.345 0.262 31 31 33 0 0
0.7805 3.6235 0.9310 -0.927 0.325 0.186 33 32 36 0 0
1.0924 1.7827 0.9384 0.146 -0.971 -0.189 169 169 171 0 0
0.7170 1.7113 0.9692 0.348 -0.937 0.025 52 50 53 0 0
0.6746 1.6965 0.9727 -0.043 -0.963 -0.268 62 60 63 0 0
0.6404 1.8037 0.9744 -0.550 0.041 -0.834 83 82 81 0 0
0.6865 1.9584 0.9692 -0.955 -0.238 0.179 56 55 58 0 0
0.6845 1.9950 0.9690 0.181 -0.546 0.818 63 62 64 0 0
0.6312 2.0047 0.9731 -0.460 -0.644 -0.612 55 54 55 0 0
0.6696 3.0422 0.9598 -0.956 -0.198 0.216 46 47 50 0 0
0.6653 3.0843 0.9597 -0.986 -0.164 0.042 67 68 71 0 0
0.7607 3.5113 0.9479 -0.879 -0.443 0.173 31 31 34 0 0
0.7858 3.6308 0.9447 -0.927 0.325 0.186 33 33 37 0 0
0.7799 3.6480 0.9450 -0.954 0.300 -0.020 35 35 39 0 0
1.0713 1.7761 0.9524 0.184 -0.968 -0.173 168 168 170 0 0
0.5980 2.3906 0.9844 -0.712 -0.277 0.646 31 30 35 0 0
0.5603 2.3804 0.9875 0.074 -0.629 0.774 34 33 38 0 0
0.6744 3.0243 0.9729 -0.975 -0.067 0.211 47 46 51 0 0
0.6729 3.0461 0.9728 -0.975 -0.067 0.211 55 55 57 0 0
0.7510 3.4945 0.9628 -0.994 -0.101 0.046 31 30 35 0 0
1.0832 1.7702 0.9637 0.032 -0.998 0.057 169 169 171 0 0
1.0666 1.7697 0.9650 0.032 -0.998 0.057 165 165 167 0 0
1.0485 1.7675 0.9664 0.101 -0.994 0.031 109 109 111 0 0
0.8334 1.6831 0.9838 -0.693 -0.296 0.658 54 55 56 0 0
0.6172 1.7726 0.9999 -0.882 -0.151 -0.447 70 68 71 0 0
0.6643 2.0260 0.9944 -0.047 -0.337 -0.940 57 55 58 0 0
0.5620 2.3603 0.9999 0.363 -0.615 0.700 32 31 36 0 0
0.5422 2.3537 1.0015 -0.945 -0.255 0.207 33 32 37 0 0
0.5688 2.4560 0.9987 -0.045 -0.392 0.919 35 34 39 0 0
0.6908 3.0000 0.9851 -0.960 -0.232 -0.157 42 43 46 0 0
0.6770 3.0272 0.9860 -0.975 -0.067 0.211 54 54 58 0 0
0.6700 3.0648 0.9863 -0.861 -0.507 -0.034 60 60 62 0 0
0.7049 3.3429 0.9815 -0.952 0.257 0.168 45 46 50 0 0
0.7134 3.4076 0.9803 -0.956 0.133 0.262 33 34 38 0 0
0.7911 3.6905 0.9722 -0.800 -0.598 -0.055 35 36 38 0 0
0.5849 2.3700 1.0105 0.404 -0.694 0.596 31 30 35 0 0
0.5669 2.3661 1.0119 0.386 -0.674 0.630 31 30 35 0 0
0.5765 2.4011 1.0109 -0.875 0.452 -0.173 33 32 37 0 0
0.5869 2.4807 1.0096 -0.121 -0.337 0.934 35 34 39 0 0
0.6777 3.0512 0.9991 -0.909 -0.415 0.040 60 61 63 0 0
0.7086 3.3475 0.9949 -0.934 0.217 0.284 40 41 45 0 0
0.7160 3.4104 0.9940 -0.938 0.127 0.322 32 33 37 0 0
0.6180 1.7528 1.0234 -0.957 -0.270 0.104 41 41 46 0 0
0.5661 2.3214 1.0245 -0.886 0.263 -0.382 30 29 34 0 0
0.6019 2.4143 1.0214 -0.893 0.430 -0.131 31 30 35 0 0
0.6784 3.0511 1.0124 -0.909 -0.415 0.040 61 62 65 0 0
0.7015 3.3097 1.0094 -0.930 0.256 0.265 44 44 48 0 0
0.8729 1.6900 1.0163 -0.470 -0.881 -0.061 34 34 36 0 0
0.8618 1.6953 1.0171 0.459 -0.669 -0.585 30 30 32 0 0
0.6433 1.7087 1.0334 -0.476 -0.453 0.754 30 30 32 0 0
0.5848 2.3465 1.0354 -0.919 0.358 -0.164 31 30 35 0 0
0.5829 2.3866 1.0354 -0.877 0.355 -0.323 30 29 34 0 0
0.5534 2.3664 1.0377 -0.908 0.364 -0.206 31 30 35 0 0
0.9671 1.7252 1.0212 -0.255 -0.706 -0.661 37 37 42 0 0
0.5721 2.3277 1.0488 -0.926 0.378 -0.003 32 31 36 0 0
0.5799 2.3599 1.0481 -0.926 0.371 -0.071 31 30 35 0 0
0.5852 2.5631 1.0472 -0.992 0.074 -0.100 43 42 47 0 0
0.6645 2.8150 1.0408 -0.561 -0.165 -0.811 46 47 51 0 0
0.6595 2.8307 1.0411 -0.572 -0.210 -0.793 51 52 55 0 0
0.6679 2.8900 1.0403 -0.957 0.083 0.279 64 65 67 0 0
0.7254 3.3195 1.0351 -0.999 -0.047 0.001 49 48 53 0 0
0.7868 3.6786 1.0297 -0.848 -0.510 -0.143 36 37 39 0 0
0.9310 1.7191 1.0358 -0.373 -0.626 -0.685 31 31 33 0 0
0.5140 1.9615 1.0658 -0.939 0.224 0.261 39 38 43 0 0
0.5205 1.9899 1.0653 -0.944 0.219 0.246 39 38 43 0 0
0.5763 2.2485 1.0609 -0.953 0.118 -0.279 31 30 35 0 0
0.5617 2.2701 1.0619 -0.910 -0.002 0.414 32 31 36 0 0
0.6494 2.7685 1.0550 -0.765 0.021 -0.643 65 67 70 0 0
0.6488 2.7906 1.0550 -0.813 -0.053 -0.580 68 69 72 0 0
0.6717 2.8710 1.0532 -0.906 -0.005 0.422 74 75 77 0 0
0.7364 3.2349 1.0481 -0.809 0.079 0.582 36 36 40 0 0
0.7262 3.3196 1.0487 -0.858 -0.508 -0.076 48 48 53 0 0
0.7952 3.6910 1.0433 -0.905 -0.422 -0.051 36 37 39 0 0
0.5186 1.9666 1.0773 -0.946 0.255 0.201 38 39 43 0 0
0.5710 2.3030 1.0736 -0.878 -0.380 0.293 32 31 36 0 0
0.5528 2.3198 1.0749 -0.894 0.061 0.444 34 33 38 0 0
0.6521 2.7028 1.0678 -0.657 0.172 0.734 64 66 65 0 0
0.6581 2.7344 1.0673 -0.746 0.093 0.660 65 67 66 0 0
0.7037 3.0608 1.0641 -0.878 0.217 0.426 33 32 37 0 0
0.7049 3.0869 1.0640 -0.909 0.149 0.389 35 34 39 0 0
0.7331 3.3038 1.0620 -0.878 -0.451 -0.161 46 47 51 0 0
0.7258 3.3178 1.0625 -0.878 -0.451 -0.161 49 50 54 0 0
0.6794 1.7493 1.0775 -0.268 -0.646 -0.715 18 18 20 0 0
0.5692 1.7240 1.0853 -0.242 -0.966 -0.097 17 15 19 0 0
0.5312 2.0023 1.0883 -0.949 0.263 0.173 39 40 44 0 0
0.5783 2.2284 1.0853 -0.569 -0.773 -0.279 35 34 39 0 0
0.5664 2.2329 1.0861 -0.863 -0.407 -0.299 34 33 38 0 0
0.5634 2.2495 1.0863 -0.966 -0.208 -0.156 34 33 38 0 0
0.5637 2.2709 1.0864 -0.906 -0.424 -0.019 33 32 37 0 0
0.6679 2.7475 1.0796 -0.664 0.071 0.744 66 67 68 0 0
0.6796 2.7875 1.0789 -0.747 0.108 0.656 67 68 69 0 0
0.7387 3.2862 1.0753 -0.825 -0.537 -0.178 40 41 45 0 0
0.7305 3.2986 1.0759 -0.825 -0.537 -0.178 46 47 51 0 0
0.7222 3.3110 1.0765 -0.825 -0.537 -0.178 47 48 52 0 0
0.6717 1.7389 1.0898 -0.268 -0.646 -0.715 18 18 20 0 0
0.6488 1.7292 1.0914 -0.474 -0.700 -0.534 18 18 20 0 0
0.5722 2.2190 1.0979 -0.243 -0.910 0.337 36 35 40 0 0
0.5631 2.2273 1.0986 -0.865 -0.501 0.038 36 35 40 0 0
0.5693 2.2566 1.0982 -0.983 -0.136 0.119 34 33 38 0 0
0.6644 2.6958 1.0927 -0.757 0.151 0.636 49 48 52 0 0
0.6799 2.7410 1.0918 -0.535 0.076 0.842 40 39 43 0 0
0.7210 3.0364 1.0897 -0.666 0.124 0.736 26 27 29 0 0
0.7287 3.0722 1.0892 -0.682 0.166 0.712 29 29 32 0 0
0.7282 3.2939 1.0898 -0.760 -0.594 -0.265 47 48 52 0 0
0.6919 1.7254 1.1001 -0.157 -0.776 -0.611 22 22 24 0 0
0.6641 1.7286 1.1020 -0.268 -0.646 -0.715 21 21 23 0 0
0.5765 2.2239 1.1099 -0.492 -0.765 0.416 37 37 41 0 0
0.6313 2.5136 1.1072 -0.582 0.203 0.787 65 67 68 0 0
0.6420 2.5507 1.1066 -0.580 0.172 0.796 53 54 55 0 0
0.6527 2.5881 1.1061 -0.610 0.157 0.777 37 37 39 0 0
0.6835 2.7224 1.1045 -0.870 0.145 0.470 17 16 22 0 0
0.7068 2.9188 1.1036 -0.794 0.166 0.585 45 46 49 0 0
0.7578 3.2883 1.1015 -0.301 -0.820 -0.486 38 38 42 0 0
0.7433 3.2911 1.1025 -0.204 -0.842 -0.499 41 41 46 0 0
0.6732 1.7201 1.1131 0.087 -0.907 -0.411 24 24 26 0 0
0.6460 1.7051 1.1149 -0.235 -0.963 0.133 22 22 24 0 0
0.6387 1.7147 1.1154 -0.763 -0.600 -0.243 25 25 27 0 0
0.6270 1.7188 1.1162 -0.916 -0.372 -0.148 30 30 32 0 0
0.6090 1.7150 1.1174 -0.544 -0.783 -0.301 38 38 40 0 0
0.5562 1.8754 1.1217 -0.880 0.130 0.456 15 15 17 0 0
0.6625 2.5568 1.1180 -0.617 0.196 0.763 22 22 24 0 0
0.6805 2.6267 1.1172 -0.696 0.170 0.698 20 20 22 0 0
0.6799 2.6483 1.1173 -0.766 0.093 0.636 24 24 26 0 0
0.6918 2.6880 1.1167 -0.798 0.152 0.583 17 17 20 0 0
0.7230 3.3087 1.1177 -0.971 -0.128 -0.202 42 41 46 0 0
0.7891 3.5949 1.1147 -0.189 -0.523 0.831 38 37 42 0 0
0.8756 3.9540 1.1107 -0.896 0.443 0.015 111 110 108 0 0
0.6477 1.7063 1.1264 -0.235 -0.963 0.133 26 26 28 0 0
0.6375 1.7122 1.1271 -0.454 -0.888 0.071 34 34 36 0 0
0.6271 1.7179 1.1279 -0.653 -0.748 -0.118 38 38 40 0 0
0.6159 1.7226 1.1286 -0.824 -0.549 0.140 38 38 40 0 0
0.7036 2.6813 1.1288 -0.544 0.074 0.836 20 20 22 0 0
0.7217 3.3055 1.1315 -0.984 -0.151 -0.091 41 40 45 0 0
0.8772 3.9553 1.1253 -0.896 0.441 0.056 108 107 105 0 0
0.7350 1.7379 1.1327 -0.684 -0.469 0.558 19 18 22 0 0
0.6643 1.7072 1.1370 -0.320 -0.891 0.321 31 31 33 0 0
0.6516 1.7102 1.1379 -0.242 -0.893 0.379 32 32 34 0 0
0.6355 1.7088 1.1389 -0.285 -0.752 -0.594 38 38 40 0 0
0.6208 1.7091 1.1399 -0.719 -0.587 -0.372 41 41 43 0 0
0.6162 1.7220 1.1403 -0.893 -0.448 0.036 39 39 41 0 0
0.6017 1.7413 1.1414 -0.679 -0.634 -0.369 33 33 35 0 0
0.5388 2.0073 1.1475 -0.538 -0.050 0.841 43 42 47 0 0
0.5998 2.3156 1.1458 -0.619 0.293 0.729 72 72 76 0 0
0.6259 2.3731 1.1445 -0.628 0.293 0.721 64 65 67 0 0
0.7194 3.2755 1.1452 -0.584 -0.709 -0.395 49 48 53 0 0
0.7163 3.3466 1.1459 -0.999 0.030 -0.040 35 35 39 0 0
0.8157 3.8248 1.1431 -0.897 0.435 0.081 97 96 95 0 0
0.8813 3.9607 1.1398 -0.897 0.435 0.081 110 109 107 0 0
0.7441 2.8987 1.1540 -0.770 0.110 0.628 14 14 16 0 0
0.7557 2.9393 1.1537 -0.702 0.153 0.695 16 16 18 0 0
0.7693 2.9831 1.1532 -0.646 0.105 0.756 16 16 18 0 0
0.8059 3.3075 1.1537 0.278 -0.756 -0.592 37 36 41 0 0
0.7793 3.2918 1.1552 0.373 -0.779 -0.504 38 37 42 0 0
0.7167 3.2700 1.1590 -0.584 -0.709 -0.395 45 44 49 0 0
0.8300 3.6835 1.1554 -0.096 -0.985 0.145 40 39 44 0 0
0.8010 3.6907 1.1573 -0.963 -0.261 0.066 38 37 42 0 0
0.7598 1.6369 1.1537 0.155 -0.843 0.516 22 22 24 0 0
0.6288 1.7358 1.1630 -0.776 -0.281 0.565 30 28 31 0 0
0.6217 1.7457 1.1635 -0.281 -0.739 0.612 27 25 28 0 0
0.5852 1.7750 1.1661 -0.753 -0.653 -0.078 18 18 20 0 0
0.5774 1.7839 1.1667 -0.753 -0.653 -0.078 21 21 23 0 0
0.6126 2.2682 1.1693 -0.985 -0.054 0.166 56 56 60 0 0
0.6116 2.2877 1.1696 -0.985 -0.054 0.166 73 73 76 0 0
0.6057 2.3006 1.1701 -0.748 -0.407 -0.524 38 38 40 0 0
0.7843 2.9566 1.1654 -0.538 0.120 0.834 15 15 17 0 0
0.7972 2.9993 1.1650 -0.553 0.159 0.818 17 17 19 0 0
0.7996 3.0508 1.1653 -0.761 0.279 0.585 18 18 20 0 0
0.7973 3.2932 1.1679 0.278 -0.756 -0.592 37 36 41 0 0
0.7718 3.2790 1.1694 0.373 -0.779 -0.504 38 37 42 0 0
0.8793 1.6855 1.1586 0.370 -0.923 0.107 20 20 22 0 0
0.6327 1.7397 1.1745 -0.921 -0.257 0.294 20 18 21 0 0
0.6127 1.7521 1.1758 0.035 -0.918 -0.396 19 17 20 0 0
0.6045 1.7606 1.1765 -0.330 -0.940 -0.091 17 16 19 0 0
0.5953 1.7679 1.1771 -0.663 -0.655 0.362 17 17 19 0 0
0.5780 1.7837 1.1784 -0.880 -0.466 0.090 26 26 28 0 0
0.5677 2.0830 1.1823 -0.870 0.218 0.443 44 45 47 0 0
0.6165 2.2725 1.1815 -0.945 -0.277 -0.174 68 67 72 0 0
0.6066 2.2798 1.1821 -0.778 -0.319 -0.541 38 37 41 0 0
0.7872 2.9126 1.1781 -0.358 -0.140 0.923 18 18 20 0 0
0.8331 3.0752 1.1771 -0.579 0.140 0.803 19 19 21 0 0
0.8247 3.2837 1.1799 0.503 -0.800 -0.326 39 38 43 0 0
0.7661 3.2690 1.1834 0.424 -0.800 -0.424 39 38 43 0 0
0.8835 1.6895 1.1703 0.301 -0.948 0.100 20 20 22 0 0
0.6214 1.7433 1.1869 -0.567 -0.785 -0.249 25 24 26 0 0
0.6121 1.7504 1.1876 -0.609 -0.790 -0.071 32 31 34 0 0
0.6042 1.7593 1.1882 -0.758 -0.651 -0.042 32 31 34 0 0
0.5956 1.7673 1.1888 -0.833 -0.496 0.245 28 27 30 0 0
0.5873 1.7757 1.1894 -0.812 -0.540 0.222 30 29 31 0 0
0.5479 2.0154 1.1948 -0.497 0.013 0.868 45 44 49 0 0
0.6463 2.2913 1.1922 0.336 -0.566 -0.753 62 62 65 0 0
0.6143 2.2685 1.1939 -0.372 -0.484 -0.792 40 40 43 0 0
0.8190 2.9579 1.1900 -0.375 0.010 0.927 20 20 22 0 0
0.8575 3.2824 1.1917 -0.698 -0.326 0.637 36 36 40 0 0
0.8011 3.2716 1.1950 0.476 -0.729 -0.492 38 37 42 0 0
0.7122 3.2345 1.2000 0.064 -0.889 -0.453 49 48 53 0 0
0.8882 1.6940 1.1820 0.348 -0.929 0.127 21 21 23 0 0
0.6248 2.2608 1.2055 0.336 -0.566 -0.753 47 47 49 0 0
0.9033 3.3003 1.2031 -0.827 0.161 0.538 32 32 36 0 0
0.8639 3.2908 1.2054 -0.762 -0.319 0.563 36 37 41 0 0
0.7084 3.2274 1.2138 -0.058 -0.831 -0.553 48 47 52 0 0
0.8881 1.6929 1.1939 0.267 -0.963 0.043 23 23 25 0 0
0.6041 1.7572 1.2116 -0.929 -0.369 -0.002 57 55 58 0 0
0.6011 1.7723 1.2120 -0.892 -0.449 0.049 62 60 62 0 0
0.5826 1.8631 1.2144 -0.728 -0.555 -0.403 14 14 16 0 0
0.5654 1.8794 1.2157 -0.639 -0.318 -0.700 18 18 20 0 0
0.5559 1.8865 1.2163 -0.952 -0.027 -0.305 28 28 30 0 0
0.5807 2.0371 1.2171 -0.577 0.032 0.816 40 39 44 0 0
0.5792 2.0551 1.2175 -0.470 -0.150 0.870 43 42 47 0 0
0.6041 2.2315 1.2187 0.292 -0.588 -0.754 19 19 21 0 0
0.9087 3.2573 1.2161 -0.931 0.344 0.121 24 24 26 0 0
0.8933 3.2840 1.2174 -0.884 -0.060 0.464 32 31 35 0 0
0.7040 3.2194 1.2276 -0.200 -0.796 -0.571 47 46 51 0 0
0.7079 1.7352 1.2169 -0.857 -0.384 -0.344 21 21 23 0 0
0.6745 1.7315 1.2188 0.034 -0.663 -0.748 15 15 17 0 0
0.6197 1.7382 1.2221 -0.732 -0.369 -0.573 52 52 54 0 0
0.5953 1.8209 1.2248 -0.878 -0.158 0.451 23 21 27 0 0
0.5874 1.8490 1.2257 -0.818 -0.576 -0.012 16 14 17 0 0
0.5920 2.0712 1.2291 -0.616 -0.274 0.738 44 43 48 0 0
0.5888 2.0871 1.2295 -0.691 0.057 0.721 47 46 51 0 0
0.6248 2.2172 1.2295 -0.195 -0.599 -0.777 59 59 61 0 0
0.9036 3.2238 1.2298 -0.981 0.194 -0.010 20 20 22 0 0
1.0545 1.7727 1.2098 -0.836 0.084 -0.543 69 67 70 0 0
0.7116 1.7388 1.2286 -0.823 -0.557 0.111 22 22 24 0 0
0.7037 1.7477 1.2292 -0.132 -0.986 0.101 19 19 21 0 0
0.5986 1.8241 1.2365 -0.886 -0.318 0.338 17 17 19 0 0
0.5962 1.8401 1.2369 -0.743 -0.534 0.404 20 20 22 0 0
0.5859 1.8461 1.2376 -0.802 -0.578 0.148 17 17 19 0 0
0.5793 1.8569 1.2381 -0.837 -0.546 -0.041 22 22 24 0 0
0.6134 2.1596 1.2415 -0.886 0.244 0.394 52 52 54 0 0
0.8381 3.6345 1.2545 -0.434 -0.725 0.535 43 42 47 0 0
0.7118 1.7380 1.2404 -0.809 -0.398 0.432 24 24 26 0 0
0.5996 1.8435 1.2486 -0.921 -0.381 0.077 27 27 29 0 0
0.5877 1.8667 1.2497 -0.879 -0.419 0.228 38 38 40 0 0
1.0439 1.7771 1.2349 -0.778 0.274 -0.565 79 75 79 0 0
0.7519 1.7115 1.2495 0.434 -0.743 -0.510 34 34 36 0 0
0.7321 1.7246 1.2508 -0.597 -0.685 0.418 34 34 36 0 0
0.6802 1.7169 1.2535 -0.846 -0.464 -0.261 29 29 31 0 0
0.6552 1.7048 1.2546 -0.307 -0.949 0.064 23 23 25 0 0
0.5713 1.9025 1.2631 -0.324 -0.518 0.792 56 55 60 0 0
0.6290 2.1786 1.2655 -0.913 0.205 0.352 57 57 59 0 0
1.0675 1.8032 1.2464 -0.855 0.457 -0.245 104 102 105 0 0
0.7466 1.7040 1.2614 0.411 -0.903 0.122 38 38 41 0 0
0.7316 1.7044 1.2622 0.202 -0.963 0.181 37 37 40 0 0
0.6769 1.7118 1.2653 -0.763 -0.536 -0.363 33 33 35 0 0
0.6529 1.7010 1.2664 -0.404 -0.900 0.161 29 29 31 0 0
0.5763 1.9275 1.2752 -0.242 -0.443 0.863 49 49 53 0 0
0.5819 1.9545 1.2755 -0.733 0.034 0.679 44 44 48 0 0
0.7419 1.7346 1.2742 -0.766 -0.290 0.574 43 42 47 0 0
0.7372 1.7474 1.2747 -0.926 -0.239 0.291 42 42 44 0 0
0.7205 1.7457 1.2755 -0.655 -0.737 0.165 41 41 43 0 0
0.6821 1.7173 1.2769 -0.402 -0.712 -0.575 40 40 42 0 0
0.6574 1.7055 1.2779 -0.562 -0.737 -0.377 38 38 40 0 0
0.6002 2.0569 1.2888 -0.920 0.354 -0.171 56 57 61 0 0
0.6034 2.1624 1.2910 -0.982 -0.177 -0.066 25 24 28 0 0
0.6037 2.1834 1.2915 -0.981 -0.171 -0.092 8 8 10 0 0
0.8569 3.6595 1.3113 -0.168 -0.971 0.168 48 48 50 0 0
0.6341 2.1618 1.3016 -0.055 -0.746 -0.664 72 73 75 0 0
0.6033 2.1409 1.3027 -0.997 -0.047 0.062 39 39 43 0 0
0.6028 2.1607 1.3032 -0.982 -0.177 -0.066 25 26 29 0 0
0.8544 3.6544 1.3257 -0.409 -0.907 -0.098 48 48 50 0 0
0.5965 1.9509 1.3105 -0.938 -0.318 0.138 42 43 45 0 0
0.6151 2.1353 1.3142 -0.937 -0.325 -0.129 61 61 63 0 0
0.6011 2.1369 1.3149 -0.991 -0.072 -0.111 12 14 17 0 0
0.8949 3.2769 1.3286 -0.963 0.043 0.267 36 37 40 0 0
0.8550 3.6541 1.3400 -0.702 -0.712 0.024 49 49 51 0 0
0.6129 1.9321 1.3212 -0.955 -0.220 0.199 43 43 45 0 0
0.6111 1.9492 1.3217 -0.787 -0.467 0.403 43 44 46 0 0
0.6110 2.0482 1.3243 -0.964 0.123 0.235 63 64 66 0 0
0.6169 2.0759 1.3248 -0.998 -0.061 0.012 68 69 71 0 0
0.6225 2.1036 1.3252 -0.882 -0.439 -0.174 70 71 73 0 0
0.8881 3.2656 1.3426 -0.901 -0.126 0.416 36 37 40 0 0
0.9072 1.7607 1.3143 0.291 -0.526 0.799 73 75 78 0 0
0.6040 2.1184 1.3387 -0.959 0.065 0.274 16 16 18 0 0
0.6999 3.1518 1.3624 -0.788 -0.532 -0.310 48 47 52 0 0
0.9123 1.7845 1.3268 0.305 -0.545 0.781 84 84 88 0 0
0.6318 1.8767 1.3427 -0.947 -0.187 -0.263 38 38 40 0 0
0.6214 1.9216 1.3444 -0.976 -0.211 -0.046 46 46 48 0 0
0.6047 2.0981 1.3503 -0.914 0.039 0.405 20 19 22 0 0
0.6977 3.1473 1.3760 -0.788 -0.532 -0.310 47 46 51 0 0
0.9686 1.8311 1.3377 0.294 -0.562 0.773 65 64 70 0 0
0.8553 1.7906 1.3417 0.063 -0.382 0.922 68 68 72 0 0
0.6478 1.8192 1.3521 -0.663 -0.204 0.721 40 40 42 0 0
0.9009 3.1578 1.3805 -0.961 -0.274 0.044 19 19 21 0 0
0.8364 3.1845 1.3843 -0.948 0.047 -0.316 37 38 41 0 0
0.8517 1.8040 1.3544 0.009 -0.540 0.842 60 61 63 0 0
0.8669 1.8413 1.3548 -0.905 -0.054 0.422 58 59 61 0 0
0.7285 1.9007 1.3629 0.429 -0.895 0.125 40 40 42 0 0
0.8351 3.1813 1.3980 -0.902 0.152 -0.404 36 37 41 0 0
0.8292 3.2218 1.3995 0.231 -0.869 0.437 39 38 43 0 0
0.9976 1.8823 1.3626 0.295 -0.558 0.776 66 65 70 0 0
0.8709 1.8261 1.3663 0.006 -0.577 0.816 57 58 62 0 0
0.8567 1.8279 1.3670 0.060 -0.615 0.786 56 57 62 0 0
0.6579 2.1252 1.3853 -0.486 0.008 0.874 18 18 20 0 0
1.0051 1.9093 1.3755 0.203 -0.624 0.754 69 68 73 0 0
0.8992 1.8592 1.3783 0.122 -0.699 0.705 59 60 65 0 0
0.8856 1.8618 1.3790 -0.075 -0.539 0.839 61 62 67 0 0
0.8717 2.7138 1.4083 -0.806 -0.150 -0.572 10 10 12 0 0
0.6790 2.0703 1.4070 -0.559 -0.012 0.829 32 32 36 0 0
0.8670 2.7062 1.4214 -0.860 -0.086 -0.502 12 12 14 0 0
0.7369 3.7224 1.4623 -0.897 0.441 -0.038 94 94 95 0 0
0.6997 1.9966 1.4158 -0.288 -0.116 0.951 18 21 26 0 0
0.7375 3.7223 1.4766 -0.899 0.436 0.041 99 99 101 0 0
0.8730 2.6229 1.4445 -0.867 -0.497 -0.030 8 8 10 0 0
0.8579 2.6913 1.4476 -0.913 -0.185 -0.364 13 13 15 0 0
0.7722 3.1545 1.4683 0.262 -0.726 -0.636 39 38 43 0 0
0.7380 3.7218 1.4909 -0.898 0.436 0.053 99 99 100 0 0
0.7639 2.0771 1.4407 -0.266 -0.145 0.953 14 14 19 0 0
0.7611 2.0935 1.4414 -0.417 -0.008 0.909 14 13 18 0 0
0.8789 2.6299 1.4576 -0.700 -0.701 -0.136 9 9 11 0 0
0.8665 2.6350 1.4583 -0.819 -0.504 -0.274 9 9 11 0 0
0.8362 2.7276 1.4631 -0.969 0.245 -0.018 17 17 19 0 0
0.7404 3.7245 1.5053 -0.903 0.429 -0.004 102 102 103 0 0
0.8548 2.6623 1.4730 -0.838 -0.140 -0.527 15 15 17 0 0
0.7711 2.6575 1.4759 -0.326 -0.584 0.744 19 19 21 0 0
0.7642 2.6702 1.4767 -0.483 -0.464 0.742 18 18 20 0 0
0.6570 3.0988 1.4978 -0.971 -0.217 -0.100 43 42 47 0 0
0.8885 3.7466 1.5150 -0.110 -0.891 -0.440 49 49 52 0 0
0.8729 2.6863 1.4865 -0.460 -0.616 0.640 15 15 17 0 0
0.8547 2.6835 1.4870 -0.872 -0.466 0.152 16 16 18 0 0
0.8391 2.6842 1.4876 -0.991 -0.106 0.080 17 17 19 0 0
0.7680 2.6744 1.4898 -0.280 -0.651 0.706 18 18 22 0 0
0.7257 3.6979 1.5334 -0.891 0.417 -0.177 98 98 100 0 0
1.0714 2.5547 1.4871 0.197 -0.930 -0.311 43 46 48 0 0
1.0516 2.5505 1.4876 0.236 -0.914 -0.331 35 35 37 0 0
1.0083 2.5589 1.4895 -0.592 -0.641 -0.489 14 14 16 0 0
1.0012 2.5713 1.4903 -0.884 -0.363 -0.295 8 8 10 0 0
0.9855 2.5942 1.4918 -0.910 0.030 -0.414 7 7 9 0 0
0.9796 2.6083 1.4926 -0.823 -0.548 -0.153 7 7 9 0 0
0.8720 2.6839 1.4996 -0.220 -0.976 -0.005 16 16 18 0 0
0.8565 2.6849 1.5002 -0.433 -0.875 -0.217 17 17 19 0 0
0.8365 2.6795 1.5007 -0.916 -0.366 -0.166 18 18 20 0 0
0.7760 2.6846 1.5030 -0.439 -0.625 0.646 20 19 25 0 0
1.0623 2.5417 1.5001 -0.541 -0.075 -0.838 36 36 40 0 0
0.8391 2.6820 1.5138 -0.605 -0.667 -0.434 19 20 22 0 0
0.9265 2.6007 1.5205 -0.789 -0.330 0.519 10 10 12 0 0
0.9821 2.5863 1.5312 -0.709 -0.701 0.078 8 8 10 0 0
0.8558 2.6583 1.5386 -0.376 -0.779 0.501 51 51 53 0 0
0.8334 3.1401 1.5615 0.579 -0.711 0.400 29 30 34 0 0
1.0206 2.5706 1.5425 -0.861 -0.080 -0.503 14 12 17 0 0
1.0186 2.5899 1.5434 -0.899 -0.098 -0.426 11 9 13 0 0
0.8660 2.6489 1.5510 0.075 -0.990 -0.118 61 58 60 0 0
0.8644 2.6689 1.5520 -0.554 -0.796 0.243 71 69 72 0 0
0.8570 2.6811 1.5528 -0.849 -0.247 0.468 71 69 72 0 0
0.8524 2.6972 1.5537 -0.831 -0.394 0.393 72 70 73 0 0
1.0057 2.4851 1.5520 -0.442 -0.859 0.258 41 40 45 0 0
0.9744 2.5958 1.5583 -0.751 -0.310 -0.582 9 9 11 0 0
0.9020 2.6526 1.5632 0.264 -0.962 -0.070 63 62 63 0 0
0.8817 2.6471 1.5636 0.264 -0.962 -0.070 73 74 70 0 0
0.8671 2.6493 1.5641 0.084 -0.983 0.166 74 74 75 0 0
0.8670 2.6714 1.5652 -0.538 -0.801 0.263 73 74 76 0 0
0.8628 2.6881 1.5661 -0.780 -0.337 0.528 73 74 76 0 0
0.8563 2.7015 1.5670 -0.780 -0.574 0.248 78 79 81 0 0
0.6680 3.1077 1.5923 -0.912 0.289 -0.291 48 47 52 0 0
0.9765 2.5974 1.5715 -0.768 -0.473 -0.431 12 12 14 0 0
0.9114 2.6644 1.5768 0.276 -0.924 0.265 55 55 56 0 0
0.8805 2.6666 1.5778 -0.051 -0.842 0.537 69 69 70 0 0
0.8977 3.0618 1.5970 0.258 -0.754 0.604 44 45 46 0 0
0.6500 3.0301 1.6025 -0.219 -0.828 -0.517 46 45 50 0 0
1.0135 2.5580 1.5817 -0.745 -0.434 0.506 21 19 22 0 0
0.9384 2.6990 1.6043 0.213 -0.761 0.613 16 16 19 0 0
0.8847 3.0886 1.6262 0.091 -0.188 -0.978 56 57 57 0 0
0.7519 3.6217 1.6576 -0.396 -0.886 0.242 42 42 46 0 0
0.6743 3.0131 1.6681 -0.968 0.243 0.067 53 52 57 0 0
0.7131 3.6084 1.7006 -0.601 -0.581 0.549 54 55 60 0 0
1.0213 2.4763 1.6429 -0.751 -0.659 -0.020 37 37 38 0 0
1.0148 2.4893 1.6438 -0.889 -0.432 -0.151 33 33 36 0 0
0.7112 3.5774 1.7131 -0.379 -0.865 0.330 45 44 49 0 0
0.7267 3.7107 1.7204 -0.914 0.380 0.144 95 94 95 0 0
0.7171 3.6937 1.7340 -0.922 0.385 0.028 98 97 97 0 0
1.0325 2.5752 1.6749 -0.957 -0.236 -0.169 20 18 21 0 0
0.9562 2.5374 1.7005 0.420 -0.630 0.653 14 14 16 0 0
0.6789 3.1117 1.7413 -0.620 0.332 -0.711 50 49 52 0 0
0.6252 3.4065 1.7607 -0.396 0.052 -0.917 50 49 53 0 0
0.9210 2.6429 1.7209 0.322 -0.913 0.249 25 26 28 0 0
0.8891 2.6206 1.7333 0.640 -0.730 -0.241 28 29 31 0 0
0.8880 2.6402 1.7477 0.479 -0.699 -0.532 28 29 31 0 0
1.0418 2.5590 1.7534 -0.850 -0.023 0.526 24 24 25 0 0
0.9295 2.6278 1.7728 0.451 -0.760 -0.467 27 28 30 0 0
0.9114 2.6254 1.7729 0.366 -0.929 0.057 28 29 31 0 0
0.8838 2.6100 1.7722 0.503 -0.861 0.079 27 28 30 0 0
0.8218 2.7031 1.7793 -0.638 -0.560 0.529 24 25 27 0 0
0.9150 2.6071 1.7848 0.467 -0.767 -0.441 24 25 27 0 0
0.8897 2.5948 1.7842 0.109 -0.691 -0.715 24 25 27 0 0
0.8706 2.5909 1.7842 0.125 -0.644 -0.755 19 19 21 0 0
0.8516 2.5869 1.7841 0.153 -0.684 -0.714 21 21 23 0 0
0.9127 2.6029 1.7977 0.479 -0.728 -0.492 22 23 25 0 0
0.8859 2.5886 1.7970 0.006 -0.543 -0.839 21 21 23 0 0
0.8584 2.5731 1.7962 0.074 -0.566 -0.821 18 18 20 0 0
0.8498 2.5834 1.7970 -0.524 -0.345 -0.779 18 18 20 0 0
0.8980 2.5818 1.8095 0.431 -0.734 -0.524 20 21 23 0 0
0.8694 2.5649 1.8086 -0.135 -0.619 -0.773 19 20 22 0 0
0.8486 2.5586 1.8083 0.019 -0.730 -0.684 18 18 20 0 0
0.8402 2.5691 1.8091 -0.544 -0.249 -0.801 25 25 27 0 0
0.9012 2.5851 1.8229 0.539 -0.835 -0.112 17 18 20 0 0
0.8592 2.5501 1.8207 -0.403 -0.377 -0.834 17 17 19 0 0
0.8341 2.5597 1.8216 -0.437 -0.165 -0.884 33 33 35 0 0
0.8002 2.5353 1.8201 -0.276 -0.724 -0.632 36 36 38 0 0
0.7563 2.5625 1.8224 -0.405 -0.812 -0.420 27 27 29 0 0
0.7287 3.8358 1.9165 -0.811 0.416 -0.412 106 107 104 0 0
0.7917 2.5225 1.8322 -0.453 -0.621 -0.640 34 35 38 0 0
0.7610 2.5459 1.8341 -0.330 -0.882 -0.335 39 40 42 0 0
0.7574 2.5630 1.8355 -0.553 -0.806 -0.213 30 31 33 0 0
0.8496 2.5349 1.8457 -0.811 0.114 -0.574 19 18 23 0 0
0.7862 2.5138 1.8445 -0.453 -0.621 -0.640 39 40 44 0 0
0.7632 2.5259 1.8456 -0.826 -0.537 0.169 40 41 43 0 0
0.7680 2.5545 1.8477 -0.790 -0.612 0.040 29 30 32 0 0
0.7623 3.9747 1.9560 -0.938 0.071 0.338 179 179 179 0 0
0.7737 4.0227 1.9596 -0.861 -0.063 0.505 181 181 180 0 0
1.4267 2.5814 1.8594 0.577 -0.784 -0.229 76 76 78 0 0
0.7777 2.5011 1.8565 -0.361 -0.562 -0.744 45 46 50 0 0
1.4627 2.6025 1.8746 0.589 -0.774 -0.233 80 81 83 0 0
0.7739 2.4948 1.8690 -0.498 -0.659 -0.564 30 31 35 0 0
0.7732 2.5375 1.8724 -0.734 -0.384 0.561 18 19 21 0 0
0.7699 2.5099 1.8832 -0.906 -0.412 -0.094 32 33 35 0 0
0.7947 2.4559 1.8917 -0.393 -0.778 -0.490 14 14 16 0 0
0.7907 2.4938 1.8947 -0.249 -0.962 -0.111 29 30 32 0 0
0.7747 2.4937 1.8948 -0.641 -0.719 -0.267 24 25 27 0 0
0.7694 2.5081 1.8960 -0.906 -0.412 -0.094 18 19 21 0 0
0.7996 2.4615 1.9050 -0.135 -0.545 -0.828 22 22 24 0 0
0.7775 3.9372 2.0268 -0.155 -0.719 -0.677 158 157 155 0 0
0.7639 3.8568 2.0348 -0.639 -0.135 -0.757 96 96 96 0 0
0.7623 3.8821 2.0369 -0.698 -0.085 -0.711 113 113 112 0 0
0.7715 3.9258 2.0406 -0.600 -0.280 -0.749 169 168 166 0 0
1.4068 2.5718 1.9410 -0.189 -0.675 -0.713 99 99 101 0 0
0.7404 3.8164 2.0460 -0.721 0.135 -0.680 93 93 92 0 0
0.7440 3.8503 2.0488 -0.721 0.135 -0.680 116 116 114 0 0
1.0684 2.4263 1.9414 -0.198 -0.952 0.232 41 42 46 0 0
1.0786 2.5903 1.9556 -0.643 0.335 -0.689 43 43 48 0 0
0.7088 3.7623 2.0558 -0.722 0.234 -0.651 91 91 89 0 0
1.0835 2.4021 1.9525 -0.362 -0.445 -0.819 39 40 44 0 0
1.0492 2.4007 1.9523 -0.553 -0.632 -0.544 48 49 52 0 0
1.0128 2.5467 1.9649 -0.753 0.378 -0.538 23 22 27 0 0
1.2013 2.4432 1.9698 0.468 -0.884 0.018 73 74 75 0 0
1.1192 2.4038 1.9660 0.328 -0.856 -0.399 34 35 40 0 0
1.0545 2.3853 1.9640 -0.844 -0.264 -0.468 36 37 41 0 0
1.0497 2.4003 1.9654 -0.942 -0.163 -0.293 32 33 36 0 0
1.0425 2.4123 1.9664 -0.794 -0.361 -0.489 32 32 34 0 0
1.0471 2.4394 1.9688 -0.989 0.008 -0.149 25 25 27 0 0
1.0304 2.4392 1.9687 -0.281 -0.481 -0.830 25 25 27 0 0
0.9925 2.4328 1.9680 0.055 -0.399 -0.915 32 35 39 0 0
0.9952 2.5223 1.9759 -0.812 0.392 -0.432 22 21 26 0 0
1.0128 2.5674 1.9800 -0.765 0.352 -0.539 17 17 21 0 0
0.7983 2.5855 1.9807 -0.928 0.338 -0.158 36 40 43 0 0
1.0491 2.4409 1.9821 -0.823 -0.040 -0.567 21 22 24 0 0
0.7810 2.4946 1.9855 -0.975 0.037 0.221 44 45 47 0 0
0.6788 3.7901 2.1160 -0.953 0.108 -0.282 96 96 94 0 0
1.4496 2.5955 2.0259 0.403 -0.779 -0.480 69 69 72 0 0
1.0403 2.3849 2.0033 -0.829 -0.040 -0.558 39 40 43 0 0
1.0363 2.4221 2.0067 0.249 -0.966 -0.073 43 44 47 0 0
0.9609 2.4311 2.0069 -0.649 -0.546 0.530 44 44 48 0 0
0.9482 2.4358 2.0072 -0.865 -0.453 0.217 44 45 49 0 0
1.0348 2.3769 2.0156 -0.696 -0.671 -0.256 49 50 54 0 0
1.0061 2.4035 2.0178 0.100 -0.925 0.366 48 49 53 0 0
0.9516 2.4392 2.0207 -0.791 -0.460 0.404 45 46 50 0 0
0.9022 2.5031 2.0262 -0.783 -0.619 0.064 44 45 49 0 0
0.8436 2.5113 2.0265 -0.203 -0.974 -0.098 41 42 46 0 0
0.7611 2.5078 2.0254 -0.864 -0.501 -0.051 44 45 49 0 0
0.8162 2.4948 2.0377 -0.078 -0.929 0.362 41 42 46 0 0
0.8184 2.5196 2.0401 -0.677 -0.546 -0.493 42 43 47 0 0
0.8080 2.5493 2.0428 -0.705 -0.507 -0.496 41 42 46 0 0
0.8015 2.5623 2.0440 -0.618 -0.754 -0.223 41 42 46 0 0
0.7894 2.5677 2.0444 -0.211 -0.946 0.246 41 42 46 0 0
0.6864 2.5125 2.0381 -0.727 -0.524 0.445 45 46 50 0 0
0.6722 2.5145 2.0381 -0.910 -0.348 -0.224 45 46 51 0 0
0.6812 3.8464 2.1648 -0.974 0.189 -0.126 110 109 107 0 0
0.6895 3.8886 2.1689 -0.946 0.234 -0.224 159 158 156 0 0
1.0016 2.4167 2.0452 -0.092 -0.996 -0.009 36 37 41 0 0
0.9998 2.4357 2.0470 -0.279 -0.855 0.437 33 34 38 0 0
0.8717 2.5035 2.0521 -0.104 -0.957 -0.270 37 38 42 0 0
0.8629 2.5135 2.0530 -0.283 -0.927 -0.247 36 37 41 0 0
0.8557 2.5473 2.0562 -0.845 -0.501 0.186 28 29 33 0 0
0.8382 2.5455 2.0558 -0.869 -0.154 0.470 26 27 31 0 0
0.8050 2.5661 2.0574 -0.066 -0.921 0.383 29 30 34 0 0
0.7801 2.5537 2.0560 -0.583 -0.809 0.074 33 34 38 0 0
0.7452 2.5275 2.0531 -0.584 -0.799 0.147 35 36 40 0 0
0.6748 3.8063 2.1755 -0.992 0.121 -0.019 89 89 91 0 0
0.6806 3.8442 2.1792 -0.981 0.167 -0.097 104 103 102 0 0
0.6869 3.8829 2.1830 -0.981 0.167 -0.097 138 137 135 0 0
0.6925 3.9209 2.1867 -0.989 0.066 -0.130 196 195 193 0 0
0.6959 3.9840 2.1928 -0.989 0.066 -0.130 205 205 203 0 0
1.4795 2.6056 2.0825 0.531 -0.827 -0.186 74 71 74 0 0
1.0747 2.4032 2.0579 0.105 -0.880 0.463 59 60 64 0 0
0.8840 2.4756 2.0626 -0.170 -0.893 0.416 28 29 31 0 0
0.8535 2.5433 2.0689 -0.777 -0.629 0.030 21 21 23 0 0
0.8358 2.5631 2.0706 -0.777 -0.605 0.177 21 21 23 0 0
0.8242 2.5693 2.0711 -0.546 -0.827 0.134 21 21 23 0 0
0.7256 2.5211 2.0652 -0.742 -0.638 -0.206 30 32 34 0 0
0.7275 2.9116 2.1033 -0.742 0.258 -0.619 15 15 17 0 0
0.7214 2.9262 2.1047 -0.738 -0.008 -0.675 15 16 18 0 0
0.6695 3.7961 2.1889 -0.983 0.184 -0.011 84 85 86 0 0
0.6773 3.8373 2.1930 -0.981 0.193 0.003 98 100 99 0 0
0.6946 3.9232 2.2016 -0.882 -0.431 0.192 181 180 180 0 0
0.6872 3.9391 2.2031 -0.882 -0.431 0.192 204 202 202 0 0
0.9178 2.4762 2.0762 0.206 -0.891 0.404 27 28 30 0 0
0.9061 2.4823 2.0767 0.039 -0.980 0.193 23 24 26 0 0
0.8328 2.5580 2.0832 -0.333 -0.779 0.532 19 19 21 0 0
0.8204 2.5630 2.0835 -0.166 -0.906 0.390 20 20 22 0 0
0.6862 2.9203 2.1171 0.263 -0.522 -0.811 15 16 18 0 0
0.6609 3.8081 2.2045 -0.957 0.285 -0.062 96 97 97 0 0
0.7951 2.5711 2.0971 -0.772 -0.579 -0.262 24 24 26 0 0
0.4974 3.0896 2.1447 -0.899 -0.425 0.106 67 66 71 0 0
0.6778 3.8638 2.2248 -0.943 0.332 -0.002 117 118 117 0 0
0.8413 2.5673 2.1105 -0.447 -0.877 0.175 19 19 21 0 0
0.8228 2.5640 2.1099 -0.716 -0.623 0.314 25 25 27 0 0
0.7834 2.5319 2.1060 0.309 -0.885 0.349 27 27 29 0 0
0.7343 2.5299 2.1050 -0.559 -0.767 0.315 24 24 26 0 0
0.7226 2.5356 2.1055 -0.831 -0.551 0.080 23 23 25 0 0
1.0268 2.5299 2.1228 0.082 -0.835 -0.544 38 39 43 0 0
1.0039 2.5216 2.1216 -0.965 -0.138 -0.223 41 42 46 0 0
0.8522 2.5590 2.1229 -0.438 -0.865 -0.246 18 18 20 0 0
0.8400 2.5645 2.1233 -0.217 -0.976 -0.021 19 19 21 0 0
0.7810 2.5275 2.1185 0.354 -0.934 -0.058 20 20 22 0 0
0.6001 2.6053 2.1236 -0.387 -0.921 -0.037 39 40 42 0 0
0.6149 3.6168 2.2276 -0.751 0.189 -0.632 55 54 60 0 0
1.0141 2.5121 2.1340 -0.185 -0.969 -0.162 36 37 41 0 0
0.8299 2.5716 2.1370 -0.862 -0.317 0.396 18 18 20 0 0
0.5965 2.9477 2.1720 -0.887 0.110 0.449 21 22 25 0 0
1.0215 2.5208 2.1483 -0.435 -0.663 0.609 35 36 40 0 0
0.6942 2.5811 2.1486 -0.894 -0.181 0.409 23 24 26 0 0
0.6606 2.5546 2.1581 -0.038 -0.507 0.861 21 22 24 0 0
0.6387 2.5902 2.1615 -0.958 -0.233 -0.168 19 20 22 0 0
0.6055 2.6098 2.1629 -0.423 -0.902 -0.090 43 44 48 0 0
0.5951 2.6172 2.1635 -0.289 -0.941 -0.176 44 45 49 0 0
0.5339 2.9454 2.1972 -0.932 0.002 0.363 62 61 66 0 0
0.5302 3.2884 2.2337 -0.947 -0.155 -0.281 43 43 46 0 0
0.5862 3.5383 2.2614 -0.882 0.267 -0.389 48 47 52 0 0
1.0511 2.5355 2.1771 0.123 -0.838 -0.532 38 38 42 0 0
0.6835 2.6084 2.1773 0.120 -0.432 0.894 21 22 24 0 0
0.6607 2.6207 2.1782 -0.099 -0.494 0.864 17 18 20 0 0
0.6397 2.6130 2.1769 -0.980 -0.162 0.119 20 21 25 0 0
0.6380 2.6331 2.1791 -0.982 -0.109 0.151 25 26 30 0 0
0.5485 3.4732 2.2816 -0.993 -0.108 -0.045 49 48 54 0 0
0.6342 3.7794 2.3313 -0.878 0.398 -0.266 106 105 104 0 0
0.6742 2.7027 2.2530 -0.386 -0.440 0.811 30 31 33 0 0
0.6653 2.7126 2.2539 -0.396 -0.361 0.844 30 30 32 0 0
0.6739 2.8636 2.2847 -0.826 0.162 0.540 29 28 30 0 0
0.5458 3.4626 2.3502 -0.990 0.086 0.116 55 56 60 0 0
0.6784 2.8692 2.2988 -0.778 0.257 0.574 37 37 39 0 0
0.6471 3.9044 2.4625 -0.947 0.305 -0.100 201 200 199 0 0
0.6470 3.9029 2.4769 -0.950 0.311 -0.037 203 202 201 0 0
0.6494 3.9058 2.4920 -0.941 0.338 0.011 205 204 203 0 0
0.5959 3.7550 2.5005 -0.938 0.338 0.078 147 147 146 0 0
0.5845 3.7067 2.5084 -0.962 0.240 0.130 115 115 113 0 0
0.5817 3.7007 2.5219 -0.870 0.294 0.396 125 125 122 0 0
0.5992 3.7293 2.5406 -0.836 0.299 0.460 164 163 161 0 0
1.6357 2.6070 2.4926 0.243 -0.918 -0.314 74 73 79 0 0
1.5986 2.5849 2.4880 -0.060 -0.982 -0.178 63 62 68 0 0
0.5482 3.5008 2.5794 -0.909 0.054 0.413 66 65 68 0 0
0.5507 3.5037 2.5940 -0.967 0.135 0.218 50 49 54 0 0
0.5933 3.6567 2.6168 -0.861 0.348 -0.370 77 76 80 0 0
0.6152 3.7212 2.6266 -0.861 0.348 -0.370 86 86 85 0 0
1.6509 2.5783 2.5316 0.579 -0.757 0.301 112 112 113 0 0
0.5831 3.6382 2.6281 -0.905 0.342 -0.253 74 75 77 0 0
0.6177 3.7243 2.6416 -0.881 0.229 -0.415 82 82 83 0 0
0.6218 3.7590 2.6466 -0.905 0.202 -0.375 98 97 96 0 0
1.6615 2.5895 2.5478 0.527 -0.747 0.405 133 133 135 0 0
1.4912 2.5172 2.5296 0.492 -0.797 0.352 72 73 75 0 0
0.5852 3.5860 2.6352 -0.915 0.284 -0.287 65 65 67 0 0
0.5980 3.6348 2.6426 -0.915 0.284 -0.287 69 70 72 0 0
0.6126 3.6867 2.6506 -0.926 0.288 -0.246 73 74 76 0 0
0.6160 3.7202 2.6554 -0.934 0.139 -0.329 79 80 81 0 0
0.6177 3.7508 2.6597 -0.950 0.172 -0.262 96 96 95 0 0
1.5775 2.5328 2.5499 0.549 -0.760 0.348 102 102 104 0 0
0.6118 3.7118 2.6684 -0.964 0.121 -0.237 78 78 80 0 0
0.6046 3.7273 2.6702 -0.960 0.260 -0.105 98 97 96 0 0
0.6350 3.8352 2.6869 -0.956 0.237 -0.174 204 203 201 0 0
1.5430 2.5124 2.5592 0.539 -0.763 0.356 105 107 107 0 0
0.5468 3.0557 2.5866 -0.914 -0.195 0.356 57 58 61 0 0
0.5816 3.5775 2.6623 -0.963 0.186 -0.195 61 61 64 0 0
0.5970 3.6580 2.6745 -0.973 0.221 -0.069 65 67 69 0 0
0.5989 3.6886 2.6789 -0.981 0.179 -0.082 78 80 80 0 0
0.6021 3.7219 2.6838 -0.963 0.253 -0.087 102 102 101 0 0
1.0761 2.3444 2.5253 -0.538 -0.649 0.538 43 42 47 0 0
1.0303 2.3496 2.5237 -0.082 -0.881 -0.466 35 35 37 0 0
0.5303 2.9312 2.5814 -0.713 -0.007 -0.701 55 56 60 0 0
0.5584 3.0235 2.5961 -0.965 -0.214 0.150 57 58 62 0 0
0.5543 3.0417 2.5985 -0.822 -0.236 0.519 60 61 65 0 0
0.5461 3.0533 2.5997 -0.819 -0.120 0.561 64 65 68 0 0
0.5758 3.5666 2.6746 -0.966 0.099 -0.238 56 56 61 0 0
1.0910 2.3202 2.5358 -0.827 -0.426 0.366 53 52 57 0 0
0.7715 2.5003 2.5451 -0.340 -0.515 0.787 25 24 29 0 0
0.7650 2.5132 2.5467 -0.440 -0.280 0.853 23 23 26 0 0
0.5394 2.7542 2.5697 -0.971 -0.062 0.231 47 47 52 0 0
0.5437 2.7839 2.5742 -0.973 -0.184 0.141 48 48 53 0 0
0.5683 3.5529 2.6865 -0.952 0.013 -0.306 55 54 59 0 0
0.5796 3.6262 2.6976 -0.972 0.229 -0.051 63 63 67 0 0
0.5844 3.6617 2.7030 -0.966 0.239 -0.096 86 86 87 0 0
0.6031 3.7488 2.7165 -0.941 0.319 -0.112 156 155 152 0 0
1.0843 2.3106 2.5472 -0.916 -0.402 -0.003 56 55 60 0 0
1.0783 2.3241 2.5488 -0.916 -0.402 -0.003 54 53 58 0 0
1.0712 2.3361 2.5502 -0.873 -0.487 0.028 53 52 57 0 0
1.0574 2.3396 2.5500 -0.391 -0.740 -0.547 54 53 58 0 0
1.0531 2.3552 2.5520 -0.132 -0.970 0.206 53 52 56 0 0
0.7719 2.4778 2.5549 -0.674 -0.550 -0.494 39 39 41 0 0
0.7631 2.4877 2.5559 -0.674 -0.550 -0.494 39 38 43 0 0
0.7585 2.5032 2.5579 -0.784 -0.351 -0.512 41 42 45 0 0
0.5435 2.7359 2.5804 -0.968 -0.073 0.238 50 49 55 0 0
0.5348 2.8401 2.5951 -0.694 -0.123 0.710 55 56 58 0 0
0.5625 3.0031 2.6203 -0.958 -0.045 0.282 33 34 38 0 0
0.5590 3.0222 2.6229 -0.932 -0.113 0.343 34 35 39 0 0
0.5575 3.0443 2.6260 -0.932 -0.113 0.343 27 28 30 0 0
0.5757 3.5640 2.7027 -0.946 -0.084 -0.314 55 54 59 0 0
0.5711 3.5833 2.7052 -0.984 0.148 -0.102 61 62 66 0 0
0.5881 3.6667 2.7183 -0.972 0.229 -0.051 91 91 92 0 0
0.5904 3.6981 2.7229 -0.960 0.280 -0.024 115 113 113 0 0
1.6416 2.6024 2.6334 0.552 -0.810 0.200 59 59 60 0 0
1.5944 2.5683 2.6258 0.552 -0.810 0.200 55 56 58 0 0
1.5483 2.5353 2.6185 0.563 -0.806 0.184 57 58 60 0 0
1.4902 2.5092 2.6115 0.565 -0.815 0.129 51 52 53 0 0
1.2311 2.3656 2.5764 0.306 -0.712 0.632 72 70 76 0 0
1.1038 2.3759 2.5710 -0.974 0.003 0.225 50 50 52 0 0
1.1037 2.3969 2.5741 -0.961 0.048 0.271 56 55 57 0 0
1.1069 2.4222 2.5780 -0.345 -0.787 -0.512 54 54 58 0 0
1.0971 2.4311 2.5787 -0.105 -0.839 -0.534 53 54 58 0 0
0.5341 2.7207 2.5907 -0.693 0.062 0.718 54 53 58 0 0
0.5577 3.0435 2.6394 -0.977 0.017 0.215 31 32 36 0 0
0.5586 3.0696 2.6433 -0.970 -0.082 0.231 43 44 47 0 0
0.5743 3.5605 2.7162 -0.983 -0.073 -0.167 55 54 62 0 0
0.5667 3.5747 2.7179 -0.990 0.039 -0.135 61 62 66 0 0
1.3835 2.4441 2.6098 0.075 -0.578 0.812 63 64 66 0 0
1.3629 2.4404 2.6081 -0.248 -0.544 0.802 70 70 71 0 0
1.0775 2.4264 2.5903 -0.115 -0.990 -0.083 35 35 36 0 0
0.9942 2.3835 2.5793 -0.003 -0.918 0.398 37 38 41 0 0
0.9697 2.3732 2.5764 -0.055 -0.765 0.641 41 42 45 0 0
0.7870 2.6069 2.6009 -0.375 -0.864 -0.335 50 49 54 0 0
0.5483 2.8110 2.6180 -0.964 -0.237 0.119 32 31 36 0 0
0.5652 3.0541 2.6549 -0.984 0.006 0.177 38 39 42 0 0
0.5661 3.0801 2.6588 -0.984 0.006 0.177 24 25 28 0 0
0.6012 3.5502 2.7304 -0.071 -0.588 -0.806 48 47 52 0 0
0.5757 3.5345 2.7267 -0.942 -0.311 -0.128 52 51 58 0 0
0.5687 3.5498 2.7285 -0.993 -0.077 -0.090 59 59 66 0 0
0.5530 3.5505 2.7278 -0.987 0.028 -0.158 68 69 73 0 0
1.5774 2.5674 2.6528 0.531 -0.800 0.278 52 53 56 0 0
1.4104 2.4752 2.6297 0.056 -0.633 0.772 49 50 53 0 0
1.3788 2.4585 2.6254 -0.248 -0.544 0.802 62 62 64 0 0
1.3663 2.4645 2.6256 -0.248 -0.544 0.802 63 63 65 0 0
1.1344 2.3909 2.6015 -0.286 -0.681 0.675 30 30 32 0 0
0.9982 2.3875 2.5933 -0.051 -0.940 0.338 27 28 30 0 0
0.5811 2.7191 2.6193 -0.729 -0.171 0.663 29 27 29 0 0
0.5740 2.7549 2.6243 -0.895 -0.211 0.393 31 30 35 0 0
0.5571 2.7763 2.6265 -0.888 -0.458 0.043 31 30 35 0 0
0.5510 2.7905 2.6283 -0.894 -0.385 -0.228 30 29 35 0 0
0.5432 2.8023 2.6296 -0.858 -0.357 -0.369 32 31 36 0 0
0.6246 3.5340 2.7435 -0.539 -0.007 -0.842 44 43 48 0 0
0.6167 3.5478 2.7451 -0.185 -0.296 -0.937 44 43 48 0 0
0.5941 3.5371 2.7423 -0.464 -0.426 -0.776 52 51 56 0 0
0.5746 3.5315 2.7403 -0.979 -0.176 -0.105 59 58 64 0 0
0.5586 3.5318 2.7395 -0.946 -0.194 -0.261 66 66 72 0 0
1.4586 2.5106 2.6515 0.385 -0.881 0.275 45 46 50 0 0
0.8046 2.5402 2.6183 0.395 -0.866 0.306 25 27 26 0 0
0.7906 2.5431 2.6180 -0.303 -0.407 0.862 27 28 30 0 0
0.7088 2.6070 2.6229 -0.849 -0.436 0.300 28 28 31 0 0
0.7093 2.6301 2.6264 -0.638 0.092 0.765 20 21 23 0 0
0.6113 3.5109 2.7535 -0.666 0.011 -0.746 44 43 48 0 0
0.6037 3.5250 2.7552 -0.332 -0.286 -0.899 47 47 52 0 0
0.5854 3.5215 2.7536 -0.637 -0.429 -0.641 57 57 62 0 0
1.1577 2.4180 2.6336 -0.372 -0.682 0.630 22 20 25 0 0
0.9192 2.5625 2.6416 -0.058 -0.084 -0.995 20 20 25 0 0
0.6728 2.6221 2.6362 -0.123 -0.473 0.872 9 9 11 0 0
0.5768 3.5059 2.7649 0.003 -0.405 -0.914 59 61 64 0 0
1.5006 2.5372 2.6857 0.571 -0.821 0.007 51 51 55 0 0
1.4736 2.5264 2.6825 0.516 -0.852 -0.089 45 45 49 0 0
0.6116 3.7268 2.8149 -0.936 0.345 0.075 97 97 96 0 0
1.5334 2.5536 2.7042 0.525 -0.833 0.171 66 64 70 0 0
1.5143 2.5524 2.7028 0.561 -0.794 0.234 60 59 64 0 0
0.5827 3.6764 2.8199 -0.846 0.398 -0.355 89 89 90 0 0
0.7812 2.6370 2.6846 -0.905 0.230 -0.358 12 13 15 0 0
1.1576 2.4752 2.7231 -0.036 -0.488 -0.872 36 37 41 0 0
1.1524 2.4900 2.7251 0.022 -0.443 -0.896 35 36 40 0 0
0.7062 2.6632 2.7237 -0.355 -0.001 -0.935 20 21 25 0 0
0.7077 4.0272 2.9414 -0.743 0.095 -0.663 100 100 99 0 0
0.7065 4.0543 2.9457 -0.736 0.096 -0.670 137 137 135 0 0
0.8785 2.7231 2.7579 -0.569 0.380 -0.729 15 16 18 0 0
0.7505 2.7025 2.7462 -0.923 -0.104 0.371 18 19 21 0 0
0.7460 2.7189 2.7485 -0.729 -0.423 0.538 14 13 19 0 0
0.7389 2.7318 2.7501 -0.906 -0.163 0.390 14 13 19 0 0
1.1327 2.4201 2.7394 -0.177 -0.982 -0.064 44 45 49 0 0
1.1220 2.4280 2.7400 -0.327 -0.848 -0.417 39 40 44 0 0
0.6484 2.7378 2.7583 -0.237 -0.480 0.845 13 13 19 0 0
0.6367 2.7437 2.7585 -0.382 -0.294 0.876 12 13 18 0 0
0.6828 4.0105 2.9670 -0.734 0.077 -0.674 96 96 96 0 0
0.6816 4.0377 2.9713 -0.734 0.077 -0.674 121 121 119 0 0
0.6806 4.0651 2.9757 -0.736 0.096 -0.670 180 180 178 0 0
1.1392 2.4486 2.7579 -0.807 -0.590 0.040 45 46 50 0 0
0.9090 2.5388 2.7569 -0.527 0.302 -0.795 34 32 35 0 0
0.7383 2.6603 2.7651 -0.489 -0.083 0.868 16 17 19 0 0
0.7399 2.6852 2.7693 -0.485 -0.187 0.854 14 15 17 0 0
0.7451 2.7155 2.7746 -0.578 -0.288 0.763 13 13 15 0 0
0.6698 4.0159 2.9819 -0.759 0.037 -0.650 102 102 100 0 0
0.6677 4.0412 2.9858 -0.759 0.037 -0.650 146 146 144 0 0
0.6694 4.0736 2.9912 -0.759 0.145 -0.634 195 195 193 0 0
1.1412 2.4500 2.7717 -0.666 -0.700 0.259 48 49 53 0 0
1.0861 2.4872 2.7740 -0.657 -0.382 0.649 39 40 44 0 0
0.6557 3.9900 2.9915 -0.792 0.087 -0.605 94 94 94 0 0
0.6548 4.0467 3.0008 -0.800 0.140 -0.584 175 174 172 0 0
0.9827 2.4386 2.7721 -0.125 -0.902 0.413 44 45 49 0 0
0.6435 4.0256 3.0114 -0.804 0.159 -0.573 145 144 142 0 0
0.6461 4.0595 3.0172 -0.804 0.159 -0.573 196 195 193 0 0
1.1124 2.4971 2.8044 0.275 -0.910 -0.309 48 49 53 0 0
1.0800 2.4772 2.7987 0.323 -0.929 -0.183 48 49 53 0 0
1.0081 2.4705 2.7925 0.181 -0.948 -0.262 46 47 51 0 0
0.5603 3.2551 2.8916 -0.942 0.122 0.311 42 42 44 0 0
1.5833 2.5570 2.8622 0.095 -0.427 -0.899 57 56 61 0 0
0.5572 3.2489 2.9041 -0.987 0.135 0.087 51 51 53 0 0
0.5211 3.2675 2.9046 -0.885 0.029 -0.466 50 50 53 0 0
0.6116 3.8807 3.0145 -0.714 0.016 -0.699 76 76 77 0 0
0.6105 3.9076 3.0189 -0.721 -0.027 -0.692 81 81 82 0 0
0.6020 3.9794 3.0304 -0.804 0.218 -0.554 153 152 150 0 0
0.6078 4.0188 3.0375 -0.804 0.218 -0.554 200 199 196 0 0
1.6012 2.5554 2.8773 0.439 -0.700 -0.563 58 59 63 0 0
1.5794 2.5513 2.8750 0.380 -0.611 -0.694 57 58 62 0 0
0.5817 3.1099 2.8961 -0.928 -0.151 0.341 32 31 36 0 0
0.5795 3.1313 2.8996 -0.928 -0.151 0.341 37 35 39 0 0
0.5088 3.3240 2.9271 -0.869 -0.277 0.409 50 49 54 0 0
0.4795 3.3017 2.9212 0.359 -0.787 -0.501 51 50 55 0 0
0.5843 3.9469 3.0384 -0.847 0.222 -0.482 133 132 129 0 0
0.5923 3.9900 3.0463 -0.848 0.253 -0.465 187 186 182 0 0
1.5669 2.5353 2.8854 0.422 -0.633 -0.649 56 57 61 0 0
1.5210 2.5239 2.8800 -0.425 -0.563 -0.708 51 52 56 0 0
1.5063 2.5278 2.8795 -0.235 -0.700 -0.674 51 52 56 0 0
0.8773 2.5335 2.8334 -0.427 -0.386 0.818 41 41 46 0 0
0.5352 3.2367 2.9280 -0.747 -0.250 0.616 51 50 55 0 0
0.5809 3.9687 3.0566 -0.868 0.289 -0.404 170 169 166 0 0
1.5224 2.5030 2.8904 0.321 -0.866 -0.384 51 52 56 0 0
1.4945 2.4913 2.8863 0.177 -0.968 -0.177 52 53 57 0 0
1.4719 2.4857 2.8836 0.317 -0.867 0.384 52 53 57 0 0
0.9313 2.5390 2.8517 -0.060 -0.368 0.928 24 23 26 0 0
0.7886 2.5658 2.8455 -0.855 -0.265 0.447 29 27 30 0 0
0.7255 2.6343 2.8525 -0.819 -0.099 0.565 24 23 28 0 0
0.7104 2.6355 2.8516 -0.181 -0.565 0.805 22 21 26 0 0
0.5699 3.8617 3.0521 -0.849 0.094 -0.520 76 76 80 0 0
0.5705 3.9490 3.0672 -0.886 0.259 -0.386 154 153 150 0 0
0.5835 4.0011 3.0772 -0.888 0.309 -0.341 199 198 198 0 0
1.4487 2.4570 2.8907 0.592 -0.802 0.082 52 53 57 0 0
1.3859 2.5095 2.8950 0.442 -0.638 0.631 50 49 54 0 0
1.0251 2.4440 2.8558 -0.891 -0.369 0.265 34 35 39 0 0
1.0198 2.4586 2.8579 -0.751 -0.523 0.404 34 33 37 0 0
0.7998 2.6249 2.8698 -0.712 -0.683 -0.162 17 16 17 0 0
0.7811 2.6438 2.8717 0.028 -0.783 -0.622 20 19 20 0 0
0.5587 3.8409 3.0623 -0.851 0.106 -0.514 73 74 78 0 0
0.5602 3.9296 3.0778 -0.886 0.259 -0.386 140 139 136 0 0
0.5721 3.9797 3.0874 -0.888 0.309 -0.341 194 193 192 0 0
1.4723 2.6132 2.9336 0.431 -0.637 0.639 50 49 54 0 0
1.3597 2.5409 2.9122 0.313 -0.498 -0.808 51 50 55 0 0
1.1369 2.4569 2.8801 -0.801 -0.509 -0.316 49 49 51 0 0
0.8087 2.6137 2.8819 -0.692 -0.719 -0.064 28 26 29 0 0
0.7989 2.6226 2.8826 -0.652 -0.741 -0.157 26 24 27 0 0
0.5511 3.7980 3.0687 -0.824 0.130 -0.551 61 62 67 0 0
0.9759 2.6397 2.9130 0.058 -0.523 0.850 48 44 48 0 0
0.8076 2.6112 2.8946 -0.740 -0.646 -0.186 32 30 33 0 0
0.5411 3.8934 3.0993 -0.903 0.261 -0.341 122 121 119 0 0
0.5530 3.9433 3.1090 -0.900 0.334 -0.280 181 180 178 0 0
0.7550 2.6263 2.9064 -0.199 -0.895 0.399 54 52 54 0 0
0.7340 2.6193 2.9035 -0.056 -0.989 -0.135 50 48 49 0 0
0.7862 3.6633 3.0928 -0.701 0.423 -0.575 60 59 64 0 0
0.5301 3.8727 3.1094 -0.910 0.280 -0.306 121 120 118 0 0
0.5436 3.9254 3.1198 -0.917 0.302 -0.262 175 174 172 0 0
0.5589 3.9816 3.1310 -0.917 0.302 -0.262 204 203 201 0 0
0.6595 2.7164 2.9279 -0.843 -0.315 -0.435 72 69 70 0 0
0.7168 2.6153 2.9278 0.036 -0.972 -0.232 74 74 74 0 0
0.5400 3.9455 3.1525 -0.939 0.210 -0.274 201 200 198 0 0
1.1352 2.3854 2.9343 -0.388 -0.574 -0.721 61 61 64 0 0
0.7510 2.6175 2.9442 -0.307 -0.888 -0.341 76 76 77 0 0
0.8854 3.5757 3.1291 0.281 -0.505 0.816 71 71 73 0 0
0.5335 3.9328 3.1643 -0.953 0.214 -0.216 202 201 199 0 0
0.8601 2.5886 2.9615 0.106 -0.963 -0.246 79 77 77 0 0
0.7758 2.6286 2.9616 0.217 -0.648 -0.730 80 79 79 0 0
0.5239 3.8856 3.1696 -0.962 0.220 -0.162 164 163 161 0 0
0.9075 2.6297 2.9864 0.304 -0.587 -0.751 81 79 79 0 0
0.8172 2.5953 2.9723 0.217 -0.904 -0.368 92 88 86 0 0
0.8003 2.5944 2.9707 0.037 -0.991 -0.131 87 83 80 0 0
0.7750 2.6039 2.9703 -0.024 -0.972 -0.233 85 84 82 0 0
0.5188 3.8752 3.1819 -0.955 0.297 0.018 170 169 167 0 0
1.8909 2.6812 3.0948 0.600 -0.776 0.195 68 66 70 0 0
0.9347 2.6433 3.0047 0.481 -0.752 -0.451 81 81 81 0 0
