ply
format ascii 1.0
element vertex 705
property float x
property float y
property float z
property uchar diffuse_red
property uchar diffuse_green
property uchar diffuse_blue
end_header
0.7553498255841165 2.5195184450184933 -0.08158407239552735 128 128 129
0.7368002239189024 2.5074715107593333 -0.07744957370848544 154 154 155
0.7483770824988731 2.490543746279197 -0.07693336682916825 170 170 169
0.7572416710186208 2.474091718525884 -0.0760960072865722 174 174 172
0.7606367546295894 2.4585347346634063 -0.0746028714284057 175 175 173
0.7693055497139178 2.4421773929909962 -0.07374997209967213 174 174 173
0.7708096306811745 2.4269568977846583 -0.07203353612595052 174 174 174
0.7722744635128642 2.4117547625961806 -0.07031390650382686 174 174 174
0.7710893908914846 2.396963350437499 -0.06827365910116182 174 174 174
0.7576426737167715 2.3839991578729123 -0.06474056684905152 175 175 175
0.7287332443323287 2.3732726983637504 -0.059316478188332245 175 175 175
1.3868904653710885 3.2289474704458057 -0.2461206358333192 175 175 175
1.3773220181096155 3.2169860125835283 -0.24324761117093915 175 175 175
0.8831007039425721 3.328925604311471 -0.18710932433537134 175 175 175
1.298954046577887 3.2080327316998694 -0.23096999569485355 175 175 175
1.3178200365110633 3.188721178390626 -0.23121180573700406 174 174 174
1.2867484449199909 3.1819962080310717 -0.22594253393831196 168 168 168
1.2442613231879283 3.1780150723048513 -0.21939658560053138 128 126 131
1.2628210690484565 3.1588045287218502 -0.2196076103157152 55 53 58
1.2531610915885605 3.1465933714152774 -0.21669000088547452 41 39 44
1.2399458729403126 3.135223905209347 -0.213373160609587 43 42 45
1.242484861121865 3.1200019853502137 -0.2118099053023691 43 43 45
1.2753887988811616 3.0974937859276612 -0.21364411587170576 42 42 44
1.269290221843237 3.0844175466424537 -0.21112365619316922 42 42 44
1.2709122466297889 3.0694974428175263 -0.2094681431066486 44 42 45
1.3531231127498007 3.035617589705273 -0.21687733364085554 46 44 47
1.3508592855245802 3.021767061443834 -0.21480437839566993 53 51 54
1.3375009705760024 3.0104906973102206 -0.21147895649592732 63 62 63
1.3386568326961232 2.995832932918965 -0.2097903092905185 67 67 68
1.3412128474567773 2.980866094881336 -0.2082617230528498 59 58 61
1.335307312326513 2.96783595236242 -0.20577454596536285 50 49 54
1.3386345465183465 2.952712764456369 -0.20433587920345447 52 50 54
1.3278887325227622 2.9407554451905917 -0.20129592893595175 60 57 64
1.3281551979649404 2.926324838791349 -0.19950950629171973 68 66 71
1.3212305335233214 2.913486529355941 -0.1969016369993144 68 66 70
1.3091827698246843 2.9017522282034243 -0.19370471333730344 61 59 62
1.2636293414491169 2.897253617785654 -0.18665724594951044 67 65 68
1.2421896451353627 2.8874186930243204 -0.18236469158289179 79 77 78
1.2277741095340633 2.8760189148841566 -0.17887330640630747 85 83 85
1.2094050220026984 2.86541600676807 -0.1749203750855087 62 60 63
1.199285607465087 2.8530244445389354 -0.1719146162391413 42 40 43
1.1838091647979763 2.8417236930815193 -0.16828486448965946 48 46 49
1.182391742832245 2.827469606183932 -0.16628126970293108 54 52 55
1.148278966440304 2.819928379397427 -0.16047627971403336 64 62 64
1.144867977444718 2.806030669473992 -0.15823420679132977 78 76 77
1.1266818388569702 2.795111992648323 -0.1542673755012883 83 81 82
1.1010477933617266 2.785631292962919 -0.14942306878202713 77 75 76
1.0917843039997999 2.772821840118629 -0.1464862124948956 58 56 57
1.0757904866617067 2.761314066144941 -0.14275670626056888 40 38 40
1.0616245422720765 2.7494035105599783 -0.1392362461441122 43 41 44
1.0468180655840202 2.737577145036582 -0.1356353308302941 48 46 49
1.0475745139727854 2.7227222304023084 -0.1338649539714165 52 50 53
1.0145269979453875 2.714308246850516 -0.12810113458070904 63 60 63
0.9754304051208906 2.706932556498002 -0.12160825766222513 78 74 78
0.9482135738747689 2.6972137803610137 -0.11650874449192405 93 89 92
0.9095842957531753 2.689526362520278 -0.11004292189067388 77 74 77
0.9023406635168985 2.675955645574017 -0.10729709688665648 57 57 59
0.9096718029627155 2.6597165280113195 -0.10628680209366365 58 58 59
0.8842213775599295 2.649419306161202 -0.10136538550430803 64 64 64
0.8701050164757764 2.6370205697323494 -0.09779026136013375 63 63 64
0.885184834800779 2.6194155018817007 -0.09770932438337586 73 73 75
0.8305289060451946 2.614093979427385 -0.08926323799827042 77 77 79
0.8111574188156392 2.6024713255166536 -0.0850388257623979 63 63 65
0.822683430428788 2.585477290204773 -0.08452970205340539 51 49 53
0.8101993053490035 2.5726192435513475 -0.08112865356556971 47 44 52
0.7638013580262548 2.5654490361944724 -0.07362333220265263 57 57 63
0.7522914023530818 2.552304756754777 -0.07032464755075009 79 79 82
0.7546216456880833 2.5368407079979263 -0.06870109390905842 68 67 72
0.7557127766875491 2.5215947769581177 -0.06692888429220786 68 67 72
0.7489210047923942 2.5076378619421122 -0.06419850105130921 73 72 77
0.7486521665441995 2.4926193703692103 -0.062261625265899 94 94 94
0.7333034381784379 2.4800024464609396 -0.05848364665762043 130 130 130
0.7380531015906843 2.4641835940088366 -0.05715933620859637 161 161 161
0.7460259135769128 2.4478865848643316 -0.05623298344093908 173 173 173
0.7417842752840517 2.4335028766519406 -0.05381133295478677 174 174 174
0.7363755085323662 2.419290390025017 -0.05124533564877223 174 174 174
0.7608738615180284 2.4005637061342164 -0.05236213742530903 174 174 174
0.7405247467078616 2.38860518231934 -0.04795622317231199 174 174 174
0.7244960971334561 2.3759508620687844 -0.044076816373798094 174 174 174
0.6886402505685707 2.3661397248227263 -0.03773695890924199 174 174 174
0.9103864904686454 3.3702659668492343 -0.1812686309562226 174 174 174
1.3771726029539109 3.2339400822415802 -0.23120259602397497 174 174 174
1.3669840034421799 3.2221160254116312 -0.2282453740748893 175 175 175
0.9119439983075806 3.324142040720761 -0.1756730745231883 175 175 175
1.3009623922124511 3.2099932550537473 -0.21722039917646496 175 175 175
1.3058674109059372 3.1941974864745055 -0.21593286461470362 166 166 167
1.2727669579915704 3.187961479323675 -0.210385451379086 129 128 132
1.202873187305654 3.1907901125328504 -0.20069002434226949 72 69 75
1.2514921291963659 3.1640552228437335 -0.20430933732516082 40 37 43
1.2558372675646248 3.148376014343676 -0.2029559858250993 40 38 44
1.264751884495595 3.131603280030074 -0.20212185715006376 39 38 41
1.2787125697263586 3.1136446143381202 -0.2018638367780747 40 40 42
1.2901671257793352 3.096343827603597 -0.20132838383215404 43 43 45
1.2982885500566366 3.0798859034984614 -0.20041989624587428 47 47 49
1.3316186633158207 3.0574784976176033 -0.20238633469670445 48 46 49
1.3578049651693922 3.0368745914732482 -0.20355288144363554 47 45 48
1.3563008500240912 3.0228461942378546 -0.20156656020652747 48 46 49
1.3378281614282272 3.012762296008086 -0.19763745665694865 53 52 55
1.3561128602559025 2.9941454504599903 -0.1979182842349992 63 62 65
1.3692221625378287 2.976782372626733 -0.1976129622177837 65 64 67
1.374566682644058 2.9612354205295697 -0.1964200317542319 65 64 68
1.3727944041814886 2.9473192115849622 -0.1944092975554217 59 57 62
1.3649726533332935 2.934758857646851 -0.1916995822598509 53 51 57
1.35655436606413 2.9223120083714678 -0.18891839253244558 52 49 55
1.3449595327430188 2.910544731054219 -0.18576608601278455 58 56 62
1.3303333082006925 2.899409282139035 -0.18225751537005835 65 63 68
1.2792054971569256 2.896160477780456 -0.17449425811711414 60 58 61
1.2623157681773822 2.8853680609255505 -0.17070342492924004 59 57 60
1.2452454228785428 2.8745649378269884 -0.16688526415393146 69 67 70
1.235010887413321 2.8622614640925863 -0.16386094643284596 67 65 68
1.2267790243805448 2.8495094218484742 -0.1610680618751453 46 44 47
1.2043789203571724 2.8396959842620477 -0.1566082308362289 41 39 42
1.202225036288022 2.825620588667747 -0.15452252808154815 48 46 49
1.1727064949745127 2.8171685974440943 -0.1492106798274552 64 62 64
1.1706130777112214 2.8030353541426 -0.14712637480384447 71 69 70
1.1501757804698753 2.7926107552015806 -0.14287172862376313 75 73 74
1.1238082174936053 2.7833142071979564 -0.13790650342619604 70 68 69
1.10446772468825 2.77253990642253 -0.13376548011647443 57 55 56
1.10227124242155 2.758328457355149 -0.13165648458797344 52 50 52
1.0736987322060794 2.7492732197705245 -0.12640458425605508 42 40 45
1.0708586066566474 2.735142644452559 -0.12421322213474914 43 41 46
1.0658634562484164 2.721424074332904 -0.12176390181100727 46 44 49
1.0403849294410086 2.7115982208999676 -0.11685975665887247 64 62 66
1.0080929536844025 2.702981598914057 -0.11112825328240525 73 72 74
0.980294349119535 2.6934239918236416 -0.1059242731625219 81 80 82
0.9492167531286744 2.684389715388274 -0.10031472893944784 74 73 76
0.9249658612696565 2.67400457046404 -0.09551657866822423 59 59 61
0.9557035161173396 2.653527960674391 -0.0973537753052294 49 49 50
0.9157670362183021 2.6459197158112637 -0.09065004671619996 48 48 48
0.9015135222590024 2.6335924434537223 -0.08704470527609838 55 55 56
0.8986790423920855 2.6192017147586877 -0.08482133098406613 56 56 58
0.886590761848086 2.6064336570442164 -0.08147178471152226 65 65 67
0.8314742001073147 2.601115952761461 -0.0728738160607695 64 64 66
0.8389502880376533 2.5848415627272425 -0.07189567126883219 64 62 66
0.8353434804342028 2.570490112993325 -0.069566174507517 54 52 59
0.8048301857838446 2.5606799818162025 -0.06393989834437114 45 43 48
0.7642170285659338 2.5524661741722983 -0.05706244283968746 56 55 58
0.7613750304888832 2.5378691740048116 -0.05481196151183293 67 66 70
0.759391054544329 2.5231295972714607 -0.05266689417062291 65 64 69
0.7485568567078105 2.5098277747581053 -0.049430367332810435 67 66 72
0.7389349299845914 2.496302930905115 -0.0463400536823414 66 66 68
0.7274683357207359 2.4830472813747972 -0.04301839953128951 71 71 72
0.7206853146510465 2.469024172852972 -0.040273518221425206 80 81 81
0.7175313848346413 2.4544209974162188 -0.037977394829951466 124 124 124
0.724864951421532 2.4381987238538185 -0.03698532786532446 165 165 165
0.7663622874491121 2.4167992549165236 -0.04025357339348007 174 174 174
0.7535389118362729 2.4037364958447194 -0.03676112049684403 174 174 174
0.7323306883704954 2.39188991941387 -0.032216183335219 174 174 174
0.7255522515884614 2.3778522205381396 -0.029470120452273985 174 174 174
0.6939320293266842 2.367424094696446 -0.02360666898540449 174 174 174
1.3612451762293682 3.284053394987395 -0.22101512558064934 174 174 174
1.3623390891728384 3.2692583342434225 -0.21931115182269129 174 174 174
1.3691891411983907 3.2529698363734667 -0.21825620034677826 174 174 174
1.3649368229327232 3.2395949517151537 -0.21595358950799104 175 175 175
1.3575444087999946 3.227023019658617 -0.21329544377571746 175 175 175
0.9718628677783775 3.3113807097812193 -0.1678306740791809 175 175 174
1.3042536055541922 3.211628787582599 -0.20360716475446478 163 163 164
1.2803444829131476 3.2031151432773024 -0.19905812587636773 123 122 127
1.2581808097287164 3.194089375044617 -0.194698428868895 72 70 77
1.2007187910320896 3.193802751947725 -0.18630596664296023 54 51 58
1.2216054726450525 3.1739137684334815 -0.18683889309455057 43 40 47
1.2421677020109212 3.1541827573087278 -0.18734452886618305 40 37 44
1.273254931656888 3.1319561777835907 -0.18906650234549827 36 35 39
1.2979074034636593 3.111404001698489 -0.1900635539630498 35 35 37
1.3126397132564223 3.0933336517080923 -0.1899304955202969 39 39 41
1.3370726721792145 3.0729985159647417 -0.19092295526399047 45 45 47
1.351492662709636 3.0551328955409813 -0.19077025842816778 49 47 50
1.356958542862186 3.0394361778610612 -0.18958853423958658 48 46 49
1.3594412789883903 3.024464081162311 -0.1880642359156924 51 49 52
1.3207178061216103 3.0190923984892932 -0.18175648045128778 50 47 51
1.3437840075751675 2.9993289675720494 -0.1826221719856624 48 44 50
1.3700220645780077 2.978923375415623 -0.18386826455360233 64 60 63
1.3867577889083331 2.960775638850353 -0.1840168062773586 72 69 71
1.3836858693564305 2.947165422840658 -0.1818562201087545 75 73 75
1.382921105811295 2.9330348349876187 -0.17996562293810836 75 74 74
1.3720776520889884 2.9211514947081443 -0.1768923227751743 69 67 69
1.3637087159558403 2.908692474201476 -0.17410638537810416 57 55 61
1.3514580830471075 2.8970632397216254 -0.17086044532692032 53 51 56
1.3312532336743588 2.8871299410864384 -0.16667132877240812 63 61 65
1.3255162835742453 2.874013935249479 -0.16418541559278357 65 63 66
1.2989964648664625 2.865335985929653 -0.15923602829935563 59 57 60
1.2505340912634277 2.8612380250466636 -0.1516723930679722 59 57 60
1.241107188321315 2.8487574013841996 -0.14872988131034653 51 49 52
1.2289443879605542 2.836824565050155 -0.1454584834389658 43 41 44
1.2156411598786014 2.8250948629309254 -0.14204681925145626 41 39 42
1.2169059904321409 2.8103305108344245 -0.1403715680140704 49 47 49
1.2017790029634408 2.7989229622714915 -0.1367352519408421 63 61 62
1.1728501770778523 2.7902658299210814 -0.13143815800753286 55 53 54
1.1455222285637694 2.7811980266217566 -0.1263221570399694 50 48 49
1.1228769208191418 2.77111413012526 -0.12175917481613133 47 45 46
1.114329614718828 2.758178967877891 -0.11888734036911838 54 52 55
1.085752631308824 2.749143264287518 -0.11359374159946975 49 47 53
1.0784540334579864 2.735890077318067 -0.1108634525928219 42 40 46
1.0837247145697555 2.720201484898824 -0.10965436490167615 40 37 43
1.068660446305615 2.708416580340722 -0.1059796514935149 54 53 56
1.0494657137337033 2.697369892139379 -0.1017972277746696 58 58 60
1.003523220348411 2.6912797593012647 -0.09434918164129388 59 59 61
0.9597506106216609 2.68464121438561 -0.08714763083901741 55 55 57
0.9387034125772489 2.6736809870644067 -0.08270670127829129 51 51 53
0.9350282023206677 2.659489022838817 -0.08038512588751938 51 51 52
0.9301314874911228 2.6455131146246624 -0.07791312080842774 47 47 47
0.9268425462992875 2.6312404136255445 -0.07563755158831709 45 45 46
0.9358402978585197 2.614783837756099 -0.07487376257343924 46 46 48
0.9297645872186626 2.6010144713348304 -0.07225631154011385 63 63 65
0.902400802962951 2.5909396580571995 -0.067008292329088 78 78 80
0.8643387459570657 2.582627040602772 -0.06042638808990018 77 78 79
0.8341429713094151 2.5728520562795416 -0.05480428457577921 65 64 70
0.8168444200642774 2.560802660048282 -0.05077134641493243 46 44 48
0.7670084755434253 2.5541545978102844 -0.042686841396652436 47 46 47
0.7657880802279078 2.5392850431717124 -0.040636930577639716 49 49 50
0.7652611494218993 2.5243050915486136 -0.03867396465200745 60 59 62
0.757385456261141 2.5105256646310186 -0.03579348569863626 71 70 75
0.7407555854648569 2.4981365658611376 -0.031815013125271546 78 79 82
0.7305036920020549 2.4846842597468397 -0.02863016949120953 77 78 81
0.7183310439400936 2.47150845941503 -0.02520082036161593 62 63 66
0.7038697436707821 2.4586570808533095 -0.02147949829162181 55 55 57
0.6976498838235261 2.4444936393001235 -0.018791460902345652 87 87 87
0.7671111100946064 2.4187612204605515 -0.02565247327445118 156 156 156
0.7387156368263502 2.408045989765849 -0.020173777481605218 174 174 174
0.7023467586944051 2.398436153270941 -0.013674751282606312 174 174 174
0.697029763020623 2.3841259901384335 -0.011099536427174976 174 174 174
0.6802086703834461 2.3714868637235638 -0.007061771051595181 174 174 174
0.40075588977602 2.3967449332648454 0.030396832116646417 174 174 174
0.6281391421645053 3.480887774127197 -0.12373154578462263 174 174 174
0.7278142210246806 3.4388730510783474 -0.13310626691383906 174 174 174
1.3507170094634118 3.2457755021941814 -0.20042227051507808 175 175 174
1.3380447550186663 3.234536432497578 -0.19714662584858358 174 174 172
1.012162845196235 3.303621189585116 -0.1579153852202908 157 157 158
1.0621386036001248 3.2758119512949895 -0.16176823701983514 108 107 111
1.2389164514925135 3.2160769689581374 -0.18025215900957142 62 61 66
1.2351521272162573 3.202351484100651 -0.17797374070284722 59 57 63
1.2114804982677074 3.1935931624892624 -0.17339265818077398 55 54 58
1.2532842653462501 3.168518336919205 -0.17638765394559439 46 45 49
1.2597476764011009 3.152300218245669 -0.17529972777119238 45 44 48
1.294689818449045 3.1291425272389777 -0.17752681502124723 39 38 41
1.3177197762160917 3.10900522566241 -0.1783820763275725 34 33 36
1.3234948152439447 3.093117114586946 -0.17723441465649534 34 33 35
1.3531628685056807 3.0715303246467442 -0.1788834913175643 38 37 39
1.3561330177505788 3.056403619586797 -0.1774191246961431 41 39 41
1.3609217523544146 3.040864570226838 -0.17617031799104682 46 44 46
1.388117583618969 3.020092983575917 -0.17755836193795405 49 47 49
1.3114878151995897 3.0235993487412296 -0.16673236375844414 57 54 57
1.3411221813109373 3.002286876575452 -0.16841096257302465 52 49 52
1.352736714561821 2.9852172821976586 -0.16797338184565655 50 48 49
1.4006211251451335 2.959930822185617 -0.17183580051476288 61 58 59
1.3978842498970256 2.9462604594154085 -0.16971537270751266 74 72 71
1.3964772556925957 2.9322895797921418 -0.16775270596562702 86 84 84
1.3879855562621026 2.9198994944583583 -0.16494706204014187 95 94 96
1.3829193258060881 2.9067306898296494 -0.1625471892501389 92 90 94
1.3778487882892754 2.893553003741698 -0.16014556702115582 76 74 78
1.3591742717004154 2.8833276306992794 -0.1561148233864368 59 57 62
1.3520471163401258 2.8705518180379217 -0.15346132804811033 55 53 58
1.3318111050409827 2.8605696575365163 -0.14923156807023727 62 61 63
1.2887740127391538 2.855376873844373 -0.1422513365011852 64 63 66
1.2707995233815803 2.8447580190454524 -0.13827406483544566 55 55 56
1.2551314930557271 2.8336033286850615 -0.13456856395170758 46 46 47
1.2660818925473487 2.816875160666436 -0.13407624647415334 40 40 41
1.243609842763525 2.8070763634842333 -0.12954077225203758 41 40 41
1.2317046259080036 2.7950504229335307 -0.1262790124465929 56 55 56
1.2159102503811283 2.7837801664403155 -0.12254041152078268 53 52 53
1.1889459421998596 2.774709564173583 -0.11743596937436968 41 40 40
1.1364249428501363 2.770650422704534 -0.10920381645157365 37 36 38
1.1234122524178414 2.758614010975129 -0.10577791189319047 45 45 47
1.0974345137999344 2.749082589555076 -0.10076060856771246 49 48 52
1.0888582844968278 2.7360903108193453 -0.09786685536287043 44 43 46
1.0900454266044828 2.7211957844585393 -0.09616951735223589 39 38 42
1.0638817896690391 2.711536433143176 -0.09110880422983 40 39 42
1.057464505124403 2.698058733956135 -0.0884714691459352 39 38 40
1.0316235487924903 2.68821222773656 -0.08343467803489979 38 37 39
1.006231278277702 2.6782036856985023 -0.07844349199267456 33 31 34
0.9712404489388379 2.6698875364616526 -0.07225374904067036 35 35 37
0.9688345455375252 2.6555098754811106 -0.07009309290201443 44 44 46
0.9718972043808227 2.6401417166970362 -0.06861198284207379 46 46 48
0.9711339766267035 2.625477350478921 -0.06665681287973266 40 40 42
0.9739271711175934 2.610185870111895 -0.06514572083538755 40 40 42
0.9415203762062472 2.601107824803523 -0.059240149492895355 60 60 62
0.9157701667157538 2.5907689457577754 -0.054154821332752956 76 76 78
0.8716874297821284 2.583518791065461 -0.046762289953215797 75 75 77
0.862573819778288 2.570147731680095 -0.043741923620128395 62 62 65
0.8383661935237925 2.5593112273080587 -0.038820857792894334 52 51 56
0.766608895153148 2.5563794322078945 -0.02790212503413378 50 49 52
0.7832637421178431 2.538531305383444 -0.028107765084797773 42 42 44
0.7889462308511193 2.522550284189636 -0.02693481945416401 42 42 43
0.7637229140754955 2.511627369154215 -0.02185355973411296 56 56 58
0.7505000154355039 2.4986946909708 -0.018284109917232436 74 75 77
0.7363145083475965 2.4858794496510086 -0.014587889401594042 94 95 98
0.722645620109961 2.472943395496235 -0.010952442688816066 71 71 76
0.7083234172551729 2.4600718732542406 -0.007229051027178163 47 47 52
0.6907400040366379 2.447664780004924 -0.0030845400616227384 49 50 53
0.6941174744321972 2.4320019542773297 -0.0016126833958856196 85 86 88
0.750182661303913 2.4083873895234347 -0.0068880156297095735 165 165 164
0.719425208384775 2.397956187697662 -0.0010548835718107302 174 174 174
0.6948419599981152 2.3865176445050515 0.00399707059829893 174 174 174
0.6730302108586063 2.3746002308799246 0.00870172127517052 174 174 174
0.4891259621012886 2.386073892645594 0.03429869421413565 174 174 174
1.4852793421571824 3.2848134994924916 -0.21106255012477237 174 174 174
0.7279633027672298 3.457128220892414 -0.12011414948447764 174 174 174
0.8135445934261694 3.41896065974902 -0.1280470156129977 174 174 174
0.8868383041637199 3.3843111541540396 -0.13459481461511774 174 174 173
1.3372148338737604 3.2517803571149675 -0.18491219094149638 173 173 172
1.3252357069228513 3.240334049991429 -0.18169603407667026 157 157 157
1.3183908563934232 3.227535616335738 -0.1790734012720326 101 101 104
1.2546012437050682 3.2292512640172557 -0.16980741821034107 51 50 55
1.232216806161051 3.2202630866861717 -0.1653530161471107 48 47 52
1.232296764272954 3.205550628477719 -0.16351956041332316 52 51 55
1.2432025581747257 3.1881386742233095 -0.16295657948480127 53 53 55
1.2632312254320721 3.1685052411955286 -0.16347091510115166 51 51 53
1.2947125809911908 3.1461219480601956 -0.16534257879083838 48 48 50
1.3391989630735641 3.1206666184499365 -0.1687618879137247 45 43 46
1.377594832170188 3.096851015311105 -0.17148161852262125 41 39 42
1.378845805074739 3.082146896252408 -0.16982325890340225 35 33 36
1.3586911541205589 3.0725897211391966 -0.16562890656267482 33 31 34
1.3713584082503925 3.0551528340808307 -0.16532460757611986 33 31 32
1.358549874021727 3.0437918499803938 -0.16199587614146205 40 38 39
1.3770328271246548 3.0250462826907265 -0.1623918316880694 49 47 48
1.386801006168296 3.0084022627848923 -0.16175608462674626 55 53 54
1.3343221890958132 3.006206715821167 -0.15368067710651878 57 55 56
1.3501641259498551 2.9881424790074558 -0.1537695506400016 52 50 51
1.3941786941338572 2.9637127533736423 -0.15724737163355873 50 48 49
1.3981820299734489 2.9484976607594398 -0.15593401106156987 58 56 57
1.40806291796861 2.931982383920927 -0.15533116400809593 69 67 68
1.409160501323484 2.9174666657999957 -0.1536736363795132 85 83 86
1.4041189209239366 2.9043208414815855 -0.15127545486798366 94 92 95
1.3990721003009652 2.891166404926456 -0.14887541428471684 96 94 97
1.3903894289710248 2.8787948375215198 -0.14603316324259824 90 88 93
1.377893388072351 2.8672262361005836 -0.14272483746133047 72 69 75
1.3629116079509538 2.8561564432901094 -0.1391096156101512 53 53 56
1.350985815364206 2.8443927380304705 -0.13586157562528872 53 53 55
1.3323982736489728 2.8340038495316904 -0.1317958263697585 60 60 60
1.3162517634620623 2.823048179101612 -0.12802180250202075 55 55 55
1.3014366838933018 2.811768770100072 -0.12440506613354602 44 44 44
1.2844438230373854 2.800896198662061 -0.12051567041382757 38 38 38
1.2708590247743259 2.7892767039945614 -0.11703913716194247 42 42 42
1.2435840500567696 2.78039712437421 -0.1118714663301254 42 42 42
1.2059803721158446 2.7735123282003675 -0.10541882043931172 38 38 38
1.1751136335406518 2.7651645575916963 -0.09978400213142816 34 34 36
1.1815150622369561 2.7493450266115698 -0.09875126175559043 34 34 36
1.104182397251363 2.749986748788443 -0.08733764973252409 42 42 44
1.0974271300018812 2.7366448863254744 -0.08466017119559954 46 46 48
1.0946608846106949 2.722518320677624 -0.08247716558109008 40 40 42
1.0933983480068017 2.7081023098070305 -0.08048135481152252 37 36 38
1.0897346092357698 2.6941446624711727 -0.07818613996961418 36 34 37
1.0559705151102783 2.6858384890276934 -0.07212589959532653 33 31 34
1.0351340760082686 2.675019503348004 -0.06767194662086432 28 26 29
1.0178042987965215 2.6634912899175465 -0.0636502391479212 25 25 27
1.01135748749841 2.6499220580495026 -0.06099008873563999 28 28 30
1.0135633388662995 2.6347703623470684 -0.05941751630884334 35 35 37
0.9992725797911576 2.6225962489757983 -0.055766490574982314 37 37 39
0.9919473480228571 2.609142594938192 -0.052990275439576406 38 38 40
0.9717421729758213 2.5979425812087067 -0.0485823572244998 48 48 50
0.9477519458992973 2.587343929285053 -0.04368728654509238 63 63 65
0.9055552360997534 2.5798223598463235 -0.036472100993509185 56 56 58
0.8736251696366426 2.5704095869240846 -0.0305456581496817 49 49 51
0.8459500658475378 2.560176637603297 -0.025148766218261023 51 50 54
0.8402760800034347 2.5461632688061835 -0.02254777554599173 54 53 57
0.8110618989040244 2.5360545421129856 -0.016937708497885104 48 48 50
0.779271211453892 2.5262810531739697 -0.010986738280630196 41 41 43
0.7698189447112632 2.512767826798604 -0.007886905902554017 42 42 44
0.7560565207272909 2.499926532113976 -0.004230725043712538 65 67 66
0.7434555539650843 2.4868617882286728 -0.0007191472131451715 84 85 86
0.72803032446318 2.474209490290951 0.003160474295666363 88 87 91
0.7108883452228192 2.4617824279535863 0.007267008954659364 54 54 59
0.691845260331722 2.4496006833499293 0.011625339091810606 44 45 49
0.6850906462010511 2.4354817678279854 0.014400184018289186 57 58 59
0.7506907125105926 2.4103861883279842 0.0077975853909050125 121 121 120
0.7235901174524568 2.3994059769342937 0.013202813863750731 174 174 174
0.6990609111267514 2.3879629963540383 0.01828389569866895 174 174 174
0.6765713410359909 2.3761479279315205 0.023108492390032515 173 173 173
0.6226634465492638 2.368819801437135 0.032040070658848584 174 174 174
1.4225442811842548 3.318642198694937 -0.1918072691657538 174 174 174
0.8316719698616369 3.447724602807876 -0.11919394926483065 174 174 174
0.787665128240224 3.4439716417001143 -0.11211265066797532 174 174 174
0.8955732904491498 3.399977941082207 -0.12281753394476844 174 174 173
0.9769212943900134 3.3633250768102605 -0.13045097801995154 174 174 172
1.0577263828799013 3.3270983669582606 -0.13805620064135748 160 160 160
1.276098337906698 3.2555454104546833 -0.1619071532799807 108 107 111
1.3023139896217089 3.234155207108564 -0.16316816127604408 56 55 61
1.2915561626136371 3.22230632932254 -0.16006870429920744 43 42 48
1.250693474894185 3.2180673776876425 -0.15339894244865546 46 45 49
1.270136414451302 3.1984969546393183 -0.15387022680242482 51 51 53
1.2783526764733297 3.1818105929152534 -0.1530158563180912 55 55 57
1.2929565210659015 3.163571181326991 -0.15292673709864046 53 53 55
1.3222306647251574 3.14176565499539 -0.15459525816903677 52 52 54
1.3698989156627466 3.1155552099920936 -0.15847587800031016 50 48 51
1.394563037881491 3.0951167939704156 -0.15962292988414048 48 46 49
1.3928879510675884 3.081140159197482 -0.15762169913654314 45 43 46
1.3900285472977592 3.067449587001102 -0.15547834747614134 32 30 33
1.3937932461940123 3.052176764191191 -0.1541321261468612 32 30 33
1.3930838904137661 3.0379834267473305 -0.15224885869141494 35 33 36
1.3892077723457268 3.024539515147694 -0.14998363417980004 43 41 43
1.3971007268237239 3.008342488509093 -0.14914194458116564 48 46 48
1.4024956984484775 2.9927582403803505 -0.14800166891099328 52 50 52
1.3455539734921917 2.991540442593398 -0.13929440326738798 50 48 51
1.396606648532031 2.965475031745905 -0.14370164808940006 46 44 47
1.405260450303377 2.949200188693401 -0.14296452593082074 47 45 48
1.4205858396275808 2.931460589464895 -0.1430463758798936 63 61 64
1.429766284223468 2.915152073157336 -0.14238416045331448 81 79 80
1.425523796105468 2.9018566475002676 -0.1400824803425761 90 88 90
1.4148346106329215 2.8899721095391393 -0.13698887207542865 88 86 89
1.4100937360554955 2.8767604482950806 -0.13462280073527338 81 79 84
1.4041939605195783 2.863791044787651 -0.13211294352991332 80 77 83
1.3965649138942453 2.851180649154928 -0.12938822362105684 73 72 75
1.3847840896551142 2.8394371324150787 -0.1261482622461831 62 62 63
1.3736409522577255 2.8275263591644015 -0.12298316896106834 51 51 51
1.35631956146051 2.8168821110608313 -0.11904840703397493 55 55 55
1.3487195245205787 2.804162938050138 -0.11631442894279151 55 55 55
1.3314174585901624 2.7934292826156266 -0.11237137850915618 45 45 45
1.3207184142035246 2.781292207711536 -0.10924467696000165 36 36 36
1.2621158432119226 2.7788598213355056 -0.10013584884715745 32 32 32
1.2354749543634655 2.7697979431112705 -0.09499902008410069 34 34 34
1.2016069575185422 2.762098529494627 -0.0889469541399156 35 35 37
1.1967467015528994 2.7485447330424373 -0.08652011931386658 34 34 36
1.1754688904592479 2.7382080592528357 -0.08202945337069448 39 39 41
1.109949660960096 2.736427290765898 -0.0719630470129061 40 40 42
1.1027711122394834 2.723165923704962 -0.06922452174189736 40 40 42
1.1026746173258455 2.708531780003653 -0.06737815012646764 36 35 37
1.0994574042813232 2.694497070767804 -0.06513796341084938 34 32 35
1.0915724388314747 2.681337293590467 -0.062306024169354324 31 29 32
1.063026747029312 2.6720118218094915 -0.05685002503810657 31 29 32
1.0548794960438084 2.6588283359303677 -0.053975712671353954 27 27 29
1.0468004421836576 2.645612619453065 -0.0511076115548357 25 25 27
1.0545263021850118 2.6295086523542013 -0.050252466994555406 29 29 31
1.04374894838863 2.6167655013016446 -0.04703813291390721 32 32 34
1.0290774647779255 2.604687795125807 -0.04332205078822607 35 35 37
1.004921583430743 2.594243005413108 -0.03838545491521281 41 41 43
0.9838683406807525 2.5831828732584556 -0.033837966574864126 49 49 51
0.9449080918947153 2.575161993307481 -0.02698060916077369 39 39 41
0.9122349209574581 2.565940790340103 -0.02091755703868317 30 30 32
0.898548450043259 2.5533929657690058 -0.01729061294768612 39 38 42
0.890787283984643 2.5398103736917297 -0.014424345939389585 45 44 48
0.8370169238059364 2.5338740685475365 -0.005602886715829536 45 45 47
0.7998904177665167 2.525022214216483 0.0010829922310054835 40 40 42
0.7865883275949871 2.5121650432688347 0.004690911032712561 37 37 38
0.7723258245212642 2.499426648995016 0.008428252330744901 60 62 60
0.7577754575605709 2.486694708627909 0.012208033902084955 74 76 75
0.7331765297611903 2.47551319082016 0.01730341451781113 80 80 81
0.7162971467802975 2.463048565188267 0.021399641383582663 61 61 63
0.697057530798558 2.450901707260332 0.025810687920666826 48 49 50
0.6861407274130373 2.437422437472948 0.029138118609849835 45 45 46
0.6847333697169171 2.4224718820954805 0.031221039745017734 71 69 70
0.7277559961406679 2.400856019411228 0.027463229210046278 160 159 159
0.7034944699865973 2.3893768704260507 0.032545176106523716 173 173 173
0.6812295950937428 2.3775323243046644 0.03737288937116206 173 173 173
0.6304451823617419 2.3697616856993187 0.04597536352099008 173 173 173
1.5479313274163382 3.301433880321083 -0.19450847065474258 174 174 174
0.899579728939305 3.4322338939397063 -0.11239943733256971 174 174 174
0.9623562900450104 3.4002010059982197 -0.1179299866547548 174 174 174
0.9700112037700723 3.3829557757574893 -0.11693792841856462 174 174 173
1.0646492987599419 3.3429073958448403 -0.12630516439169584 162 162 160
1.1595878069332035 3.3031107366302637 -0.13574946416414505 111 110 112
1.2753932125977325 3.258237501277166 -0.14772811221804996 59 58 63
1.3030951306986194 3.2364470286345766 -0.14921228354357685 42 41 48
1.3308046951865626 3.214756249360856 -0.1507100705285755 44 44 49
1.304884237972158 3.20679109548931 -0.14577906912700564 47 47 50
1.329280066866335 3.1860485072161264 -0.14689213437329324 49 49 49
1.3373671925958814 3.1694837759982146 -0.14605071990016513 58 58 60
1.3565246551460266 3.1501979692954034 -0.14655035317862122 62 62 64
1.3721777012021066 3.1318509607107807 -0.1466351371024634 61 61 63
1.3837918298117224 3.114556118509642 -0.14623807269880953 54 53 55
1.409581465558444 3.0938511480594655 -0.14756748179620557 50 48 51
1.406160113160771 3.080314660924915 -0.14535686371184142 49 47 51
1.4086030497018338 3.0653636660144175 -0.1438600027925295 49 47 51
1.4176399136873972 3.0488537116496426 -0.14316964569324742 40 38 43
1.4245938083815497 3.0328754224825203 -0.14222941794467284 33 31 36
1.4229218512056612 3.0189583829221043 -0.14023689690397295 37 35 40
1.417304215565568 3.005965058948251 -0.13776063830362806 39 37 42
1.4193121916896088 2.9911907014973895 -0.13621979741700996 40 38 43
1.3975076742688053 2.9819151106473853 -0.13175007442942305 38 36 41
1.407010342172291 2.9654149594612362 -0.13113167259324238 31 30 34
1.360392030123196 2.9616912135954623 -0.1235876547483831 31 30 34
1.3698140676691128 2.945193171536913 -0.12295727298848674 42 40 43
1.387614268969777 2.926860855415163 -0.12336992982616521 60 59 59
1.443590873981359 2.9001241558082143 -0.12852957861101894 77 76 76
1.4402714829622492 2.886641383063253 -0.12634115345670693 68 66 69
1.4350476376626726 2.873570811324729 -0.12391503995018815 41 39 44
1.4324437598808637 2.859921672998599 -0.1218144789021467 41 38 44
1.4282727500618768 2.8466081616601144 -0.11951788429914406 58 57 60
1.4187369982072002 2.834433176732385 -0.11654890878548885 68 68 70
1.4090246942872153 2.8222707358394303 -0.11355469162135068 67 67 68
1.3943502363574032 2.8111256391589174 -0.10993408585444159 57 57 57
1.3806530685315663 2.799734760422369 -0.1064311726064697 53 53 53
1.3673196178627598 2.7882299269576056 -0.10296925219201722 57 57 57
1.3573553944535595 2.7759965134233555 -0.09992791547139243 49 49 49
1.3141785976552902 2.770493787896286 -0.09268423269573697 40 40 40
1.274174234665555 2.7642136459977498 -0.08582515020663095 40 40 40
1.2376692093839456 2.7571066962247905 -0.07939413669748938 45 45 47
1.2065909276553168 2.748808136103092 -0.07363828707598447 45 45 47
1.16686295187454 2.742114861449573 -0.0667695607115466 44 44 46
1.1197351319045912 2.736739784000554 -0.05894187695156486 41 41 43
1.1107565349539659 2.7238360346589863 -0.05596645955376106 40 40 42
1.1086969704384568 2.709582969988243 -0.05387310255215402 37 36 38
1.095269632236306 2.697491175762414 -0.05032359729923552 39 37 40
1.107007056346836 2.6806205934940266 -0.04999825718451292 37 35 38
1.088317414756795 2.6694786522485354 -0.0457683551748648 31 30 32
1.0796305116581766 2.656430480826927 -0.04281918789096109 30 30 32
1.0622622290736858 2.6449530723693084 -0.03874801969185809 30 30 32
1.0584921322883518 2.6309536948028045 -0.03642661769167216 30 30 32
1.066426947974976 2.6148411697497678 -0.03561856914085723 31 31 33
1.0362502226560821 2.6055626612581415 -0.029877193561433285 34 34 36
1.036734922604666 2.590771228357976 -0.028102915733338146 36 36 38
1.021934019952139 2.5786654389630064 -0.024343091514041376 38 38 40
0.9785817394113141 2.5714701722526048 -0.01686131486031925 32 32 34
0.9401094510484443 2.5633001403939213 -0.009998770202386667 28 27 30
0.9272314122027686 2.550655476474096 -0.006463604566858669 28 27 32
0.9233546956380354 2.5364590317960127 -0.0041013933758834165 33 33 36
0.8693239830145405 2.5306240291468876 0.004831926474021406 37 37 39
0.8609707867152958 2.517073135184688 0.007793226225134703 37 37 39
0.8529008778554756 2.5034557486048468 0.010719816701015433 34 34 36
0.8451449197963985 2.4897683264225416 0.013607484407512457 56 57 55
0.7696019897325954 2.4869227754709047 0.025433884126063913 65 66 64
0.7531766233291076 2.4744616636256906 0.029484767068586576 42 42 42
0.7242166023299218 2.463920604527695 0.03519911977924488 36 36 37
0.7015505255396722 2.4523143364209847 0.04009083628119689 50 50 50
0.6897332563478145 2.4389744077697326 0.04355178672747325 49 47 48
0.7528100187885789 2.4142223164776953 0.03706607093374141 50 48 50
0.7308114308649242 2.402473372499108 0.041874256118712816 128 127 128
0.7078858129106155 2.3907973024908995 0.04681410324038694 174 174 174
0.686637879018571 2.3788066375394896 0.05153850238983339 174 174 174
0.5921039401830132 2.3774074048143996 0.06606792797151599 174 174 174
0.5363144160604328 2.370136155460158 0.07544774543758165 174 174 174
0.9745998920990688 3.4605019456589257 -0.1123628419842123 174 174 174
0.9835943077673474 3.4428194132208887 -0.11153843906742349 174 174 174
0.9911945234665986 3.4255513258659005 -0.11055176078137359 174 174 174
0.9851086479994955 3.4119841981790726 -0.10792630522402473 174 174 173
1.0619410672310576 3.376327082618976 -0.11527098034031259 173 174 170
1.0736647636855436 3.358163903961743 -0.11480547485179926 165 165 161
1.1619010319111416 3.3199379217043092 -0.12357985254322804 118 118 119
1.2270120383797396 3.288059107278599 -0.12959688470478176 73 72 77
1.2823840445219072 3.258936248549118 -0.13446302124041412 51 50 54
1.3223877695694544 3.233970254370142 -0.13748908057296516 42 42 44
1.3226740072059424 3.2193165680049054 -0.13570599158424015 42 42 44
1.333732542428618 3.201931573819116 -0.13523543683017505 44 44 46
1.3623610000943427 3.180152943786528 -0.136913293537044 45 45 47
1.3721011309875188 3.163218556411384 -0.13629660332412705 51 49 52
1.4009615809109244 3.141559256794749 -0.13802493865642682 56 54 57
1.3956037630532725 3.1284753531796783 -0.13557145592983574 70 68 71
1.4123236616066144 3.109953091438796 -0.1358278766674542 71 69 69
1.4439144870757408 3.0878642454465854 -0.1379216485266586 59 58 59
1.4384032506646995 3.0748849508769416 -0.1354576654234873 51 47 53
1.4498239864002138 3.0578178420526365 -0.13508232624041294 53 48 56
1.4582114358982337 3.0415217776885557 -0.13433764490805078 53 51 56
1.434535424418319 3.0328720925192965 -0.1296259839364326 42 40 45
1.4448911260486916 3.0161291318246692 -0.12912762364024838 32 30 35
1.4375252519161692 3.0035749766321027 -0.12643204165318173 34 32 36
1.4303242333979467 2.9909648509671563 -0.12375477935822249 34 32 35
1.4228806376183725 2.978393559735008 -0.1210451340162727 31 30 32
1.4163880850576047 2.965586646652711 -0.11845205462689162 26 26 28
1.3984994356309945 2.9553545881305894 -0.11443120883546454 27 27 29
1.3971841567052339 2.941331387046623 -0.11248096630752402 31 31 33
1.4187194779422567 2.9221956626693486 -0.11339985570223982 37 37 39
1.458893047471459 2.8989987650643734 -0.11667254868782229 47 47 48
1.457082441628402 2.8852014786262603 -0.11467446225743327 59 59 60
1.4553719441457078 2.871383353646957 -0.11268913990382001 43 42 45
1.4597647733841552 2.8562414372991745 -0.1114753592262463 25 23 28
1.4565505897522542 2.842760337480021 -0.10930130753203243 20 18 23
1.448390321675666 2.830332879324739 -0.10649961765452504 27 25 30
1.4382902072950032 2.818296566318418 -0.10344901475407797 47 46 51
1.4292972817239193 2.806000527480943 -0.1005359339913317 60 60 63
1.4206040314152033 2.7936189074680664 -0.0976581699396673 57 57 57
1.4066650825155018 2.782301415211087 -0.09410809755713795 52 52 52
1.393005523490962 2.770886968037023 -0.09058881090197968 53 53 53
1.354925715576218 2.764408351160354 -0.08393749053223457 50 50 50
1.3094753661071143 2.759298428789775 -0.07632576543755654 43 43 43
1.2727616455231532 2.7522931586476806 -0.06981841633127617 45 45 47
1.2258200740139695 2.747204370910899 -0.061980489523601495 46 46 48
1.1784738047817873 2.742045604776235 -0.054071734607343325 45 45 47
1.0980384776149772 2.7431994486997744 -0.04187232255627449 43 43 45
1.10359107514873 2.7274388169800696 -0.04075937402159174 43 43 45
1.108518006801475 2.711824226490066 -0.039568621730953185 42 42 44
1.098288748398577 2.699118125989487 -0.036414692173847546 46 46 48
1.0888927775836985 2.686228054982379 -0.03336569813922932 48 48 50
1.0716229074426846 2.6747864093461224 -0.02928899697932802 42 42 44
1.0772524728167157 2.659050631034354 -0.028190958320845116 37 37 39
1.04966477282229 2.6494418188503546 -0.022759442358264548 36 36 38
1.0559774866211646 2.6335786418468907 -0.02175035283095511 35 34 39
1.05323460654092 2.6193769054696534 -0.01955877684758947 33 33 36
1.0435105853338755 2.6064207689066214 -0.016451204537889647 35 35 37
1.0326280433006585 2.5936447515042294 -0.01318830757408851 37 37 39
1.0395338072172704 2.577720735434199 -0.012262639683018106 34 34 36
1.0071257063863572 2.5686555178471515 -0.006159180026548583 30 29 34
0.9769757498753211 2.559101637362372 -0.0003413196292073317 27 26 31
0.9651601691267121 2.5463314289635366 0.0030640333341677706 25 24 29
0.9574487313102179 2.5328370120824295 0.0059298754231480455 25 25 29
0.9113374594238812 2.5257395167534606 0.013890832479756213 29 29 31
0.8906553475908536 2.5142906288322986 0.01849206510397579 32 32 34
0.8783886748396181 2.501402697878507 0.021981318366386213 33 33 35
0.8667941014071429 2.4883726870175025 0.025385148493906343 46 46 48
0.8475983102989226 2.4765313344181004 0.02980722877341513 36 36 38
0.8240229939966496 2.4653294097696175 0.03482164934212019 26 26 28
0.8131528028378905 2.4520606290881286 0.038144088455708436 29 28 31
0.7053758874129987 2.453831036812974 0.0544623547332967 46 44 46
0.6968638284739264 2.4399827787091573 0.0574951735648028 50 48 49
0.7544200741777141 2.416059332496285 0.05164559266716813 45 43 46
0.7328220871625457 2.404248907522222 0.0564324479573277 103 101 105
0.7117204462090354 2.3923009245404527 0.06116028669264525 174 173 172
0.6896839210504617 2.380428622124936 0.06602215307942587 174 174 173
0.6454144208993255 2.3717283679200487 0.07390031058682084 173 173 173
0.597976115329343 2.363346154997536 0.0822250866522922 174 174 174
1.0063358663487758 3.484919130945281 -0.10534717854347155 174 174 174
0.9946350480458457 3.4729258163425 -0.10204044036588876 174 174 174
1.0075561339777894 3.454169011485271 -0.1017101719112218 174 174 174
1.0507719522141026 3.427233938774598 -0.10506000217950968 174 174 174
1.05961604080154 3.4097334078095676 -0.10425384311371272 174 174 173
1.0616759785354595 3.394090652691789 -0.10262684752675805 173 173 172
1.0936851551544482 3.370479773795945 -0.10465252415067672 166 166 164
1.1585838057062459 3.3382754399325263 -0.11070899712602653 128 128 126
1.3297420041532935 3.2783398689241507 -0.12979224708840073 74 74 76
1.3115180254130505 3.268505206270349 -0.1257425813792422 58 57 63
1.2923932409453431 3.2588497942027335 -0.12157553437571922 50 49 55
1.336438053905181 3.232837681149364 -0.1251687581684799 48 47 50
1.3507900828609376 3.214593735624669 -0.12512419697632512 44 44 46
1.3613728032649508 3.197365748264311 -0.12462155517677406 40 40 42
1.3933315283627368 3.1747748455576583 -0.12676632382159714 41 41 43
1.4023616739369373 3.1580599364655924 -0.12608677083155995 49 47 50
1.4071994662111722 3.1424290914751123 -0.12489201128436497 53 51 54
1.4241313617499065 3.1238248731465674 -0.12520267406399677 58 56 59
1.444533478099451 3.1044313508498247 -0.1259532412869679 69 67 69
1.436661330058334 3.0920251944984396 -0.12318883440260336 75 73 75
1.4381514950367003 3.077327115777263 -0.12159103162270463 64 60 65
1.4411219490688705 3.0622845500898586 -0.12017990865780634 54 49 55
1.4433912805378661 3.047427104698206 -0.11868309906996716 55 53 56
1.4530757523323787 3.030822421079461 -0.11811872593020617 61 59 61
1.4639120763674558 3.013985969736849 -0.11770412846421241 38 36 38
1.4592991992267446 3.0008125375730534 -0.1153496555740211 32 30 32
1.4521814994562052 2.988213262114269 -0.11267820908933635 30 28 31
1.437861937240755 2.9772599057493103 -0.10909479143993922 26 25 27
1.4016532662212817 2.971282181147227 -0.10273620813492004 24 24 26
1.3894551951145115 2.9597269358058877 -0.0994068712226921 25 25 27
1.4260353134341541 2.9371228678349475 -0.10226662812375964 30 30 32
1.4303789416427133 2.921874572863284 -0.10104284055760465 31 31 33
1.4760436819513094 2.8974564822889386 -0.10508560575346226 32 32 34
1.472171796177634 2.8841351337883454 -0.10282763110894272 46 46 49
1.4750540502492884 2.8693282309045522 -0.10143215469194233 53 53 55
1.4767699775279608 2.854791731771958 -0.09988946554491518 40 39 43
1.4740035927840365 2.8412350319697883 -0.09777363311896192 24 22 27
1.4702419136111453 2.8278891892754867 -0.09552970009433254 13 11 16
1.4654134372009069 2.814764371437784 -0.0931478439028568 12 11 16
1.453237867762562 2.80317827515464 -0.08981815748546884 21 21 24
1.4420444602920512 2.791353167684765 -0.08661103204769177 46 46 47
1.430828547384082 2.7795022990130676 -0.08339721129498112 57 57 57
1.4213785970040926 2.7672578053314227 -0.08040825470168489 49 49 50
1.3887717999779734 2.7597118442154462 -0.07441306853514287 51 51 51
1.3428747874312443 2.754752181184565 -0.06667881860706504 48 48 48
1.3088561521398523 2.747263056067048 -0.06047177475428209 46 46 48
1.2710736077704512 2.740416041319079 -0.05376096978258943 49 49 51
1.2538514458441234 2.7293940287719245 -0.04971891131363318 49 49 51
1.2250603510072224 2.7205844654087743 -0.04415818559029813 47 47 49
1.0740104421408854 2.7353944434422557 -0.02257810449549591 47 47 49
1.0848469588055556 2.718584385254349 -0.02216682099402606 47 47 49
1.082352972966836 2.7043584479586418 -0.020009955634679222 48 48 50
1.0902882620064542 2.6881613537982494 -0.0192250579205816 47 47 49
0.9882600134844223 2.6925881872003683 -0.003954655143174168 44 44 46
1.0782268366182655 2.66105224512326 -0.013981546739106065 41 41 43
1.0431177111784233 2.652826453293177 -0.007513740391200563 41 41 43
1.0428463660708918 2.638142040726771 -0.005644485689049766 41 40 45
1.046840396766944 2.6226938670150255 -0.004341616158725581 40 40 43
1.040484376956128 2.609118182777639 -0.0016667869228549625 38 38 40
1.0412112559877185 2.594273255784987 6.764875076745169e-05 37 37 39
1.062315798629972 2.5758599325687603 -0.0009138076751316893 35 35 37
1.0412253643693656 2.5648631769837182 0.0037249501519746597 30 30 32
1.0096072209028852 2.5556173729317853 0.009778339655071355 29 29 32
1.0063360190398998 2.541437637671351 0.012049976801950635 29 28 31
0.9993051476920146 2.527889645055963 0.014826007699505872 27 27 29
0.9397873647484125 2.5231066049918307 0.024650414906027138 27 27 29
0.9076615367575642 2.513596514674169 0.03081541469333665 30 30 32
0.8891755865471767 2.5017507231036324 0.03515594787454586 31 31 33
0.8807954616709215 2.4882107143003114 0.03814021028577924 29 29 31
0.8650053067569176 2.475841028706437 0.04212790210635936 24 24 26
0.8317499719724566 2.4662038952320406 0.048483859275022884 26 26 28
0.8242923487487297 2.4524045728026604 0.05135733829112282 29 28 31
0.7186816283945674 2.453872065577565 0.06755149492125911 37 35 39
0.6995459803212292 2.4416755506233425 0.07203641534452358 43 41 42
0.756031053611204 2.4178977709332967 0.06623609791255672 41 39 43
0.7408345390955481 2.405120963129184 0.07018239371192302 85 83 88
0.7060555648341532 2.3952216306503455 0.07680724271519745 172 170 170
0.6754413706670718 2.38460103618319 0.08287601747938102 173 173 172
0.6481108446368767 2.373408323011214 0.08850679168603856 173 173 173
0.6235470239194902 2.3617343106876962 0.09376842864608165 173 173 173
1.033949437805334 3.4951376259744142 -0.09599709842042839 174 174 174
1.1678344661366244 3.442855230420353 -0.11048180862114029 174 174 174
1.1901414308004767 3.421767324135122 -0.1113581754279814 174 174 174
1.2893330092645399 3.3797214555280526 -0.12167828023233845 174 174 174
1.3225918790919535 3.355954475017213 -0.123937906387342 174 174 174
1.0959761993855932 3.402542541196859 -0.09421702225219136 174 174 172
1.1360527230534463 3.376742816675258 -0.09729241375491457 166 166 165
1.1780800921007213 3.3505671424285604 -0.10062677866145608 131 131 132
1.284056122034157 3.307587694917774 -0.11189394076343542 71 71 72
1.3077783084263914 3.286645487306097 -0.11301013756857975 63 62 66
1.303613994686978 3.2730901608141907 -0.11067437450038528 58 57 64
1.322593213072004 3.253510406948151 -0.11121663155442257 55 54 60
1.36043368680184 3.2291307339389492 -0.11411802010826805 54 54 57
1.3738278411409266 3.211160500409349 -0.11398507834921079 54 54 56
1.3880196748637585 3.193039927241389 -0.1139584479771194 45 45 47
1.4159690178374795 3.1714915925729286 -0.11566168761352316 42 41 43
1.4258944724021632 3.15457871133431 -0.1151165712159119 43 41 44
1.4357913628189447 3.13771402821157 -0.11457296461541963 49 47 50
1.4418502437096965 3.1218424948072707 -0.11355134720296872 55 53 56
1.4433402595261196 3.1071246084499835 -0.11195713894072898 60 58 60
1.4403254900798266 3.093521398616745 -0.10979554051207716 75 73 74
1.4508420303250795 3.076627001782845 -0.10934533090288717 81 78 79
1.4351460870694854 3.0661009394737926 -0.10557896370116379 74 70 72
1.4423325205159463 3.0500458974621907 -0.10471122334098257 57 55 56
1.454249959637829 3.032896846081281 -0.10444888384070672 62 60 61
1.45897901582372 3.017493511670882 -0.10327705013853228 59 57 58
1.4598342591235318 3.003021968653456 -0.10161397648367482 33 31 34
