ply
format ascii 1.0
element vertex 731
property float x
property float y
property float z
property uchar diffuse_red
property uchar diffuse_green
property uchar diffuse_blue
end_header
0.489673548731383 3.237225624491791 0.5212063014057043 14 14 16
0.48088752419257785 3.256167366700553 0.5190258228121232 20 20 22
0.44135298606841866 3.2898400079772334 0.5169321663701335 25 25 27
0.462974154955062 3.2940388897837196 0.51469209661047 28 28 30
0.44348163240966665 3.3179118900259548 0.5125714838256014 29 29 31
0.49874830233859646 3.306171553583922 0.510209533911984 27 27 29
0.539857117091678 3.3013239850658733 0.5078710845384067 25 25 27
0.7857122839846984 3.84329890582125 0.4084189957247889 78 78 78
0.8611332000283497 3.828342077818868 0.4050363061337547 120 120 118
0.49698154926505955 3.1770675395641197 0.5432661390843977 20 20 22
0.5025185537959556 3.2039506511418123 0.5388176696344718 14 14 16
0.4973484571467206 3.221236273759691 0.5365951566705315 12 12 14
0.49058692662068515 3.239248795096055 0.534379564502208 13 13 15
0.48340375364927246 3.2574142233275776 0.5321717751068135 21 21 23
0.4487053555681847 3.288752595450615 0.5299926094371238 25 25 27
0.4686813311625748 3.293759196852025 0.5277800867712649 28 28 30
0.4498818513175422 3.3173050660385233 0.5256115907156947 28 28 30
0.47399958365591977 3.320380519006681 0.5233869790259098 27 27 29
0.5423124013153705 3.3026362641509803 0.5210654364906037 26 26 28
0.5975566202674512 3.291290444966445 0.518736153984762 24 24 26
0.7629542957780138 3.8545864080970804 0.42191761182648463 69 68 69
0.82865699498354 3.843352726522788 0.41880739087087093 103 102 102
0.4998467317610237 3.2077287359081788 0.5520300617620052 15 15 17
0.4979400860508859 3.2234186903502104 0.549794740129605 14 14 16
0.4906225152503001 3.241697810764961 0.5475553305314115 14 14 16
0.5036827576519587 3.2500958660072357 0.5453509888213056 22 22 24
0.48305600184373765 3.2747026105949004 0.5431077091011608 26 26 28
0.4761997601264475 3.2926170685169804 0.5408904029157553 28 28 30
0.45283910625088786 3.318342666739733 0.5386736790008031 28 28 30
0.44920190118978176 3.334596337839325 0.5364770135751354 27 27 29
0.5447883444246642 3.3039405452325736 0.5342691839629757 26 26 28
0.5859992254426398 3.2992178538875643 0.5320332723572603 25 25 27
0.7406093720989253 3.8656996170846725 0.4353333457079834 54 52 53
0.7994141279853423 3.857098478584991 0.43242437757619734 66 64 65
0.8799253557716356 3.840380098907333 0.4291887422870899 137 136 135
0.4948482752349709 3.212640450260658 0.5652242038739432 15 15 17
0.495737833411103 3.22695933224349 0.5629867181459371 14 14 16
0.4891216674001686 3.2448905500177765 0.5607266445482952 17 17 19
0.5096558351547159 3.249686183538118 0.5585587198532825 23 23 25
0.5045695639237872 3.266837218454684 0.5563099158456677 26 26 28
0.5028466449848072 3.282336828907054 0.5540762037735836 28 28 30
0.4556733772977526 3.3194409058013603 0.5517466910144097 28 28 30
0.44788716051632993 3.3376641411616883 0.5495242782570636 28 28 30
0.5696745688274701 3.309378685991619 0.5452837622619552 25 25 27
0.4227495705083255 3.62012560298594 0.508378746071677 8 8 10
0.7709783556697379 3.870515170951669 0.44593228537503515 54 52 54
0.858151864359164 3.8512201416939096 0.4427524893560171 89 88 88
0.4985878923198257 3.2132880830680843 0.5784519270647794 16 16 18
0.5013087924136448 3.2267237885056512 0.5762143095824427 15 15 17
0.4939000666774872 3.245045604753783 0.5739259411530898 18 18 20
0.5163551288273742 3.248930849140172 0.5717920063242625 24 24 26
0.5082055923280977 3.26756118185085 0.5695073784908294 26 26 28
0.4729696003892202 3.2990736389100666 0.5671150169047775 28 28 30
0.4478670221225014 3.325602648048525 0.5647880044828073 29 29 31
0.44657334271057325 3.34073075476188 0.5625675289690716 28 28 30
0.4092249392634455 3.600396256446614 0.5254934283630179 10 10 12
0.41068403613135773 3.6137880650736176 0.523349096539077 9 9 11
0.42649348379718344 3.6208969049127786 0.5211791144271756 9 9 11
0.8153524287825601 3.870083661966779 0.45645819242835506 73 72 73
0.6831220876164776 2.7080865694178122 0.6571459237574784 43 43 45
0.47153733554591204 3.0806172329978785 0.6142105970589912 34 33 38
0.502723260114558 3.2137455030910775 0.5916967176371072 17 17 19
0.5068096801111335 3.2265261040793125 0.5894619860092413 16 16 18
0.5180972240296904 3.2358190624147647 0.5872787280638582 19 19 21
0.5252922785164452 3.2471030400616385 0.5850648444660554 25 25 27
0.5155174821844763 3.2665258208994796 0.582741934474159 27 27 29
0.4595169174178879 3.3079508746571213 0.5801477718870669 28 28 30
0.4486306464710915 3.3276856335559577 0.5778516330661263 29 29 31
0.44752661144300254 3.3427234618102317 0.5756191604709344 29 29 31
0.41530740426266055 3.600123743494667 0.5383006689907551 10 10 12
0.4219130857002735 3.611270603379406 0.5361473878585804 9 9 11
0.437409651923679 3.618541196218053 0.5339917396316429 13 13 15
0.7954322632781393 3.880181140371723 0.4698221277625009 70 69 70
0.870310449088722 3.8657958395680594 0.4670013191633719 103 104 100
0.5188208739614799 3.193562742713166 0.6073532005064675 21 21 23
0.5028705939773225 3.21614779331584 0.6049195260726282 19 19 21
0.5123240608699796 3.226325684197248 0.6027301322352375 18 18 20
0.5224435605374728 3.2361959235300546 0.6005444244236006 20 20 22
0.5324688156214814 3.2461281243847964 0.5983553547264695 25 25 27
0.5324346768896653 3.2608947558385464 0.5960816636465496 27 27 29
0.44646071287307676 3.316630137237916 0.5931363490557918 28 28 30
0.45428174182588366 3.3274476618651367 0.5909555554294691 30 30 32
0.45532142059207203 3.3414806781235775 0.5887244278655513 29 29 31
0.45990770994941055 3.353823946140703 0.58652086740749 28 28 30
0.5042477837811029 3.3475144163358923 0.5845819927009904 26 26 28
0.428033326650924 3.5969331576997066 0.5511440921265235 12 12 14
0.4367349732271626 3.6071872197337616 0.5489923223367582 12 12 14
0.7981488097550692 3.88162732851871 0.48296355641198374 69 69 70
0.855135457772901 3.874064539464859 0.4803874761939041 78 79 75
0.6128699831254496 2.7825889602327525 0.6786095937323395 41 41 43
0.5144990433323536 3.212963421158231 0.6182719235830878 21 21 23
0.5185057448794337 3.225805694963517 0.6160259311206896 20 20 22
0.5267948387877996 3.2365734332347174 0.6138263796250257 22 22 24
0.5362576414256419 3.246786370836939 0.6116374219550348 25 25 27
0.5356206773986844 3.2618474498139554 0.6093458317864405 27 27 29
0.45376352324082014 3.315596538482266 0.6062753094577077 29 29 31
0.4592441023379651 3.327540510072224 0.6040738436581181 30 30 32
0.4636031380645077 3.3400130562237376 0.6018624977142251 29 29 31
0.46296663799747684 3.354831099979968 0.5996085159913057 28 28 30
0.5425784319835323 3.332007242227603 0.5980338331051603 26 26 28
0.4487558654454943 3.5477930073750525 0.5706370396418294 14 14 16
0.4239191975801023 3.572975408742398 0.568331084043573 13 13 15
0.42318512252278906 3.5873993085298177 0.5661444045562836 13 13 15
0.7871037991838012 3.8883225760125653 0.4961855147580569 53 53 54
0.853273575125664 3.8772717594766672 0.4936502586201062 67 67 63
0.5332313480201107 3.041727300243128 0.6573726988133701 36 35 40
0.5229922308963475 3.2113115811511577 0.6316259512438738 23 23 25
0.5248438771753573 3.225214204906712 0.6293464963647988 22 22 24
0.5312493356979519 3.2369041989450342 0.6271258352301954 24 24 26
0.5430720293044021 3.2607622454143566 0.6226720816300363 28 28 30
0.4489046516801237 3.320360831854696 0.6193020484967653 30 30 32
0.46268492921685045 3.3283585200520114 0.6171935626704953 30 30 32
0.46366349946495966 3.342434542546532 0.6149418646281535 30 30 32
0.4599175774534403 3.3587135354605393 0.6126435770045962 29 29 31
0.5319569405152534 3.33945562309006 0.6111236262371579 26 26 28
0.5566492556837284 3.3425431372064485 0.6090950536072851 23 23 25
0.5410801138291883 3.3644050765622917 0.6066692921213982 20 20 22
0.5723455509239332 3.364520820826096 0.6046910373500097 17 17 19
0.5551301362165411 3.3870640870039046 0.6022624719118687 16 16 18
0.4274735825871687 3.559686407867057 0.5834046822328719 20 20 22
0.40596878656922675 3.583341719491205 0.581072004024789 19 19 21
0.779308375164904 3.8937728096789392 0.5093591638087474 67 66 68
0.8417425467295929 3.8841438310240024 0.5069430869458841 74 74 72
0.5365009910458544 3.2072282622706725 0.6450851017742748 24 24 26
0.5296536109574674 3.225366749466681 0.6426683230075272 24 24 26
0.5359932482710291 3.237098586189054 0.6404459783653927 25 25 27
0.5248571129890761 3.27194996020778 0.6356786866360827 29 29 31
0.4540267938026996 3.320371148727958 0.6324439342651719 30 30 32
0.46788203915227644 3.3283464586707896 0.6303488531958312 31 31 33
0.4681847434569384 3.3427505263459776 0.6280782570226351 31 31 33
0.4673801594139263 3.357653024309687 0.6257975141052057 29 29 31
0.46740925577525716 3.372138922071014 0.6235308727234382 26 26 28
0.5507201309051024 3.3477830996923883 0.6222390261013503 23 23 25
0.5314037540061063 3.3713658681930476 0.6197343254502977 20 20 22
0.5409180230647642 3.396075859097172 0.6152885206263987 15 15 17
0.418010788859698 3.5663102228165875 0.5961962418803946 22 22 24
0.4095573239200814 3.5841604178538313 0.5939228536424183 21 21 23
0.4423041596389008 3.5979045824888254 0.5897693701662924 19 19 21
0.5457394451076635 3.7364935948631395 0.5617692967758466 24 22 27
0.7737673847431475 3.8983599821592394 0.5225029008134253 58 58 60
0.8352408468313455 3.889103392253953 0.5201870734758522 87 87 87
0.5915006315011376 3.047520305003527 0.6805635611504908 32 31 36
0.640118036503317 3.083882166514927 0.6719474185551538 31 30 35
0.5580372266150756 3.1992558934268125 0.6587261670057923 26 26 28
0.5371754671532474 3.224211022555282 0.6560520721459479 25 25 27
0.5409067311314454 3.2372146054598323 0.6537864534379689 27 27 29
0.4596135599074248 3.320164009359846 0.6456117125667401 30 30 32
0.4728306763052439 3.328455684974949 0.6435196778231483 31 31 33
0.47435538985920467 3.342291633390537 0.6412551048033995 30 30 32
0.4736799251056185 3.3571438095185027 0.6389623138160245 29 29 31
0.46265898747499 3.3768091899367496 0.6365313732374266 26 26 28
0.5455660417297715 3.352658245055521 0.6353730244318304 24 24 26
0.44010389095107316 3.5589067178847267 0.6092728227068802 27 27 29
0.43587307734533653 3.5749271550530706 0.6070088783138201 23 23 25
0.44804905038589193 3.5836822550869756 0.6049062339061263 20 20 22
0.7624253738297718 3.905149952257897 0.5356282124105296 41 41 42
0.8244096513787019 3.8956975480764386 0.5334106276703878 72 72 72
0.901565242027789 3.880735879787274 0.5311522780387503 137 137 137
0.5560939535485169 3.1430098672072058 0.6814341223737846 31 30 35
0.5340535560790324 3.168794666948489 0.6786482910001593 32 31 36
0.5588037619625584 3.171573217883979 0.6767680600771877 31 30 34
0.5641093906571999 3.198802415519012 0.6721613650162424 28 28 30
0.531250807693323 3.229558868126624 0.6692209999845224 28 28 30
0.48162475097624813 3.3267481374182233 0.6567720913442625 32 32 34
0.4955123149960975 3.334773012798395 0.6546965642938445 31 31 33
0.4673662043749648 3.3625595297455306 0.6519504518911814 29 29 31
0.39348060375796123 3.5960850162118265 0.619396398828148 19 19 21
0.7999162328618347 3.907451437425382 0.5465780869518054 54 54 54
0.8789028636160359 3.891779229660741 0.5444507382505586 116 116 116
0.6380783715800495 3.0291274626133746 0.7085995499626322 32 31 36
0.5541132831687186 3.146485449706768 0.6947559849351143 32 32 34
0.5257628013041212 3.175355178394858 0.6917873399345206 32 32 34
0.5449124415809041 3.1808621326516877 0.6898270305757541 31 31 34
0.5450542034659523 3.195677584435535 0.6874696371639442 31 30 35
0.5293203613112386 3.218168381972101 0.6847963283599645 28 27 32
0.517040718613247 3.238904268286147 0.682205221690484 28 27 32
0.4927854508705455 3.3093123468906938 0.6724172033224264 32 32 34
0.49070979490738265 3.324908953149766 0.6700618131245305 32 32 34
0.49616033281962624 3.336928914572797 0.6678463537162349 31 31 33
0.43242005141131856 3.6516078867620863 0.6215647191895577 13 13 15
0.7766291633232955 3.918733804592648 0.5596660914814633 49 49 49
0.8470878948896259 3.906249583849445 0.5576461013901766 90 90 90
0.7845898267673465 2.5287605709731165 0.7941877221886092 31 30 35
0.568981186097343 2.836913832789895 0.7570132575394739 33 32 37
0.6606452089837874 3.0203177619238146 0.7227266740609052 32 31 36
0.5962966306515471 3.128203542102841 0.7090960606950486 32 32 34
0.5276346520957372 3.1769243236475693 0.7051298381730652 33 33 35
0.5413099174432974 3.1851146601644045 0.7030689875349149 33 33 36
0.5335836173587247 3.2037499584794205 0.7005272110458496 33 32 37
0.523597716897414 3.223425435382925 0.6979446329463437 30 29 34
0.49979877822624363 3.249703477908465 0.6950737744062758 28 27 32
0.454791799250183 3.3152484678135314 0.6871194852240131 31 31 33
0.4733315113572203 3.3210097853711513 0.6851766992975616 32 32 34
0.499298871654541 3.3233103875203343 0.6833746446305564 32 32 34
0.4588818506163579 3.698645266716659 0.6258120960366158 13 13 15
0.7618834798856698 3.9267766846927943 0.5727165046349418 43 43 43
0.8106887364886045 3.922421756633571 0.5707122548911264 80 80 80
0.9061011347896684 3.90079864219601 0.5688825618775251 119 119 119
0.5965933306475241 3.1155130131812854 0.724951384009753 32 32 34
0.5680587197094672 3.1446177002349076 0.7218280338442686 33 33 35
0.5724591662762529 3.157436047473868 0.7195396155192861 34 34 36
0.5549427389059856 3.180949340769958 0.716718460849658 35 35 38
0.5301688998495742 3.207897439534846 0.7137379694964404 33 32 37
0.5174691677958487 3.228875348559505 0.7110634967613699 31 30 35
0.4953956150999649 3.254299460231801 0.7081816628748264 29 28 33
0.4678505062168099 3.3114811442501337 0.7005111207902315 32 32 34
0.48361748718993347 3.3185881244824813 0.6985253601790865 32 32 34
0.5079091209024823 3.3217076790734783 0.6967192129716718 32 32 34
0.48554896677259285 3.3613937991431033 0.6915700435281568 28 28 30
0.46325730471747895 3.6712055186857886 0.6431813211938465 14 14 16
0.811411016502896 3.9246362628654876 0.5838877027069354 73 73 73
0.8881879251118483 3.910004884931224 0.5820991491051767 94 94 94
0.7731316827479369 2.5889736626376747 0.8142385144383237 30 29 34
0.5987493163541389 3.116962853804525 0.7384598256375186 33 32 36
0.549464487953681 3.1562687792447752 0.7347176318507451 34 33 37
0.5550700049857248 3.1684591913147475 0.7324641612537937 36 35 39
0.5346475215768608 3.193348065121399 0.7295303680066542 36 35 39
0.5273115306397846 3.2117719228139476 0.7269515621743043 35 34 38
0.5053472357052169 3.2372216919033576 0.7240082331697382 32 31 35
0.481797252008655 3.263324146426517 0.7210429038152643 30 30 33
0.4658882518577242 3.285641769197365 0.7182864564412825 29 29 31
0.46620199156304665 3.3001187549553226 0.7159421312127497 31 31 33
0.479914003709106 3.3081963625630073 0.7139259286225594 32 32 34
0.4908711381459201 3.317610737813089 0.7118388883660121 32 32 34
0.49533903410345936 3.330108078202545 0.7095955757348995 31 32 35
0.4789686440776929 3.352394303085222 0.706868313838201 31 30 34
0.440902946410727 3.669186889616868 0.657919104757785 14 14 16
0.5123721013535297 3.652634139850892 0.6568420393520868 12 12 14
0.5348929928965592 3.657155005073034 0.6549369456792263 12 12 14
0.5296349774921926 3.6735040259111806 0.6525830704725097 13 13 15
0.5189936546656623 3.6920805493965774 0.6501526275215265 14 14 16
0.4964436240184078 3.715592801746307 0.6475514945507259 13 13 15
0.7851656032106393 3.936965508851696 0.5968506602602538 63 63 63
0.8615874859603028 3.9224419484434225 0.5951882075157553 84 84 83
0.5670452971671877 3.135128559335865 0.7509976453707864 34 33 38
0.540466018880906 3.1631900535268977 0.7478154502537692 36 35 40
0.5158085475244456 3.190179637178663 0.7447087346015372 38 37 42
0.5038031274857118 3.2108771002795944 0.7419753973624302 37 36 41
0.5106454378990376 3.2223501283813283 0.7397742236612239 35 35 39
0.501548877391866 3.241534755134677 0.7371374251112455 34 34 36
0.47482230701607797 3.2691499853177284 0.7340348076347941 29 29 31
0.45882911174985486 3.2914871577959053 0.731239274908892 29 29 31
0.4729286969694977 3.2993641823410598 0.7292501427122566 31 31 33
0.48313419266658253 3.3091259577454473 0.7271544683021479 32 32 34
0.4931167664714631 3.3190103806408273 0.7250503115584102 33 33 36
0.4974232247870699 3.3315882031277724 0.7227995566816875 32 33 37
0.47538273532755626 3.356534703825357 0.719889873159461 31 31 35
0.506283486595117 3.685820891302698 0.6651251575535 14 14 16
0.4748961262525403 3.713087847004363 0.6623156985746323 14 14 16
0.5885774311634823 3.7639797111465816 0.6483162869693884 18 18 20
0.5862481978553257 3.778949725042231 0.646016365229231 16 16 18
0.7904342494786945 3.937468847023389 0.610030307350151 55 55 54
0.860960109756254 3.9251766306406193 0.608431374202809 82 82 81
0.6797510082670457 3.0515232910164 0.7728093390662278 32 31 36
0.6308916977367158 3.0909927833402557 0.7688147745885816 34 33 38
0.5211169066298211 3.1751904834174947 0.7605670998373225 38 37 42
0.523834456660595 3.1887374531113943 0.7582345180659027 39 38 43
0.5198181596824317 3.2055525281451 0.7557038267611644 39 38 43
0.507657143019378 3.2262799365829693 0.7529400913498867 36 35 40
0.4865409739686335 3.251262582932986 0.7499276512426858 33 33 35
0.47059577136397346 3.2736485532558763 0.7470814720451502 28 28 30
0.4656044243645193 3.2906974157682902 0.7445609509149062 30 30 32
0.48093683912089047 3.2980026206439703 0.7426188837400243 32 32 34
0.49540903335478614 3.305754145715768 0.7406468296093716 32 32 34
0.5208767647012511 3.3083352411524922 0.7389713272545254 33 33 36
0.4978999099496981 3.333827522792628 0.735967989795408 32 33 37
0.49572812604544914 3.349440413237768 0.7335413853611386 31 31 35
0.4507023675832076 3.669808308721825 0.6837715950970774 14 14 16
0.4878721313110367 3.66795232082668 0.6822387723939146 14 14 16
0.4815139268907698 3.6847046571677335 0.6798338167846549 13 13 15
0.789227433728744 3.9404001288817003 0.6231546927258282 63 63 65
0.8557907770471054 3.9296032542191055 0.6216225233807507 90 90 90
0.6349730484166685 2.923192013530463 0.809912914219727 31 30 35
0.6405709714468371 3.0735418834409978 0.7851334936048484 34 33 38
0.5948713362218474 3.1113502432675135 0.7811565818438647 36 35 40
0.5763145279334435 3.13556965110097 0.7780961402815172 39 38 43
0.5553635631143989 3.1608654645012564 0.7749747861414921 39 38 43
0.5316899823416945 3.1873840923519845 0.771784369009547 40 39 44
0.5175414099833602 3.2091456679960344 0.7689136689750309 39 38 43
0.503759338019073 3.2306489151534032 0.7660675451271259 36 35 40
0.49134288421908223 3.251413722004709 0.7632764567029429 31 31 33
0.4807923162842723 3.271207858830295 0.7605543234970363 28 28 30
0.48655184475487234 3.2831247153711893 0.7583358936406182 29 29 31
0.4811634603958589 3.3003579590252192 0.7557842233862692 31 31 33
0.5006736770834322 3.3057202746132885 0.7539763327389231 33 33 35
0.5150108387292014 3.313583291020506 0.7520083125553179 33 34 36
0.5080215225181416 3.3315244847974066 0.749417838762408 33 34 38
0.6506123870488382 3.368122020015086 0.7366275768019016 15 15 17
0.40681222408664386 3.6631169391708727 0.7002017736926269 15 15 17
0.4422642055530096 3.6618286370976643 0.6987152303963182 14 14 16
0.45729125024746275 3.669400666874201 0.6967616349901377 17 17 19
0.47715653127661417 3.6749453525620006 0.6949070207486152 15 15 17
0.5051534268394888 3.7051923072601873 0.6886360541991143 27 27 29
0.5220672089423506 3.7121269628351965 0.6866960789536504 25 25 27
0.5097004211087901 3.7313087862449996 0.6841606874155673 19 19 21
0.6401235743054734 3.874133814532144 0.6546344575638114 44 43 44
0.6758590155319198 3.8741621748294346 0.6529196937625084 49 47 48
0.7962919775823512 3.940236619673437 0.6363841925372611 72 72 75
0.8620020229775311 3.9297902040618244 0.6349426786870503 98 98 100
0.6390467394075215 2.939066291796732 0.8211964433233413 30 29 34
0.5649055678999119 3.0381185841300065 0.8084121510502555 29 29 31
0.5880351918683238 3.0870623343977237 0.799323972432729 34 33 38
0.6074258410643741 3.092536968465545 0.7975282511686473 36 35 40
0.6140320750160595 3.1043890690831786 0.7952808688602314 39 38 43
0.5491607024099927 3.151454704430092 0.7905807790052395 40 39 44
0.5385117666490014 3.171632947474343 0.7877698980214111 40 39 44
0.5429837630859774 3.1843562005140407 0.7854788062107765 40 39 44
0.528203239587296 3.2064415515298936 0.7825471685481776 38 38 42
0.5107145174521662 3.2297561182907324 0.77953979403855 35 34 37
0.49854607201314693 3.250409360885948 0.776721578647585 30 30 32
0.4961113015481132 3.2663122768421267 0.7742300013114114 27 27 29
0.5015670040301679 3.278405385719163 0.7719964970591964 28 28 32
0.5038162371043267 3.306697258226031 0.7672587462670494 34 33 37
0.5130354195371912 3.316988700364827 0.7651457989514272 34 33 38
0.5099201776785763 3.333098631625471 0.7626518706766985 34 33 38
0.6576864830993077 3.367393836327471 0.750183476928945 16 16 18
0.41349730250800376 3.6486388040019655 0.7154457963099298 16 16 18
0.40573931037620903 3.665982888926713 0.7129650253892208 15 15 17
0.4391537451858061 3.665578444991444 0.711481874219767 14 14 16
0.44882927446191523 3.67543789093437 0.7094185161245705 21 21 23
0.45783426632604685 3.68559790621981 0.7073370247997113 25 25 27
0.5029374003453189 3.694516352267378 0.7037850407955973 25 25 27
0.5193429436470706 3.7016543277568563 0.7018553243076378 19 19 21
0.5211460697163813 3.7149421441432926 0.6995955244348393 14 14 16
0.5252214096952716 3.7272684116974446 0.6973878407884052 14 14 16
0.5171893477607237 3.7446080266330894 0.6949205102298526 11 11 13
0.7942364408257891 3.9434864696540948 0.6495031588596111 66 66 69
0.8753016275591731 3.927344910622572 0.6483878189808974 97 97 98
0.577988792897077 3.003572217979396 0.827395469091875 28 27 32
0.5717973234490371 3.052313217231867 0.819654622801184 31 31 33
0.6138150950284854 3.076732761258394 0.8137513642643824 37 36 41
0.6129053594134408 3.0923398017803887 0.8112245691189361 39 38 43
0.6087287484310387 3.1095334794343397 0.8085833676058943 40 39 44
0.5417991830666069 3.157578183587143 0.8036830972560207 40 39 44
0.5547538209390251 3.166164212451131 0.8016891234223995 41 40 45
0.5467834992045955 3.1849950995342757 0.7989488407521743 40 39 44
0.5269529366316662 3.20953711112349 0.7958012869496297 37 37 41
0.4929870109733524 3.240820909262073 0.7921790115984352 33 33 35
0.48198370029273785 3.260871130454105 0.7893742530016057 30 30 32
0.5054308921511584 3.2643083792397287 0.7877564189943917 29 29 31
0.5103642316174726 3.2766700997144906 0.7855012879843419 30 29 33
0.5134887571194234 3.3045793197799576 0.7807695094149619 35 34 39
0.5010881504023167 3.32510277769723 0.7779496081636731 34 33 39
0.5392906509587997 3.3364236993688965 0.774372532910068 30 29 34
0.6439937473356107 3.3614164221763425 0.765561558410962 17 17 19
0.6766062376071127 3.3612621097832163 0.7641232444086817 16 16 18
0.4998177340743819 3.6982591604946107 0.7166160086582204 14 14 16
0.5135398549872447 3.7065219861727137 0.7146407614120683 13 13 15
0.5108851857928178 3.721661499260966 0.7122691979656078 12 12 14
0.5079255498988006 3.73689590581624 0.7098957103142679 12 12 14
0.5140852012848771 3.762284164331952 0.7054424517756055 10 10 12
0.7840252749069018 3.949780682443809 0.6624807175625955 45 45 47
0.8561624343852429 3.936962828378935 0.6613518423689411 86 86 86
0.5966671490579643 2.9812747920214946 0.8442065088819795 29 28 33
0.5735639433732681 3.008353960571978 0.840733914319923 28 27 32
0.5910708796796337 3.029908663671534 0.8364120661914749 30 30 32
0.5743710574366413 3.053532980884115 0.833232556300554 30 30 32
0.5644911976668513 3.0736408233710066 0.8303382380370158 32 32 34
0.5905021200688417 3.0757377539089874 0.8288629814422807 35 35 38
0.5795114164119746 3.0963423760828164 0.825934768682825 39 38 43
0.5679549506861136 3.1171586966662597 0.8229961210402486 40 39 44
0.5936403627850084 3.1195079023895835 0.8214932983372099 40 39 44
0.5596083855886392 3.151314151452096 0.8177137433950123 41 40 45
0.5318033267067548 3.179908398610559 0.8141947970730135 41 40 45
0.5235085657943496 3.198847196043329 0.811424892836986 40 39 44
0.510020283800605 3.22025239500828 0.8084727555674802 36 36 39
0.48492106951024505 3.24719848300479 0.8051087686561959 33 33 35
0.47424740858246217 3.2670684179239147 0.8022882133910537 31 31 33
0.506812340227569 3.266120601342875 0.8010317309547007 30 30 32
0.5138402707223713 3.277484026752864 0.7988488295068515 31 30 35
0.5161935323448822 3.2910766764996437 0.7965003761627124 33 32 37
0.5126938444680057 3.3074291593606953 0.793949812137629 34 33 38
0.5111132276859274 3.322838452320768 0.7914718447105943 34 33 38
0.5514296767010177 3.333219176586862 0.7880068266252214 30 29 34
0.6502685586622788 3.3610449986719098 0.7791192955874571 16 16 18
0.6880185319479704 3.3585682704257325 0.7778904835424413 15 15 17
0.4143809342007043 3.6670628084401478 0.7387825442931072 32 32 34
0.43600704501048226 3.6717529354381 0.7370690073318567 33 33 35
0.4425314037918844 3.682955981650832 0.7349344622695761 27 27 29
0.46181609582334104 3.688734403898453 0.7331426757584478 18 18 20
0.4787648914610104 3.695553445823319 0.7312802789767089 13 13 15
0.5031080971879005 3.6992979806899693 0.7296051062366103 12 12 14
0.5120174801238155 3.709589609201136 0.727517687539968 12 12 14
0.5189294005947954 3.7207274540842774 0.7253770999043572 11 11 13
0.5216310478348617 3.733620335264951 0.7231291732635485 10 10 12
0.5229141827147277 3.747088697569765 0.7208476967787785 10 10 12
0.5052299617588835 3.7683558932789953 0.7181004442659752 10 10 12
0.8363523454152557 3.9468176010800162 0.6742389735775657 72 72 70
0.9171491723448267 3.9310272263425405 0.6733424180821369 133 133 131
0.6237143470874329 2.9545909757713797 0.8614882673228197 29 28 32
0.5899306416566663 2.987255536299127 0.8574815083045355 28 28 32
0.6262075693736516 2.98403605586978 0.8564957479935404 28 28 32
0.612355214450746 3.006396275304062 0.8533643263302704 28 28 32
0.5942704775380749 3.0308158072532114 0.8500684089490722 29 29 31
0.582763987214317 3.0518232157562157 0.8470632558900578 30 30 32
0.5733788359641552 3.071694911494547 0.8441577408971568 35 35 37
0.5681975715323677 3.0894033452455925 0.84143517189532 39 38 42
0.5638170519622132 3.1066678165288106 0.8387527472143651 40 39 44
0.5522142620599924 3.127469844663945 0.8357857238866899 40 39 44
0.5420522367402683 3.1474895212114555 0.8328881987707657 41 40 45
0.5420263675525017 3.162460967144275 0.8304039436284673 42 42 46
0.5175296908738016 3.189389089996348 0.8269602838974848 42 41 45
0.5097337650743754 3.2080515869939905 0.8241889046404927 38 37 41
0.5061007009939451 3.224637439587113 0.8215878115843845 33 33 36
0.4816156763680475 3.251268630587267 0.8181929558235422 32 32 34
0.5093322488580977 3.252638434531893 0.8168040779570883 30 30 32
0.4982430425393205 3.2727062009454 0.8139374238644421 31 31 33
0.5074470823828394 3.2830139817735375 0.8118405757322422 32 32 36
0.5091830998278701 3.2968866637534937 0.8094648880743304 34 34 38
0.515677872455259 3.3084887748919876 0.8072667080817222 35 35 39
0.5094265557013561 3.3261047696328685 0.80460432576677 34 34 38
0.541738551661403 3.3255605497480545 0.8033406114102549 33 32 37
0.5777077583666866 3.3234101403179293 0.802190274932252 31 30 34
0.6407918311244917 3.367889906837907 0.7921628143975703 16 16 18
0.6955710220603737 3.357641848551478 0.7915684843628894 15 15 17
0.4700123660114204 3.6876674324142993 0.7462346917640262 14 14 16
0.4842257504155869 3.6956634875927628 0.7443116820824663 12 12 14
0.529952930852887 3.69041776051214 0.7432662697060373 11 11 13
0.5253673255845475 3.706420301618543 0.7408019263744605 11 11 13
0.52388674500341 3.721087307258798 0.7384291706718829 10 10 12
0.5085232767594741 3.7414953176009336 0.7356851503480614 10 10 12
0.4954116196791212 3.760891888740262 0.7330146704937917 13 13 15
0.8173536990221394 3.956358687170564 0.6870749306946762 64 64 63
0.8978404415256315 3.940672684005583 0.6863060345903491 103 103 101
0.6165612273513812 2.960808165526491 0.8747908181833627 27 28 31
0.58953280500715 2.98998922328356 0.8710172944740034 26 27 29
0.6263379078549627 2.9865104214125235 0.8701098292566799 26 27 29
0.6137718981713651 3.0082117600417644 0.8669990182958065 27 28 30
0.5989891254763663 3.0309574511969615 0.8638036569065403 30 30 32
0.5834075060759836 3.054020365141844 0.8605876857484419 33 33 35
0.5753983311820735 3.073198661741736 0.8577134174371457 38 38 40
0.5587122048524951 3.0966527548151026 0.8544768582021207 40 40 43
0.5502314943454766 3.1159340427713147 0.8516044741989935 41 40 45
0.5398673725015225 3.1360895493356202 0.8486624364531972 40 39 44
0.5324144068287809 3.1547429092713046 0.8458532208390013 41 40 45
0.5199301986190453 3.175813777778401 0.8428442344223258 42 42 44
0.5296322332844032 3.1859553786027863 0.8407609974323268 38 38 40
0.5353732517129671 3.1980419503667714 0.838513529747563 34 34 36
0.49539533917064627 3.232312800629747 0.8344146650040014 31 31 33
0.4686812143497955 3.2599899554103398 0.830879213718647 30 30 32
0.5100410072554998 3.25477573733881 0.8300770414433969 30 30 32
0.5020148874220943 3.273371571996304 0.8273005833663306 31 31 33
0.5060644390326373 3.286148407540067 0.8250063785207838 34 34 36
0.5086611862365527 3.2996082212866016 0.8226570053466572 36 36 38
0.5228911103368816 3.3075488460926072 0.8207577764735733 36 36 38
0.5112721575806205 3.3277052769529454 0.8178663011924837 35 35 37
0.5616337280604261 3.3187025948233453 0.81733202877285 33 33 35
0.614253719025407 3.3088199755169767 0.8168532068940549 31 31 33
0.6925542241501752 3.361535654668942 0.8048982047095792 15 15 17
0.4255922182284515 3.695005774042589 0.760081976124768 14 14 16
0.4657063659634839 3.6919155063793587 0.7589759810305826 13 13 15
0.48715658848805277 3.6968468846517375 0.7572867198746283 12 12 14
0.50065838959504 3.7051831900848256 0.7553509399644777 12 12 14
0.4881489514978603 3.738423852719894 0.7503136634276311 17 17 19
0.4733079310097803 3.7585407106634925 0.7475590134617585 23 23 25
0.7939677437682962 3.9675137304752153 0.6997526890234897 71 70 73
0.8739635043574736 3.951990637695743 0.699107966111029 87 87 85
0.7332965013180597 2.4889367056547966 0.9633217728362378 29 30 35
0.6363588868035707 2.968580763287812 0.8867576592816337 26 26 28
0.6303106364022819 2.9870285349368513 0.8839032066983056 26 26 28
0.6091643686625631 3.013083457583935 0.8803623335600779 29 30 32
0.5870808297091078 3.039500750757577 0.8767972514210615 34 34 36
0.5746223315870256 3.060961377936284 0.8736877001154996 37 37 39
0.5656805781967781 3.080584741667485 0.8707489805386303 40 40 42
0.5638907762654328 3.096578390114334 0.8681398072442007 41 40 44
0.5494089090105058 3.1188481697982677 0.8649734930078231 41 40 45
0.5404143519298259 3.1383189891950423 0.8620623792917916 42 41 46
0.5425396980370618 3.1522476495318994 0.8596466713138098 42 41 46
0.5330908204983947 3.171842912392333 0.8567323997720035 38 38 40
0.5440916259067016 3.1813775976378844 0.8547071547128025 35 35 37
0.5461547757812195 3.1952843251583087 0.852297541529784 32 32 34
0.5342319812507217 3.215957316759584 0.8492990609393796 29 29 31
0.5248274631616161 3.2353424978537535 0.8464182500956593 28 28 30
0.5107497198720911 3.256913663767094 0.8433532180433921 30 30 32
0.5080295351926398 3.2729654621546294 0.8407705228396714 32 32 34
0.5175836861615669 3.283128687285877 0.8386963161396369 35 35 37
0.5163564539431375 3.298426840125572 0.8361817347884419 36 36 38
0.5101245850389394 3.316063515139887 0.8334702842406595 36 36 38
0.5289270569771053 3.321861289208412 0.8317672481090456 35 35 37
0.5629696734262783 3.3205623501564157 0.8306596043275302 33 33 35
0.5760331341206534 3.3291722317216004 0.8287089637947526 31 31 33
0.7953744845248126 3.9694726634345994 0.7129237194874083 64 63 68
0.8759419208080214 3.9537657263294737 0.7124182195114241 75 75 73
0.6726509989110725 2.90611273560234 0.9099761239138774 27 28 30
0.6494487866263182 2.9490211869642597 0.9036258872202291 26 26 28
0.6284327797880697 2.975176245047095 0.9000123821228091 27 27 29
0.6118247468740954 2.9989773670410633 0.8966298744791125 30 30 32
0.608679181865606 3.01586295589251 0.8939068192024557 34 34 36
0.5885020935870986 3.0413078224112264 0.8903813885460214 37 37 39
0.5781575446069664 3.061702722270764 0.8873374470609227 41 41 43
0.5618628806303676 3.08501021674938 0.8840262549664961 43 43 45
0.5517232791400243 3.1051577244033086 0.8810162616871771 42 41 45
0.5427379094428846 3.1246665049192472 0.8780705149240559 42 41 46
0.5335733823000367 3.1442032505959268 0.8751267706755633 42 41 46
0.5257387506226715 3.163023640342265 0.8722537566051699 39 38 43
0.5308100896783976 3.175456599581702 0.8699721815950537 35 35 37
0.5490048227848167 3.1814738649477627 0.8682786606904691 32 32 34
0.5525569607331771 3.194664993529377 0.8659264081280013 31 31 33
0.5427125623838127 3.2143380276093643 0.8629851880488524 29 29 31
0.5332647062905256 3.2337563076257005 0.8600719817428422 28 28 30
0.5080755923481968 3.2606779305164943 0.8564857444337831 30 30 32
0.5041025720197398 3.27732146224324 0.8538343912217033 33 33 35
0.5197915756056373 3.284554588971714 0.852030124940126 36 36 38
0.5255355122657487 3.296546510418734 0.8497975689015291 36 36 38
0.521554650992738 3.313133819294924 0.847155968135296 36 36 38
0.530453313749745 3.323620094948909 0.8450586132656632 35 35 37
0.5948551252922101 3.322877787249055 0.8427724028274275 31 31 33
0.40836607424318894 3.5809766771240152 0.8063318588084574 18 18 20
0.6710175976073961 3.879253736072838 0.7463166974253438 16 16 18
0.6776136217667328 3.90463030729858 0.7418004163090823 18 18 20
0.7935025202531094 3.9726457231937102 0.726018863184967 52 51 56
0.869622289093793 3.9585973269590298 0.7255325593454125 74 74 72
0.6947222615842854 2.866076057296276 0.9301210282548373 26 27 29
0.6579358367692194 2.931764022839513 0.9203431888606973 27 27 29
0.6344198024795966 2.9592773351664 0.9165392260775238 28 28 30
0.5845463326769964 3.0458283081603277 0.9037063184623465 41 41 45
0.5700013683016695 3.0683202834349377 0.9004283895930038 43 42 46
0.5583193044459187 3.089296083690036 0.8973037545548914 42 41 46
0.5466340915875111 3.110201581487818 0.8941911127415547 42 41 46
0.53370125538449 3.1316545851541497 0.8910308007881036 42 41 46
0.5185237940387477 3.154140523280957 0.8877766292493816 39 38 43
0.5219932097383931 3.167361536502507 0.885417763944357 34 33 38
0.5348315309176858 3.175979136064 0.8835000085046624 32 32 34
0.5632211357691018 3.1770312556661837 0.8823016605916437 30 30 32
0.5648711234072212 3.1911753929181286 0.8798522068766658 28 28 30
0.5512794511405694 3.212682765088278 0.8767063914804005 28 28 30
0.5443439498006777 3.2309018113436005 0.8738769745446531 28 28 30
0.5308708368693557 3.2522088975672636 0.8707607423652948 30 30 32
0.519296763060348 3.2725301733741667 0.867742829745157 33 33 35
0.5167671816647988 3.2884740440874367 0.865139497127269 36 36 38
0.5126613407601014 3.305131779974428 0.8624721961180772 37 37 39
0.49771903931595485 3.3268676002403166 0.8593363292686524 36 36 38
0.37696904922124164 3.597297529480491 0.8179786185583215 18 18 20
0.3971371264207626 3.602450449003528 0.8163828484961315 19 19 21
0.48293179548200793 3.5788463838166216 0.8172874025427842 20 20 22
0.642305361058608 3.9067637977271144 0.7561452536028864 19 19 21
0.796056361976714 3.974181607766045 0.7392256142003905 60 59 62
0.8789837751347236 3.957656675612034 0.7390369774556208 80 80 79
0.6817356700053294 2.8441684906558278 0.9485269319484538 26 27 29
0.6994833780226899 2.8505281666989926 0.9468359605208588 25 26 28
0.6791894795308989 2.892312230757281 0.9404432370772198 26 26 28
0.5780697768124403 3.051616959247888 0.9168888147498323 44 43 48
0.5639363377462123 3.073882590154642 0.9135966773756691 41 40 45
0.5502454244413977 3.095844968078366 0.9103407626887696 40 39 44
0.5344591030363377 3.118770878587226 0.906993510599692 41 41 45
0.5262865015929212 3.137832274083418 0.9040398311726389 37 37 41
0.5563938559311811 3.1379276165540535 0.9029862197855767 33 33 36
0.5349046527155904 3.1635027477558637 0.8993858237707272 31 31 34
0.5569496299353875 3.1676384060663945 0.8979242607454301 29 29 31
0.5283390489834227 3.196554442267091 0.8940021993667892 28 28 30
0.5508506732039394 3.20049054544411 0.8925584272450718 26 26 28
0.552049696020352 3.2148062593673186 0.8900873074983557 25 25 27
0.55145046195175 3.2299693761776074 0.887534321892755 27 27 29
0.5433828397098677 3.248690341719832 0.8846348062592737 31 31 33
0.5266742619732657 3.271484943712497 0.8813416199406162 35 35 37
0.5594852644293443 3.27062141592243 0.8803575960934541 38 38 40
0.5243244571265674 3.302079309028884 0.876229811138888 37 37 39
0.5024334345405196 3.327111165384154 0.8727354708462854 37 37 39
0.39873464921208446 3.590069324558259 0.8316768346019128 20 20 22
0.41957316822112234 3.5949740407062465 0.8301263112162459 22 22 24
0.4900525674963233 3.5781590615950987 0.8305517603506183 25 25 27
0.42594157368129437 3.620380020801843 0.8255947172409627 28 28 30
0.4158469023821365 3.638842388096018 0.82280894081725 29 29 31
0.5185360619231599 3.749473759280157 0.8004930648860838 18 18 20
0.8054740519380507 3.973184122618418 0.7526355233847133 59 57 60
0.8671422784285309 3.964514856164083 0.751982014167822 92 92 92
0.6445502083210192 2.9128257142189966 0.9522900330156885 27 27 29
0.5971990976458117 3.0140139739441105 0.9366009191398447 43 43 45
0.5810279170187022 3.037449747326284 0.9331388028751605 44 44 47
0.5687386559053792 3.0588393575015473 0.9298975335936536 42 41 46
0.5576354272665077 3.079559275821566 0.9267313309003556 40 39 44
0.5386195129791824 3.1041634494535075 0.9231638122342938 41 40 45
0.5280314850684283 3.1244718281138404 0.9200507825508841 37 37 40
0.60282274520954 3.102395437879719 0.9213486521505435 33 33 35
0.5729390967318007 3.1322667661299044 0.9172414849834377 30 30 32
0.5539845150285391 3.1566203423718506 0.9137146651059556 29 29 31
0.5706682616994685 3.1634250112551943 0.912004629239253 28 28 30
0.5670115952680085 3.1801902253271854 0.9092671188448789 27 27 29
0.5604283475757087 3.1983376786435582 0.9063904499769372 25 25 27
0.5521190508342935 3.2172693311272766 0.9034369963436522 26 26 28
0.5582806808455957 3.2291748925503807 0.9012042617497431 28 28 30
0.5496409772198478 3.248179520021677 0.8982492600628398 32 32 34
0.5349347103704902 3.2700231010956236 0.8950102803435307 36 36 38
0.5301972530770761 3.3017771079565392 0.8897531779859711 38 38 40
0.5101647237048337 3.3259351710147707 0.8862952245940646 36 36 38
0.3751650225322418 3.5888426967662728 0.8459264143648167 20 20 22
0.41340704932744143 3.585992571814732 0.8451515809665011 22 22 24
0.42808317328657 3.5936443593045015 0.8433633166398705 25 25 27
0.4141133327398243 3.613888241346736 0.8403727689388998 29 29 31
0.444670163089703 3.6146222631124156 0.8392402811838545 30 30 32
0.4363729929782614 3.6323347273712208 0.836494269501073 30 30 32
0.4216488802536025 3.6527733471795276 0.8334953895764055 28 28 30
0.8247687557308584 3.9685479895820284 0.7663740543508105 76 74 77
0.8864028440914952 3.959944709681957 0.7658088360215094 108 108 108
0.5831370624038297 3.023682049426502 0.9493815459038779 46 46 48
0.5791312634525092 3.040933023444441 0.946553893231899 43 43 45
0.5542827988642736 3.0686354457643112 0.9425927537109355 42 41 46
0.5388353986525334 3.091498671263443 0.9391642889010764 42 41 45
0.5324579582382221 3.1097455681572215 0.9362407605420324 36 35 40
0.5333194432214888 3.1243420916751226 0.9337144083994084 33 33 36
0.5400802449335034 3.135995799569282 0.9315062477475979 32 32 34
0.6021167423134975 3.12038580210275 0.9322264094529323 29 29 31
0.589239074458536 3.141804765133992 0.9289643507257023 27 27 29
0.628307041769299 3.137732714252187 0.9284319055982317 26 26 28
0.5648840260242594 3.1986767820642705 0.9199932227770133 24 24 26
0.574787360312742 3.20881188009117 0.9179461691407809 26 26 28
0.5654474825359731 3.2282231426634422 0.9149165194327374 29 29 31
0.5576037741208458 3.2468560761105647 0.9119730442622762 34 34 36
0.5294635602006674 3.304605634665919 0.9029708008046564 38 38 40
0.506838786200567 3.3299756234119697 0.8993390329362188 36 36 38
0.48070042181524064 3.35688137889028 0.8955548995032957 34 34 36
0.4130928771630472 3.4461917759261715 0.8823910031400731 26 26 28
0.38581916743659495 3.5865197506480437 0.8592222963814001 22 22 24
0.42838657250505907 3.581789937533154 0.8586923291352835 22 22 24
0.42364151992919286 3.612128550717704 0.8536470609460133 22 22 24
0.49835740407980833 3.607839752053975 0.8520297067428481 22 22 24
0.45270161206854265 3.6417620026774054 0.8476585118972331 22 22 24
0.5060858424891271 3.7454952937932657 0.8282168823264092 11 11 13
0.5519254164946956 3.740532896678288 0.8276237466633363 11 11 13
0.5400425345488591 3.7594650577909148 0.824756170618439 10 10 12
0.5027960268351598 3.8026235101932992 0.8185388577273044 10 10 12
0.818669806176278 3.9732871024061485 0.7793754511539848 66 65 67
0.8940466546106389 3.9596490904389094 0.7793380782121095 87 87 87
0.5833900434834359 3.026080868218809 0.9629311522390596 43 42 47
0.5725351388735639 3.046788906036527 0.9596955062981939 41 40 45
0.5445097598269553 3.0760660767490586 0.955501071574558 42 42 44
0.5291190720999666 3.0988741580674097 0.9520402831148955 37 37 39
0.5384637997977482 3.1092519341174634 0.9499754594238257 32 32 34
0.5394645198801179 3.1237900713425324 0.947445367806858 31 31 33
0.5485218255742939 3.1343201473039186 0.9453629712756251 30 30 32
0.6017556954696702 3.138175866376803 0.9431037982519431 27 27 29
0.5813136529434544 3.2081648112628893 0.931680890245537 28 28 30
0.5648515642829701 3.231009451335313 0.928245938754835 32 32 34
0.5553872384497878 3.2504130589398765 0.9251929185860452 35 35 37
0.5348245686053476 3.3045513802425344 0.9164994193001329 38 38 40
0.5083232775036391 3.331748483192005 0.9126169917763842 36 36 38
0.49105529059053765 3.3544868533803327 0.9092244785522613 33 33 35
0.4520518901223558 3.387283871952165 0.9047538991823537 32 32 34
0.4435140335787501 3.405736382484641 0.9018366583983484 36 36 38
0.42303949064788426 3.4296593943384437 0.8983365677054855 33 33 35
0.42240686409962636 3.444329947489756 0.8958326775957975 24 24 26
0.39270736763020586 3.571758877125857 0.8748095264821902 18 18 20
0.37558616843668524 3.5934677864543163 0.8715896459115533 19 19 21
0.4150627375341269 3.6183010012116164 0.8661355116939135 22 22 24
0.4846554054290848 3.602042553224815 0.8668448345428019 22 22 24
0.4852041386949034 3.7286398100741596 0.8450577694075782 14 14 16
0.5230187393661506 3.7268655271867033 0.8442290906707672 12 12 14
0.5473321784928419 3.7308126951342473 0.8428213146309275 11 11 13
0.5630456831411157 3.738380727354037 0.8410487200654282 11 11 13
0.5568900198277374 3.7549744995486494 0.8383796963873449 10 10 12
0.5277976664226556 3.7809069767113983 0.8347924313801907 12 12 14
0.5121662105502063 3.801226181237626 0.8317668677814345 13 13 16
0.8068574305270843 3.9801270948490517 0.7921659801794434 46 46 46
0.8743754439077613 3.9693710791864265 0.7919912680613722 68 70 67
0.591026140195162 3.0094743095185987 0.979554568850923 44 43 48
0.5876088875604873 3.02647004070172 0.9767165303007977 42 41 46
0.5826014516159151 3.044229695694251 0.9737918567741823 41 40 44
0.5511658255177844 3.075230685647303 0.9693331757924654 36 36 38
0.5317683993732712 3.1150963159313174 0.9630004734441047 30 30 32
0.528442068818829 3.1317686285929422 0.9602157033272303 29 29 31
0.5660214453564459 3.1281699279474 0.9597665906134134 28 28 30
0.5755795815222915 3.228353563564153 0.9421911730634446 34 34 36
0.5661063797949116 3.2477780264492693 0.9391061964128404 36 36 38
0.5559594641987571 3.282265840208098 0.933438765038527 38 38 40
0.5162624989436734 3.3158069689208265 0.9287767372513825 38 38 40
0.49880916245290763 3.353318306450541 0.9227952656160275 33 33 35
0.4746592727901977 3.379184433754021 0.9190158716595582 32 32 34
0.4526082454306596 3.403956550424096 0.9153656306853509 34 34 36
0.4360973187762288 3.426055022608024 0.9120193244581911 32 32 34
0.3838547365257189 3.5781128951101357 0.8872452462393537 19 19 21
0.4860356840457609 3.632219299967437 0.8749891269292751 27 27 29
0.4895003610743026 3.7292651461298245 0.8581292552237894 13 13 15
0.5102019673817662 3.734634931342852 0.8566120182674078 13 13 15
0.5476931868543572 3.733102593926906 0.8558085276644499 12 12 14
0.5469182616363508 3.7474775016503905 0.8533478601728071 10 10 12
0.5309810927084311 3.768054310645859 0.8502480195541041 14 14 16
0.5154833980873647 3.7883694280516793 0.8471808558188618 23 23 25
0.7950807349520844 3.986946444023441 0.8049179666764823 43 43 43
0.8612800344684226 3.976672196016389 0.8048064152744303 65 67 64
0.9267613273638297 3.9668786307440804 0.8046322997330526 105 105 103
0.5995943782210355 3.0076489445981265 0.9936409602003866 45 44 49
0.5945124662217828 3.0255024514679008 0.9906812825605534 42 41 46
0.5994127676270802 3.038275004959572 0.9883334534361606 35 34 39
0.5802843273252327 3.0631147810920374 0.9845411571326664 32 32 34
0.5904615803216209 3.0731884408495014 0.9825190142278061 31 31 33
0.589878372771567 3.088641152831438 0.9798543252621031 30 30 32
0.581260686443836 3.1982554616991354 0.9610732362497723 22 22 24
0.5541585663612678 3.2262736211897494 0.9569448864558655 30 30 32
0.5539021336307914 3.2412671678225253 0.9543510223740327 35 35 37
0.5457736705889378 3.260000451590133 0.9513209878378757 38 38 40
0.5386598206623485 3.2781942619834723 0.9483571384624803 40 40 42
0.559578865400983 3.2830412368754067 0.9469516159228326 39 39 41
0.5086372459657695 3.3218851424860407 0.941589036918933 38 38 40
0.5031676944767765 3.3537451259429885 0.9362102550673581 34 34 36
0.460097381342893 3.402928240305939 0.9288417259573862 33 33 35
0.44013206203310573 3.426631629282162 0.9252691415975589 55 55 57
0.49586290143936396 3.729029868143245 0.8713104115975453 13 13 15
0.5085476429563307 3.737752182240069 0.8694549775110285 13 13 15
0.5259885158399078 3.7445309308972483 0.8678082709678783 20 20 22
0.5271560619332122 3.758062217179221 0.8654296071844003 27 27 29
0.5159243403076575 3.7906138458194727 0.8600864170640018 39 39 41
0.5416660918181222 3.8080302498269543 0.8563703943124699 31 31 31
0.5866072333471309 3.817854750929743 0.8534529287633853 17 17 17
0.8374199500437323 3.9879039091632884 0.8171847842049044 67 69 66
0.9090276305394169 3.975855966446097 0.8173413895713948 90 90 88
0.6100146510230942 3.004888353238081 1.0078758640221643 41 40 45
0.6081444949833772 3.0211341593021372 1.005093423233593 35 34 39
0.6064426499677948 3.0372626113638006 1.0023271337347415 34 33 38
0.5967216572022555 3.0573854331431463 0.9990695175911765 32 32 34
0.5998277624399921 3.0710300577847622 0.9966133061707412 31 31 33
0.6073077946951165 3.0824843914306825 0.9944271060460341 30 30 32
0.6171955909229021 3.0927502068711283 0.9923865464440733 29 29 31
0.5493533329739156 3.14142670848983 0.9856370055306426 28 28 30
0.5928519648569395 3.1801607662451516 0.9777798550891241 19 19 21
0.5621209374347789 3.210025844597728 0.9733609102369795 24 24 26
0.5511980903549892 3.2301982187753127 0.9701253139865382 30 30 32
0.5313517160381663 3.2545852865687084 0.9663830745028076 35 35 39
0.5417297617235365 3.2644249236941185 0.9644042548629622 39 38 42
0.5328083568175166 3.2982215711161964 0.9587441660537297 40 39 42
0.50410258692306 3.326499781295993 0.954550012689546 37 37 39
0.5153235279681793 3.350526068922439 0.9500782780436061 33 33 35
0.46298176337774477 3.4040417613610665 0.9420903878856935 29 29 31
0.4439804687121257 3.427297149049576 0.9385237422606856 42 42 44
0.43983399858019856 3.6850662839064094 0.8937242369177957 19 19 21
0.6100843032722058 3.7968531256463334 0.8699080657573316 14 14 15
0.6380388141450503 3.799691423808551 0.8687006573438263 18 18 20
0.6687813539886008 3.80150064912257 0.8676014145742432 24 24 26
0.6335245189022977 3.8295974436218194 0.8636059445363055 23 23 25
0.8362317564915579 3.990831724559877 0.8303478832136492 71 72 70
0.9074096722278282 3.9789594955904435 0.8306007790823121 80 80 78
1.0933635496649166 2.4810167731489674 1.1019660472233666 76 76 76
