ply
format ascii 1.0
element vertex 736
property float x
property float y
property float z
property uchar diffuse_red
property uchar diffuse_green
property uchar diffuse_blue
end_header
1.1120083112783796 2.296061085477561 2.508575292484279 13 13 16
1.0978209578781157 2.2876456439278487 2.508786916800831 15 15 18
1.0837389640275061 2.2813002008195413 2.509371592556146 25 25 27
1.069830654666304 2.279300983975366 2.5107455077891783 24 23 26
1.0562013709019267 2.2855070750317004 2.5136155796714985 22 22 24
1.0425878483728566 2.2927871927050276 2.516684097488511 23 22 25
1.0286228988201924 2.288904955934817 2.5177137340845066 22 22 24
1.01494046254733 2.294584273340619 2.5204921803390783 21 21 23
1.00083100460092 2.284622620138187 2.520405479575169 25 25 27
0.9868440528452861 2.2781921979951005 2.5209623592417825 28 29 32
0.9731837419012754 2.2849357188298223 2.5239366189319137 29 30 34
0.9339716583828974 2.4097114268490976 2.552146538361924 39 41 44
0.9204914814260947 2.4427052399365254 2.5599967770249825 40 43 46
0.8791115320969815 2.515133767538186 2.5787104138376153 53 52 59
0.8510556510192214 2.5529123942395966 2.5892843755019275 56 55 60
2.1918417500371525 3.238686437024483 2.564834559529398 195 195 197
1.8691204069778324 2.7706594604362227 2.5172055009729895 61 61 63
1.853822273203256 2.766533878750623 2.5183486507302777 63 63 65
1.8389575181587994 2.765900775906537 2.5200950678791267 63 62 65
1.142043563676852 2.305871012484835 2.520935843563124 27 28 30
1.1281404759338287 2.305626712263344 2.522634778864599 24 26 24
1.1129962858536329 2.2740276854119035 2.518585154770116 19 21 19
1.099079592395854 2.2718801344476134 2.5199274015051034 22 24 22
1.0851338418726746 2.2686651622803935 2.521072291811158 25 28 27
1.0716024853789554 2.2769944795202535 2.524339047671953 27 30 31
1.0579682466538178 2.2829639893892213 2.527174346832026 29 32 33
1.0440049698603553 2.279009589212158 2.5281821970529594 32 35 36
1.0308491588910105 2.301628246826575 2.5340926076263823 36 36 38
1.0167082356171218 2.2918003089054553 2.5340167232035404 37 37 39
0.9339986251606885 2.309454904310771 2.5477218729220183 65 64 67
0.9205422748552159 2.3336516408636987 2.553967167301065 55 53 58
0.9070722676456034 2.3620794800731963 2.561010923625768 62 60 65
0.8935263450310673 2.3916310182197558 2.5682758087027984 61 60 65
0.8805470276637659 2.4778230097735836 2.586135396729353 60 59 64
0.8668125456640294 2.516720890408807 2.595183932758073 62 61 66
0.8248486485504785 2.6316074857081704 2.622084702768483 65 64 68
0.8106249283470301 2.6729701538150312 2.631658779456907 69 68 72
0.7962365848185948 2.6969180001655135 2.637974177913096 67 66 69
0.7237741388551485 2.7203254268792487 2.651476534463009 32 33 35
0.7090400969157205 2.7503289400831963 2.658975647418558 34 35 37
0.6938193869180678 2.8206685558837323 2.6741314270277026 35 36 39
0.6784330697548823 2.885497542489285 2.688270299333557 44 45 49
2.204413293823539 3.203958823133584 2.572654178715755 204 204 206
2.191633932423119 3.22246406163924 2.5777728627266563 196 196 198
2.1782016035466683 3.2369983260131567 2.5822189330789103 141 141 143
2.160768644028605 3.224798363934962 2.582087104811448 98 98 98
1.8371874696006196 2.7336523023758006 2.5293467506673255 45 44 48
1.8235189600675263 2.7426903369988183 2.5327781351062213 57 55 60
1.8102232239583618 2.7551701213701003 2.5368167167852094 61 59 64
1.1445575063561422 2.320771170960518 2.5377582433513974 37 38 41
1.13113366772177 2.332705163265876 2.5417091873837507 37 39 38
1.113764532633654 2.2467201087513855 2.527549906811743 36 38 37
1.0867908347792912 2.2633260294740536 2.534087778941222 34 36 37
1.0731108717192994 2.267166149302756 2.5365329761426096 38 40 43
1.0619942918140137 2.348252496445814 2.5533337848567275 40 41 45
1.0485150810109627 2.3630879505927362 2.557842961722222 41 42 45
0.9364083643909121 2.340500295683807 2.5676101612874933 51 50 56
0.9230360827421095 2.3725541808663277 2.5753774959213094 50 49 54
0.9093797349521296 2.3926723842470867 2.5809126294156073 55 54 59
0.8957948434210198 2.422762364397123 2.5883334773374336 49 49 51
0.8820548486329486 2.447909415277702 2.5948346008886123 43 43 46
0.7108052557385272 2.7667294869077663 2.6768874838360013 39 38 42
0.695632441576983 2.8305065861740863 2.690908148787582 45 44 48
0.6802773505742233 2.8921007845922126 2.704536913020627 50 51 55
2.1918536038198595 3.2091098110612135 2.5911568089318027 196 196 197
2.178690126043176 3.225283302140392 2.5959067437757666 155 155 156
2.16157828923998 3.2151556977128313 2.5961094942400593 107 107 107
2.0982735916351896 3.099619686684676 2.5818936319448493 60 60 64
1.8340227423315147 2.689882384812955 2.536458976979658 42 41 45
1.8221270013112976 2.7133134685242055 2.5424413420878476 41 40 45
1.808837016517114 2.72541831075506 2.54642716623974 47 45 50
1.3579404669089015 2.35518025147832 2.5319524070506527 45 44 49
1.3437452532121164 2.3525514971549804 2.533227221320028 46 44 49
1.132564610045042 2.3220989577346836 2.553851692446899 39 40 44
1.1191118423205384 2.333781943471444 2.557777044126854 39 40 44
1.1021457699400794 2.2551113120729087 2.5448217836008675 40 41 44
1.0886101981793068 2.2624435735685235 2.5479234742857955 42 42 46
1.0775066307595251 2.339507822668217 2.5640880901288887 43 42 47
1.0643373884213858 2.36247900830001 2.57014187006802 44 43 48
1.050665195825213 2.371968383227011 2.5736742003315003 42 41 46
0.9530763393626888 2.385124828851632 2.588424788913571 32 31 36
0.9396808650669439 2.4169415420629106 2.5962026108910585 30 33 37
0.9261845412168488 2.4488312703929083 2.6040070669919353 31 35 38
0.6979980270753323 2.7812305876216867 2.696321431753791 48 47 52
2.180382202566639 3.221619855872346 2.610965837311804 173 173 173
2.1655305604925434 3.2267133748824457 2.613810422972757 117 117 117
2.119438265761631 3.1242200372312174 2.5997594245793563 79 77 80
2.100665984216272 3.1009517337040466 2.597609774907714 66 66 70
1.8155703313645328 2.640411480592216 2.5442377606582123 46 45 50
1.801376724738799 2.6437279612784224 2.5466562808250837 47 46 51
1.7894289640759777 2.6666406435928263 2.5525834758119252 43 42 47
1.7712408364729844 2.635151644009763 2.548770820132099 42 40 46
1.757079831972059 2.6387531916556752 2.551240389726375 38 36 42
1.3725059665256663 2.335552850108554 2.5407528396143255 47 46 51
1.3570465236198024 2.314136871345213 2.538546639957133 48 47 52
1.3434504205852968 2.3194986864025995 2.5412859130154812 47 46 51
1.3298397044991068 2.324867031884214 2.5440282786813144 47 46 51
1.316225997031361 2.3304253138195286 2.5468077522262518 47 46 51
1.302737601113915 2.338262720744089 2.5500123144089657 47 46 51
1.2893681666828694 2.348461763535575 2.553658717736638 46 45 50
1.2738819973912263 2.323038823825644 2.5506809259064025 45 44 49
1.260349676133835 2.3304294538120387 2.553804581995986 45 44 49
1.232818374135266 2.3377188063757113 2.558661402217059 43 43 48
1.1800219375494407 2.4029271042007094 2.577882970693854 42 43 47
1.166139398314566 2.4069709706796703 2.5804032184767753 41 42 46
1.1520827474765876 2.4072705665964618 2.5822211313536534 41 42 46
1.1210650210188093 2.335776668442152 2.572277943779709 43 44 48
1.1074671062396517 2.34471474902009 2.575709086486164 45 46 48
1.0937740670705187 2.351809022690852 2.5787955506246787 45 46 49
1.0799921565553665 2.356977928401712 2.5815207795298125 37 38 42
1.0650063433272658 2.3269059759078954 2.577581230265851 33 34 38
1.0511134076767938 2.3276981182343603 2.5794739026012827 30 31 35
1.023608061210357 2.3390105267097194 2.5851055242455994 30 29 34
1.0099465623542985 2.348904947509455 2.5887295823774195 30 29 34
0.9832729919941636 2.39967668223915 2.601888418060995 31 30 35
0.9702187851965314 2.4432556050880643 2.611950957107188 31 30 35
0.7146765136677016 2.7565938237138647 2.704545287348444 49 48 53
2.1708970172058994 3.2477419384534523 2.6332266798001425 130 131 130
2.096443519263464 3.056223557079948 2.605176733871242 73 73 77
1.7858666704734296 2.617890154162875 2.5585144012966032 54 54 56
1.7677267846511353 2.58619708325567 2.5546006035542423 55 54 57
1.7524272787383417 2.5789121949379856 2.555093396411446 50 48 52
1.6722377317622839 2.5029259466035048 2.5503009042775475 32 32 34
1.6563185378435599 2.4873210523730696 2.5492480241683637 34 34 38
1.6427122256259654 2.494236563911363 2.552299429806053 37 36 41
1.375715918015934 2.3539456994389747 2.558331830636545 48 47 52
1.3590565339032366 2.315615816285188 2.552937999874297 48 47 52
1.345001999192266 2.3141945532444916 2.5544190098545583 48 47 52
1.331507180492159 2.321217674786182 2.557477461366065 49 48 53
1.3180240262662595 2.328746058617211 2.560633028194176 51 50 55
1.3048442229749908 2.341518004946793 2.564773641843981 48 47 52
1.291422521077081 2.3509419607201103 2.5682913389910915 47 46 51
1.2653949352437586 2.3855676776274692 2.578302855502522 46 45 50
1.2499064265315294 2.359738899176236 2.5752014566353374 45 44 49
1.2344421797054026 2.332721202482977 2.5718650694114156 44 43 48
1.196188476479103 2.4069741693418494 2.5911372483055044 44 43 48
1.1817684210943615 2.399717399861487 2.5915255033738647 44 44 48
1.1674056075369748 2.3931302696889363 2.592037241086264 43 43 47
1.1534952023369596 2.396292748933115 2.594394489066621 44 44 49
1.1398477261060251 2.4058631801008756 2.597969008460548 42 43 48
1.1235074387472859 2.3497909106942187 2.5890737902993513 41 42 46
1.109192517964637 2.3409147120864997 2.589132948521529 38 39 41
1.094790128067655 2.328832402318325 2.5885775504276087 36 37 39
1.0810172946801186 2.3332242385094704 2.591157429985273 32 33 35
1.0693190187589316 2.399022182420901 2.605457851830357 25 26 28
1.0551015380191153 2.3935233017482997 2.6061637206952644 23 24 26
1.041471754315524 2.406502207105427 2.610401006002319 23 23 25
1.0275135859705151 2.409548579961931 2.6127415775108473 25 25 27
1.0137023957971587 2.418231022901341 2.6161633354757514 20 20 22
0.9867670553446628 2.4673585272648393 2.629117655892521 18 18 20
0.9735450420294314 2.5081095619837277 2.6387221556346305 11 11 13
0.746007160204619 2.6778849794885913 2.700310770174377 52 51 56
0.7312374622122852 2.7381333133987877 2.7139127361257827 52 51 56
0.7163565852843699 2.7867097711579243 2.725251475945294 49 48 53
0.7007537613164575 2.899232074803901 2.749156107250968 47 46 51
2.083001943867473 3.0540440981327053 2.6221211111162814 71 72 74
2.0699160969671953 3.0699224264583393 2.6268816621874285 62 63 65
1.7481940935415272 2.523054239426281 2.5594778183256177 56 54 55
1.7283717578841689 2.473786003603645 2.552259992805386 52 50 51
1.3776981629496756 2.3548225621714725 2.5726844031618485 41 40 45
1.3616174766842812 2.3250676786604747 2.5688389700393324 45 44 49
1.3476006281201571 2.3244788271995174 2.57047525463313 46 45 50
1.3373670813039662 2.381466635018432 2.582969363567484 49 48 53
1.3225231935125903 2.369294326457468 2.58242947430557 59 58 63
1.308119161753443 2.363489326023065 2.583087650536164 45 44 49
1.2940970331135875 2.3636180836322507 2.5848658164770866 45 44 49
1.2799082419160082 2.3608828139390576 2.5861011919552825 46 45 50
1.2523830320671017 2.3700823791814605 2.591352384373875 45 43 48
1.2384563940445659 2.371993055572917 2.5934692848819534 44 42 47
1.2246255412834173 2.3758007781978763 2.595947539541947 44 42 47
1.2094772650223868 2.353830875897941 2.5935175903826755 43 41 46
1.1970023277909416 2.384803231834543 2.6011721924190874 40 39 44
1.1838781049435774 2.4041853722165554 2.606627070598951 36 35 40
1.1695510783665797 2.398624974485806 2.607323757243587 33 32 37
1.1555623250154445 2.400254300990716 2.609393054407977 31 30 35
1.140634265755513 2.3798220296754966 2.6072381740486343 24 25 30
1.127404690614929 2.399292524780935 2.6127236094228365 24 25 29
1.1132624814581464 2.3970264000076487 2.614045486949826 19 20 23
1.0999595940388798 2.4168693258000697 2.6196133788835696 16 17 19
1.087628075050474 2.4655607801307537 2.6307370690985765 13 14 16
1.0742333516712372 2.4877837759863892 2.6367848249506305 9 10 12
1.061221060421961 2.5239270251285246 2.6455242004575807 9 10 12
1.048236068740961 2.5647263625615926 2.6551764546462846 10 10 12
1.0342367833245532 2.575352717295673 2.6590176314851273 13 13 15
0.9780443263436952 2.6234806655647622 2.675513235360377 10 10 12
0.9357059641254908 2.6704884307208343 2.6900565714564846 19 18 20
0.7912985092078051 2.739704748696643 2.7217295037047315 48 47 52
0.7477813041699155 2.707967567648205 2.7209236503059584 49 48 53
0.7182506126947321 2.788110480659607 2.7403867772015182 46 45 50
0.7030510996906495 2.856112374687003 2.7556691620158236 45 44 49
1.4569044047805484 2.4443730301547832 2.5949999312289664 22 22 25
1.4273328205747728 2.4287240164034176 2.595587311288986 22 22 25
1.3962508489654692 2.3906521174563946 2.591912558325269 24 24 27
1.3652021207894847 2.349248951252617 2.5875724198686076 26 26 28
1.3504789596909204 2.3388284484073347 2.587343000000789 27 27 30
1.339623207161163 2.3865688609340614 2.5981750617101764 30 30 32
1.3247647250899417 2.3743803745538012 2.597611611556983 39 39 41
1.3101910144768647 2.3660554179957116 2.5977794760630006 30 29 32
1.296202824482922 2.3668494434981957 2.599684261083794 30 28 33
1.2820055038790987 2.364110462511061 2.6009138901957343 29 27 32
1.2537598955053266 2.3606639014457125 2.6037577525504556 31 29 34
1.240241770926224 2.3698514564903537 2.6072698816126247 27 27 29
1.225745870098523 2.360977386503616 2.6073190322121538 28 27 30
1.2119513891482832 2.3652402185726324 2.609888156116291 26 25 28
1.1983567996244089 2.3737887162976645 2.613282987520956 24 24 27
1.1836300178965065 2.359107720224378 2.6122083417573654 25 25 27
1.1713831648566588 2.397238992774982 2.6213068099306316 27 26 29
1.1571150697706256 2.3925602284733527 2.6221602456071524 22 22 24
1.1414877849763663 2.3556079973880792 2.6167773915187507 20 21 23
1.1276897491576146 2.3601984965092404 2.6194119990585936 20 20 22
1.1186390146806051 2.4856750275597403 2.645448683523958 13 13 15
1.1052601297046578 2.5073316465018993 2.6514184430735637 9 10 12
1.0925112167817592 2.5483605097039743 2.661154771868172 9 9 11
1.0784052800698745 2.55381856558656 2.6640000413179714 10 10 12
0.9529139388251708 2.7126646134365666 2.711204202756069 34 34 36
0.9379311432303141 2.687773090083302 2.7081348157730125 37 37 39
0.7495791978191071 2.735103206495003 2.741055365540764 47 47 50
0.7345594350422489 2.8299053183719796 2.7617489458526427 46 46 49
0.7193528709969972 2.9066810319746956 2.778887744275367 44 44 47
0.6591972669118973 2.976537376663698 2.80026739717452 60 59 64
0.6275306755915058 3.0873889752930492 2.8262259386905324 85 85 85
1.7187477160943851 2.4798507305492423 2.5840212000093796 45 45 47
1.4707250105534098 2.5939152944903627 2.6378100200386254 17 17 19
1.4212422366535187 2.511128385181598 2.6274123179050592 18 18 20
1.3864602371511139 2.4240537265121054 2.614321540872251 18 18 20
1.3677587151267274 2.3584495068811084 2.6035220883552803 18 18 20
1.3535309675475518 2.3556373476289774 2.6047347811960098 18 18 20
1.3418827854916429 2.3916794567186295 2.6134038611454113 18 18 20
1.3270998492734292 2.380874396040369 2.6130857260214118 41 41 43
1.3123320960450502 2.3696966785070437 2.6126910929891722 25 25 27
1.2978772283878786 2.362987923943005 2.61315206279186 17 15 20
1.283762011774623 2.361572148941337 2.6146302567796074 16 14 19
1.1721707532945635 2.3732500133179775 2.6308949976131064 18 18 20
1.158678515453263 2.3851701974654977 2.6349651980659488 14 14 16
1.146106345363761 2.4193912928078074 2.6433850415878455 13 13 15
1.1329848149161414 2.442970607820764 2.6497430446491816 13 13 15
0.9395547219077991 2.6714413185257553 2.7196217709411106 38 38 40
0.9244931057806391 2.635464812960559 2.714299286941908 40 39 43
0.8095042464180093 2.6905518198133453 2.739678233754585 41 41 44
0.7950387772935534 2.695927686644 2.7425597745705654 43 42 47
0.7805587070294723 2.7123552290606505 2.747655597793607 44 43 48
1.833493668813023 2.704327497274384 2.6297206997654174 33 31 34
1.8191625850693551 2.7074532157358346 2.6321388759522137 33 31 34
1.3704385106007597 2.3693511550485855 2.619835671899954 17 17 19
1.3565017176233929 2.371129898561702 2.621932735632451 17 17 19
1.3447431224236648 2.4058065840449885 2.630400005403624 15 15 17
1.329574805427733 2.389476841512389 2.6289946839911456 19 19 21
1.3143721784692768 2.371699105537315 2.627301302775707 40 40 42
1.299923081255576 2.365201451784369 2.6277913133749355 24 22 27
1.2824139626625892 2.3070200308887427 2.618228374987746 10 8 13
1.2687919611233842 2.3124650932260074 2.621026384059418 12 10 15
1.230498970453616 2.3790317481895986 2.639240883559592 11 11 13
1.2152065824134266 2.354785627560098 2.636252780457191 11 11 13
1.199139600552065 2.3132982992163296 2.629880408562343 11 11 13
1.1848768288838303 2.3064188422597427 2.6302701009216056 12 12 14
1.1610919231299393 2.3968224269845155 2.6514878955228762 12 12 14
1.149040113674723 2.4434346319832843 2.6624014160168503 13 13 15
1.1367515375116484 2.4879881881924146 2.6729288370752404 13 13 15
0.9256692343306137 2.591745794701895 2.720199111179997 34 34 38
0.8687807866745542 2.6353526553320488 2.736097106768778 34 34 36
0.8401611882934038 2.6605698428090405 2.744757184523557 35 35 37
0.8260559407019309 2.723910643808863 2.759304143571153 38 38 40
0.7969291176640978 2.691808722070064 2.756455202175495 40 39 44
0.7824611346709949 2.725676137009107 2.765096953459247 42 41 46
1.3576812381054033 2.3602431332438085 2.6340405894619923 17 17 19
1.3440197764818214 2.3659653212390053 2.6369078212940797 16 16 18
1.330994853825936 2.381749499391573 2.641744282655735 16 16 18
1.3165316155994358 2.3755659417232895 2.6422874994793726 16 16 18
1.3020600152694077 2.368868791354654 2.6427271947388364 23 22 26
1.2873801763426602 2.358278797169328 2.642400283998719 27 26 30
1.2458925458148917 2.3688316542412067 2.6497181851719263 10 10 12
1.2186226124138555 2.3842554231617004 2.656256219792726 11 11 13
1.201677909495345 2.3264101421849603 2.6465907042235925 12 12 14
1.187293461056889 2.317541110330911 2.6465773619818154 13 13 15
1.1744732961934279 2.341513097755301 2.6530552847490227 25 25 27
1.162779579964024 2.3922188364133303 2.664835634958655 17 17 19
1.151140857569512 2.4479999419683196 2.677642438233769 13 13 15
1.138890784405439 2.4934770280114757 2.6884275981903953 13 13 15
0.9719560418570447 2.6537135248453274 2.7418508278184976 24 24 26
0.957724496857527 2.6644952981326515 2.7458191852651934 27 27 29
0.8275715258912932 2.650857007442737 2.7592597910850225 34 34 36
0.7843280312697869 2.646967578230042 2.763856137968389 39 39 43
1.782073758770101 2.60464737347215 2.6458348343953344 36 35 41
1.7673465414020055 2.6029028720531784 2.6473102497378873 35 34 39
1.75029799604109 2.5802920094779007 2.6447909551558677 31 30 34
1.6815172394604776 2.476811277611542 2.632110343802144 30 29 33
1.3599223054512173 2.364935454712992 2.6491818269917413 18 18 20
1.3461426842254087 2.3690200470250176 2.651735937805735 17 17 19
1.3321423927634768 2.3698808296706986 2.6536556968116645 16 16 18
1.3183442018298641 2.3739287964744125 2.656204600608865 15 15 17
1.3042915286072532 2.374030619055728 2.6579750720277087 16 16 18
1.2770596070592994 2.389048416013412 2.664448513828389 19 19 21
1.2609605734072573 2.3534356251420907 2.659141800076673 25 25 27
1.2486631756119446 2.3845582827553917 2.6670620973183405 27 27 29
1.2215130391226092 2.4033211926650337 2.6742942021237304 24 24 26
1.2065017704100909 2.384932800987265 2.6723881086549888 28 28 30
1.190862416106043 2.3522919825851587 2.6676342895020775 35 35 37
1.17669466947857 2.3486799024975276 2.6686566495905635 20 20 22
1.163517837484139 2.3666543651703593 2.673987205236715 14 14 16
1.0155415821925011 2.590618880862942 2.738388693010247 20 20 22
0.9733941978319554 2.6319516333684527 2.7521213956748434 22 22 24
0.9597966284784614 2.671991472784578 2.762034199813833 23 23 25
0.8581480830574342 2.632387524611794 2.7665591055570453 29 29 31
0.8437374877836701 2.630144197406177 2.767892695800683 30 30 32
1.67405196104025 2.523516557933856 2.6573987036030937 32 32 34
1.6425023689199707 2.495593473457258 2.6555435553223257 34 34 36
1.4082582882071804 2.422440991089763 2.669541363081581 20 20 22
1.3923908386122263 2.398692185874922 2.66659940900694 20 20 22
1.3772331353567 2.3838778939725547 2.665418554398964 20 20 22
1.3620758994992053 2.3683138763472296 2.664082452819832 18 18 20
1.3481077250718339 2.3696885813268396 2.6661046483254536 15 15 17
1.334482264524617 2.3763370710231784 2.6691758527564886 15 15 17
1.3208288436583087 2.3828495372589558 2.6722223793902513 14 14 16
1.3071946942725174 2.389976651163223 2.6753937371155296 16 16 18
1.290361902252692 2.3444504508973107 2.6680640785185923 21 21 23
1.279890192342949 2.4046809571568604 2.681834119779903 20 20 22
1.2668297477119848 2.422977107893631 2.6872460337939854 19 19 21
1.2503093987026928 2.3798436851149134 2.680372798218924 17 17 19
1.2240333452714245 2.4151032693195993 2.6909400639986094 18 18 20
1.21089944419629 2.4344703246226973 2.696582786951196 19 19 21
1.195546838131379 2.4095905096068586 2.6933426739933792 17 17 19
1.1795372902025976 2.3689559866433085 2.686923152413578 15 15 17
1.1664351949297487 2.389276432727747 2.692759265026528 15 15 17
1.152587074662532 2.394034167184041 2.6954667930628227 17 17 19
1.139223962524272 2.4106102748341076 2.700560320058057 16 16 18
1.0309760949950886 2.561573435098654 2.745274833662287 19 19 21
1.017343453862016 2.586547987698281 2.7521403188807883 21 21 23
1.003426968845984 2.6035510691312616 2.7573910664805985 21 21 23
0.9743127719344804 2.587303430231019 2.757649704003579 22 22 24
0.9609389197172236 2.634297167789853 2.7690408380298455 24 24 26
0.8747053972404878 2.65672870028151 2.7844114760924867 31 31 33
0.8606627687653452 2.7002587637265263 2.7951688456006987 29 29 33
0.6839132261687642 2.966886386392198 2.872346826651347 82 84 84
0.6685283042442485 3.0053527829316438 2.8822230279967727 82 84 82
1.7773559137079697 2.528378564517851 2.6603476090253575 49 49 52
1.7080625571353023 2.553712986193576 2.6742478959436964 43 43 43
1.6905712336746308 2.5247346978415575 2.6703744043521427 43 43 43
1.6590273979912367 2.497529218169917 2.668617604663136 40 40 42
1.6440351968062092 2.4909688740698313 2.669112005115056 39 39 41
1.4500341304783781 2.5715014774241576 2.7100329725110437 22 21 26
1.4319929443109294 2.523466144760319 2.7022507033983167 21 20 25
1.4109364831121494 2.4324037246002317 2.6858636580903834 21 21 23
1.3942813447972628 2.3980806473490244 2.680770794514312 22 22 24
1.3799734258177978 2.3953814065587373 2.681985935335693 21 21 23
1.3643459924339825 2.3733529791925476 2.679331170680502 21 21 23
1.3508299498492795 2.3816093249873482 2.6827342668152845 46 46 48
1.3376183934450494 2.394886398934367 2.687147320436195 22 22 24
1.323796191899548 2.399252633608426 2.6897766220260135 16 16 18
1.3097160536745622 2.3996627262770738 2.691612354718446 19 19 21
1.2792450697847992 2.361194093279294 2.687371627853108 21 21 23
1.265089111959353 2.359069492444077 2.688687804984638 21 21 23
1.2525138787635224 2.385196196167497 2.695703427877967 18 18 20
1.2381113213528077 2.3790054069468014 2.6962016607054733 17 17 19
1.2273523994867557 2.4420477585675044 2.710695658142812 17 17 19
1.1840106201141642 2.4234861667605485 2.7122092748937017 18 18 20
1.170173562342046 2.4296419327425363 2.715213890751162 20 20 22
1.155651393915953 2.4206324083692663 2.715138732953227 20 19 24
1.1411863019410715 2.4122012610604995 2.715177185464711 21 20 25
1.1020866283943165 2.49685094168848 2.737703270588777 21 18 24
1.0876172096217298 2.489955065919648 2.738062665626191 21 19 24
1.015669766948521 2.4560629925288127 2.739932532718656 25 25 27
1.0026732382190602 2.5002850339112466 2.7507769430677045 25 25 27
0.9891242679731334 2.5275858160365856 2.758158625791427 24 24 26
0.9753102517565273 2.546999994105353 2.7639273524078067 27 27 29
0.961751559804262 2.5815775880801004 2.7728288835381796 31 31 33
0.8765263939724567 2.64917707835513 2.7975300214601644 36 36 38
0.8625954400706576 2.7025797251127166 2.8104065336926287 38 37 42
0.6860738226716896 2.9456216080874777 2.8830698245692745 67 68 71
0.6705499704561126 2.998983817755332 2.896135893529351 67 68 69
2.3515538125482762 3.5590538607319644 2.820682864408486 191 191 190
2.3316136973539585 3.5359228931938107 2.818292683228531 148 148 147
2.310421219367367 3.504418143774639 2.81429621690899 101 101 101
2.0459740146949468 2.9924962956482966 2.7394327885153307 61 61 63
2.028657813527775 2.977286387593651 2.738383296425701 57 57 59
1.7566788238179303 2.5827705220523804 2.68915727748014 48 48 50
1.7398870706552179 2.562019152089041 2.6868767377964486 48 48 49
1.712199094265556 2.57341553795661 2.692713310601411 47 47 47
1.6991168658410714 2.5865502655742616 2.6971016192891275 47 47 47
1.659844845752827 2.4859677083757763 2.680816772041794 48 48 49
1.6449549996713673 2.480271561590781 2.681467606660935 46 46 48
1.632522379173894 2.499168543930716 2.6869876016586827 44 44 46
1.4318940757889271 2.4961717505039247 2.7112747568241744 28 27 32
1.413558438101671 2.4415379321171953 2.702057167926379 28 27 32
1.3965616198053663 2.402846838488099 2.6960276163014605 29 29 33
1.381738957685414 2.393026885910101 2.6958024666051963 29 29 33
1.3659571438791858 2.368814219084863 2.6926682445877628 31 30 33
1.3515368016515712 2.363556911491271 2.69335309852899 33 33 35
1.3387235412139997 2.3824236565046113 2.6989140064515906 26 26 28
1.3255262467284712 2.396234556580591 2.703458871420261 22 22 24
1.3120422819959292 2.406145311893609 2.7072187579464977 26 26 28
1.2962733906230028 2.3789725820310337 2.703460139860638 27 27 29
1.2824283578732527 2.3827570511300644 2.7059759124681717 28 28 30
1.2674606302088844 2.36718265465918 2.7045580565880942 30 30 32
1.254935434409346 2.3943832225488415 2.711836606454236 28 27 31
1.2398187175008561 2.3753596423504932 2.709711553665712 27 26 30
1.225694851341351 2.373988699903567 2.711177268981339 27 26 30
1.2020409331795352 2.464164637386917 2.7330878733260433 26 26 28
1.186764364851375 2.4413267295364127 2.7301801471670912 31 31 33
1.1712466355493993 2.4115258083655453 2.7258373692021407 32 32 35
1.1582635989567356 2.4367294202768335 2.7327526266737663 32 30 35
1.1455306714697682 2.4697006251022633 2.7412711064877726 29 27 32
1.132797594354798 2.505266291180495 2.7503354741533665 26 24 29
1.119231119653639 2.5225372839768387 2.7556541869745255 25 23 28
1.1032826535002294 2.4779361767544827 2.748250977293964 25 22 28
1.0884778761792278 2.4609549659673644 2.746516892459285 25 23 28
1.073997240066053 2.451703021886902 2.7463687715585228 28 26 32
1.0172975607984167 2.4467998330904974 2.752379148947338 28 28 32
1.0042007907407045 2.4863041845223215 2.7623173778536865 31 30 34
0.9909850917705214 2.526168172789975 2.7723460443615373 32 32 36
0.9768401804403604 2.530851885465136 2.775088260333051 35 34 38
0.9635144699508544 2.5749619469437453 2.786023955073148 37 36 40
0.948784565044597 2.55421660585387 2.7834886060083783 38 37 41
0.8772606979356977 2.5448625252199277 2.790403662439991 45 44 48
0.8633190047217468 2.5781815878456857 2.7991454573422665 49 47 53
0.688192755439244 2.927607942589822 2.8944144029115204 58 59 61
2.371239142474518 3.56582809760713 2.836291376478806 200 200 199
2.350333128957451 3.537143543689236 2.8328017470154774 168 168 166
2.329554844408734 3.5086342886638824 2.829333447721319 115 115 115
2.3057195892951468 3.4603330318311043 2.822046615963836 90 90 92
2.284784626661393 3.429367169741469 2.8180767123130748 83 83 83
2.050428516528855 3.0088707598217086 2.757972158132278 59 59 61
1.449318356610268 2.5112161678609333 2.7270155005697525 39 38 43
1.4326572560400648 2.4803806822724104 2.7225428750869924 38 37 42
1.4166080803181877 2.4563636607668498 2.719440511293358 37 36 41
1.399229837217932 2.412915067756949 2.7123816343718437 38 37 42
1.383899768719717 2.3962474516388808 2.710748844160868 38 37 42
1.3700131493331813 2.399562659317349 2.7131752935218443 37 37 41
1.3564220528058988 2.4073670166695997 2.7165172203620287 37 37 39
1.3429147552098837 2.416791483587102 2.7201923740941742 38 38 40
1.3305638596519205 2.444630299248407 2.727629714760728 39 39 41
1.3150945385614454 2.4241533274984954 2.725206239035042 38 38 40
1.2993384503770558 2.3978189467498154 2.721575990721815 37 37 39
1.2843447240351433 2.3828073758958093 2.7202527094506372 36 36 38
1.2701623296959077 2.380943451586079 2.7216173669951575 35 35 38
1.2545322087889972 2.3530934152853304 2.71765001512165 35 34 39
1.246414257695883 2.4615920477607176 2.7416700494828516 36 35 40
1.2317711896677737 2.453136351008192 2.741693756896441 36 35 40
1.2179048164731958 2.4592819869683162 2.7447180291260884 37 37 41
1.2041347270015945 2.467731334181936 2.748218971205819 37 37 40
1.1896143533631531 2.4610027858727883 2.748593781693692 36 36 39
1.1739957802526524 2.4299169961582354 2.7439386917239466 37 36 39
1.1601639604580434 2.436641237906706 2.747081398569886 38 36 41
1.148718915515712 2.4995794705455676 2.761850930906355 34 32 37
1.133742490986708 2.4816965989240622 2.759916498084032 29 27 32
1.1192357847872474 2.4741377357861327 2.760113502256162 29 28 34
1.1045672448353419 2.4615680730806413 2.7592677962673267 28 27 33
1.0899612401503873 2.4495008910384315 2.758520906240418 26 25 32
1.0764673857167075 2.4684016547371703 2.7642043193753016 27 26 33
1.0612640843422483 2.4371310107123247 2.7594584876038257 28 27 33
0.8793348094369927 2.5617899839703826 2.8084756555981913 51 50 55
0.8651855033608473 2.576220099555072 2.813292181636177 54 53 56
0.8510431661535063 2.597020965328359 2.8194590824104884 56 55 58
0.720167383469171 2.87942951907968 2.895599420859563 48 48 50
0.705374877293014 2.880663377218811 2.8976968329676662 53 53 55
0.6906763158661768 2.872373099513086 2.8977625124315334 56 56 58
2.3700094514301044 3.544087664280797 2.848428450989336 186 186 186
2.349012086718846 3.5146785295006824 2.844744268351838 136 136 136
2.326232418542223 3.473592986675327 2.8387846264462615 97 97 99
2.303470256928406 3.431733567230069 2.8326573561586468 84 83 87
1.7901467249714855 2.586108861768263 2.715509982099009 51 50 54
1.7789280214901337 2.6148597900644894 2.7230481135777356 52 51 55
1.745316727127984 2.5743586388444757 2.71855649913729 52 52 54
1.6654002738510005 2.5011112530978195 2.712805292837979 52 52 52
1.6492934422748105 2.4837079876558046 2.711081600267552 51 51 52
1.4759311224578875 2.4618615065806946 2.7279070430630914 45 44 49
1.4634201283722683 2.4836608920569274 2.7341191487970864 45 44 49
1.4484585311738116 2.4748804307242644 2.734097038143703 45 44 49
1.432417426321396 2.451512983762159 2.7310900320297544 44 43 48
1.4184397792050252 2.4547502968625143 2.733515358945921 43 42 47
1.4019051688732838 2.4230098252303667 2.7287793626431123 41 40 45
1.3874581422266135 2.4190639872744883 2.729727107139755 42 41 46
1.37420759059988 2.432092119931502 2.7341555896249616 42 41 45
1.360878412754275 2.4445584774173517 2.7384737119048737 42 41 45
1.3475128912272 2.4570590331848967 2.742803652386478 42 42 45
1.3341132321817855 2.4696304134820295 2.7471529683383427 42 41 45
1.3188504131553271 2.4532063273578695 2.74553397336257 41 41 44
1.3035972684403474 2.436005058806625 2.7437476143819777 40 39 42
1.2912062954548655 2.465825434415135 2.751659754752609 39 39 42
1.2723101358212878 2.3850270972804184 2.736727832213072 39 39 42
1.2579793436025384 2.380537153781991 2.737544832320716 39 38 43
1.2443484214277483 2.388537040455607 2.7409454221250407 39 38 43
1.2325278246786713 2.4311649982112042 2.751525145481673 39 38 43
1.2219528829549557 2.500770394563938 2.7677182864667667 40 39 45
1.2021098238233068 2.3883021800011868 2.74613264123284 40 39 45
1.1660315230348128 2.525325125298733 2.7799022231655712 39 38 43
1.1500178963914 2.485227851693499 2.773314912162847 37 36 41
1.1350251743091546 2.466530503700954 2.77117639450144 35 34 39
1.1208065380743462 2.465694532573356 2.7727607202354965 36 35 41
1.1056854772381723 2.44100491895546 2.769356947963258 36 35 41
0.8670352276426541 2.5726066606050666 2.82708564485874 55 55 57
0.7372494371809036 2.8034767702978654 2.892539480679113 44 44 46
0.7225624153970387 2.807250926587216 2.8951675465082247 49 49 51
0.7077233151842102 2.8285586946910146 2.901563219390678 53 53 55
2.368284290661925 3.5194035532821974 2.85992288080546 163 163 163
2.349226989784001 3.5016820333286294 2.8584648780131556 109 109 110
2.30124958153743 3.403395473808822 2.843227597970281 80 79 84
1.7757000661818372 2.5688843518057594 2.7284976216064876 40 40 43
1.7596591633605019 2.5550936873653116 2.7275130285682923 42 42 44
1.7477257637785302 2.5777360454491616 2.7338711134054536 45 45 47
1.7326109681621928 2.5720484619170607 2.734518052213479 48 48 48
1.717525750855187 2.5664326292151523 2.735176789224947 52 52 52
1.6828078765700518 2.5111609412536113 2.7275667281931253 51 51 52
1.6633736902861815 2.462005965398343 2.7193812836577305 57 57 57
1.6460246053535519 2.431771466469146 2.7150150036420246 52 52 53
1.4315920311925163 2.415147982258231 2.7379997378830647 46 45 50
1.418309440551825 2.426895634098838 2.74217709366361 45 44 49
1.4052439840160136 2.4421095910274744 2.7470745612317384 45 44 49
1.392041866952273 2.4560792574638106 2.7517208068519183 44 43 48
1.3786043672764297 2.4673008319257637 2.7558039816893944 44 43 48
1.3656693240081135 2.486404638385889 2.7615235822378654 44 43 48
1.3365960724781207 2.4779877888714927 2.7633117333924044 44 43 48
1.319367458683471 2.430746077272866 2.7552653507431786 43 42 47
1.3035989256813658 2.4046575671567947 2.7515967380223794 43 42 47
1.288666753978394 2.391056577239158 2.7505156544972422 44 43 48
1.232660892677618 2.3976445178807646 2.7588742731109126 42 41 46
1.1675109126030048 2.5153973240220084 2.7923226352906547 40 41 45
1.1514803233580264 2.4747894689828716 2.78555746674474 38 39 43
1.1368867916838277 2.465430680213335 2.785348652167864 39 40 44
1.1223278760850113 2.4560933989517753 2.7851401838404914 42 42 46
1.107558426684179 2.440377546343937 2.7835831716263533 42 41 45
1.093171168876987 2.433599893096863 2.7839050539547565 41 41 45
1.0799021817223633 2.4580732350861365 2.7908232021989843 42 41 45
0.8124224914697649 2.7733949171154646 2.891916805294551 32 33 33
2.3871518016423487 3.5215386877909425 2.8746136850060404 185 187 187
2.3625655474644462 3.4706156655811418 2.8665962732929064 135 136 138
2.3525570959347495 3.507768866053256 2.8759053571084716 96 96 98
1.8909751582862044 2.779080489230308 2.774767322055596 47 47 49
1.83388816207131 2.674580934434369 2.7591358959333103 40 39 44
1.8117634592774365 2.611565607516424 2.7481871732105896 35 34 39
1.7821035216237942 2.606862442173089 2.7508373282278136 29 29 31
1.762875247314662 2.565550098877706 2.7442441759707927 28 28 30
1.7498076959447186 2.578163502944448 2.748601639478068 32 32 34
1.7343181706328046 2.5691089360377495 2.7485524028253834 34 33 38
1.7198564245534669 2.5692394874498143 2.750371043852834 38 37 42
1.6852482763461667 2.515271502310011 2.742932886716696 43 42 45
1.6657006875731313 2.46521918578084 2.7344808432991603 47 47 49
1.4936548710178768 2.456392118619091 2.753861820928668 47 47 51
1.4790300908784664 2.451715692510945 2.754656515067795 49 48 53
1.4665829786170834 2.4740377315822224 2.7610459964127636 47 45 50
1.3641204583490523 2.4352052545033716 2.765295436064758 44 43 48
1.350614950397251 2.445359972471985 2.7691730618806147 44 43 48
1.3349076460007359 2.422130332089533 2.7660717996309314 44 43 48
1.324938330408975 2.4881923536399944 2.781655359815348 44 43 48
1.3071182887656723 2.430536633033676 2.7713379107555838 45 44 49
1.2909549016275388 2.3972371690599688 2.766105830038775 46 45 50
1.2118653454574204 2.5070967300774045 2.7997594101857097 43 42 48
1.1978265765220208 2.5118963658935267 2.8025398666561507 43 42 48
1.1829852415760451 2.4998221967056122 2.8017544960506604 41 40 46
1.1684747934352235 2.4941317599382895 2.80231478200035 40 40 43
1.1532563468486794 2.471658020728577 2.7993171921097484 38 38 40
1.1381607805935763 2.4502765727079336 2.7965416482522567 39 39 42
1.1234638795265193 2.4369896846193364 2.795474981346191 41 40 45
1.1089932486531022 2.4283646933689607 2.795392919890179 41 40 46
1.0814526470290253 2.44823911271442 2.80311924079292 42 41 47
0.8286941545084744 2.721636128085792 2.8937942450608154 34 34 37
2.385486646922329 3.4975413726634903 2.8861391851888483 167 168 169
2.364785460618677 3.4699467794113614 2.882658894102338 112 113 115
2.302381869651583 3.4820482621397564 2.893027013944336 71 71 73
1.9047624837946013 2.7540809029473574 2.7828463791949405 51 51 53
1.872435939928482 2.732252150557331 2.7820663020234795 51 51 54
1.7532702856749522 2.5909253837846484 2.7658676515884872 31 31 34
1.7330180398268369 2.5388861654367245 2.756980515382867 31 30 35
1.7171457890362969 2.5255776511893853 2.7560303647976583 28 27 32
1.7013739101878866 2.5127662647468596 2.755176627982874 26 25 30
1.6880066887566239 2.522381076969509 2.758934899579639 31 31 34
1.6681174758153965 2.469279336224457 2.7497702556701147 37 37 39
1.4950385543549443 2.449424942802746 2.766832541461272 40 40 40
1.4842173104395495 2.4911064609255678 2.777295800248244 42 42 44
1.4668502051171501 2.4528712262581323 2.771073700943576 42 40 45
1.411020324122678 2.467676972555286 2.781220702003254 41 40 45
1.3800380855467056 2.432220365680918 2.7772909907229586 40 39 44
1.293801178417191 2.412621647285129 2.7836674610262135 38 38 43
1.2289562493232455 2.524121655786494 2.8160974640127563 40 39 44
1.2133271562852117 2.497803547779448 2.8122692310645268 39 38 44
1.199836558946954 2.5135775164839713 2.81739109998689 37 36 41
1.1852237419734868 2.506531804924624 2.8176561920367544 36 35 40
1.1708264895788503 2.5036627915219327 2.8188089652926713 36 35 41
1.1552519139845387 2.473569325970595 2.814147503558734 34 33 39
1.1398732501384283 2.445698887245078 2.8099484644765558 39 38 43
1.1246712549009643 2.4198491243381186 2.8061699304678203 40 39 45
0.9997102357212397 2.496398994995271 2.8383847623136607 31 31 33
0.8868623714596372 2.5604765866478356 2.866370897788412 28 28 29
0.8724775812996951 2.5522868546527553 2.866357340294817 33 33 35
0.8303499994400103 2.676659589402627 2.898795399526761 44 44 47
2.404517798287177 3.500789928172464 2.9010402758340583 194 194 193
2.383902861048057 3.4740957272130113 2.897698829673184 143 144 145
2.363257194157569 3.4466554332599117 2.8941965778410923 97 98 100
2.3427476074980413 3.4194632875430733 2.8907322541864375 84 84 86
2.3217939476235427 3.388953509505541 2.8865908759542718 76 76 78
1.8887550102404866 2.7278749342253716 2.7942635198867776 50 50 52
1.8735647932338642 2.724495796404108 2.7953954071161276 51 50 53
1.724811553315139 2.5775008425470274 2.7813500338095616 43 42 47
1.7058838754296946 2.5360818265591893 2.774551454968654 32 31 36
1.6914349254514511 2.53580678221953 2.7762765547745025 30 30 33
1.6736875779510942 2.5037063073830748 2.771387959945937 31 31 33
1.4971253889190899 2.4508830631036442 2.7815557977523406 25 25 28
1.4836320709018604 2.4599605986264064 2.7852261622336343 27 26 30
1.4671162212311963 2.4318027087464804 2.781055179831601 28 26 31
1.4508603530170172 2.405720557375943 2.7773100167597993 28 26 31
1.4376629607443612 2.4181405177267967 2.781681215461446 28 26 31
1.424429621820745 2.4305946348255674 2.786064392584263 30 29 34
1.4118317715827196 2.4521848142046916 2.7923846333769915 30 29 34
1.3821051699410964 2.4339995295470875 2.7920465634226685 30 29 34
1.3689686169959216 2.449285086257893 2.7970424529662954 30 29 34
1.3238077314083427 2.4095355716829423 2.793854425754546 29 29 33
1.3108750362487644 2.4289018518991288 2.7997254124520623 28 29 33
1.2970354179448673 2.434294249493157 2.802625558989719 26 27 31
1.2603869462462989 2.5398251240532974 2.830437335753803 26 26 30
1.2457669857037645 2.534603634903912 2.8310922826248315 27 26 31
1.2166367170000278 2.525135678021156 2.832603734157429 26 26 28
1.2019157105404572 2.5166459335521214 2.8325501244790896 26 26 28
1.1871378868646754 2.506298248602277 2.832093636688051 24 24 27
1.1728924641119702 2.506818400559075 2.8339690189086606 23 23 26
1.1569969665843496 2.469743917793916 2.827754179973838 25 24 28
1.14104300821521 2.4283144633480473 2.8205857690809926 31 31 34
1.1027280666881467 2.53748208441851 2.8494058507110585 28 28 31
1.085837040690828 2.4648982919894364 2.8354799597290836 26 25 28
1.0722872645314823 2.4834731600901385 2.8412526109814085 24 24 26
1.0580143207294577 2.481496872388665 2.8425806281158317 26 26 28
1.043485723464244 2.4708838576340373 2.8420348005663465 27 27 29
1.0163612144636183 2.516113297925611 2.8553657381905673 21 21 23
1.0028600145097855 2.545300203354607 2.863473621805253 24 24 26
2.4031192112714006 3.4786796021409394 2.9128458931122307 182 183 181
2.382326078431355 3.4507557341277524 2.9092054551776227 124 126 126
2.3617321182081765 3.423447318460754 2.9056772523782186 91 91 93
2.3411817785479045 3.395826457465808 2.9020741980127167 80 80 82
1.7189052722899525 2.6385926634281107 2.8105669822806885 43 42 47
1.6991042974420856 2.589306864215422 2.8020547029146243 40 40 44
1.6806520417639899 2.551381485964781 2.795901588470815 38 38 41
1.4534910495992304 2.4143601825435845 2.7934905649693555 34 33 37
1.440286797897526 2.4268712124789804 2.7979027061608877 62 61 66
1.427041406274298 2.4393517165014043 2.802313141063438 25 24 28
1.4138258297440607 2.4527581511351255 2.8069257527615434 27 26 29
1.3963082966432416 2.4072832809603546 2.7989787577927356 27 27 30
1.3846920587459097 2.443112086637514 2.808378947205681 28 27 30
1.372028864048449 2.465458552214469 2.814910948289887 28 28 31
1.3571564571650507 2.456072118312888 2.8146607106757626 28 27 30
1.342480322751553 2.4491557617093287 2.8149353981912846 28 28 31
1.3285499859996346 2.4534820378122686 2.817617518781659 25 26 29
1.3157606913660074 2.4762842847033566 2.824266424274558 25 26 29
1.3013725086032915 2.473957329294796 2.825525896717255 23 24 27
1.2878339269476804 2.4858364288763695 2.8298388300383035 23 24 27
1.2719949417284149 2.458281080412112 2.825668529423773 24 23 25
1.2031741212292244 2.502963361470493 2.8441013487536164 24 24 26
1.1888207817255518 2.501181541472561 2.845477716279627 22 22 24
1.1739796435010277 2.48855902812329 2.8445041517779566 20 20 22
1.1591857022303662 2.4759949364914995 2.8435377475445343 22 23 25
1.142987495611973 2.429333355067379 2.8351639901114116 24 24 26
1.0751010236122442 2.5101367000528683 2.8615120869889594 22 22 24
1.0318965902613142 2.494879557170941 2.8634553960415383 27 27 29
0.8200833135860158 2.7682361148662635 2.9503868427696345 49 48 53
2.4227284680612153 3.4854003279943524 2.9284473642999926 202 202 200
2.4023999024737592 3.4606350069623244 2.9254074803889556 170 172 170
2.381473245528264 3.431791816333486 2.921527820856361 110 112 113
2.3612073746989224 3.4063221608323824 2.9183224073973415 87 86 88
2.339231488998011 3.3699181473532644 2.912878344378411 77 77 80
1.4544705050940405 2.4021017002477287 2.805227121101775 34 33 38
1.441258842339012 2.414248027369352 2.8095784800551926 36 35 40
1.4279486667162973 2.425592220265146 2.813762290608273 31 31 33
1.4146055756374851 2.4369637894300373 2.8179562957738833 29 29 31
1.3985427661938932 2.4113458211621905 2.81419903876283 28 28 30
1.3867907450103552 2.445273631482066 2.8232500466334622 28 28 30
1.3743346849007807 2.470623852370738 2.8304662694727485 28 28 30
1.3596981070047354 2.4649200877004764 2.830994453021665 32 32 34
1.3449365516789025 2.4569909764439357 2.8310395081884847 47 47 49
1.330437116245471 2.452686914886348 2.8318643483181747 28 28 30
1.318022260237397 2.4814040695457504 2.839829788681528 25 26 28
1.3056267448197656 2.5119573200191514 2.8482041872592494 25 25 27
1.2891063362917163 2.47460378892347 2.841874249100741 25 25 27
1.2646391815209694 2.546279486672622 2.860950923926883 24 22 27
1.245659180491509 2.4611103739120344 2.8442122436843134 24 22 26
1.2051500054539068 2.5039349829898727 2.858804773118609 24 24 26
1.190685338987554 2.4999104270575305 2.859687941368193 21 21 23
1.1762963239166255 2.497179040190115 2.860851486534339 20 21 23
1.1609482252995358 2.4725630549936457 2.8572305176998904 27 27 29
1.1450899302525561 2.4340261306761097 2.8505537629748368 28 29 31
1.0786583403030812 2.5580361925617447 2.8865330238267424 29 29 31
1.0634766973384757 2.532270895340344 2.882634033046024 31 31 33
1.049052312669409 2.528008529195896 2.883458953761356 35 35 37
2.401366946531601 3.440790841507011 2.9375444191301545 160 162 160
2.3805544904134437 3.4124865098359147 2.9337209856618114 103 105 106
2.354899713997624 3.3544964538368465 2.92379334119997 83 82 84
1.4566500848087025 2.4050096321187766 2.820201829507324 37 36 42
1.4428736111840024 2.4099528850391496 2.8230162020291205 36 35 41
1.4293091084906397 2.4178598478246034 2.826473464808007 35 34 38
1.4157833189834679 2.426602504897687 2.8301146032012117 35 34 37
1.3884687553396715 2.4414999900314736 2.8368451300126543 33 33 35
1.3764009426753026 2.4722989146916587 2.8452854685560256 33 33 35
1.3618173922829109 2.467472348534548 2.8459939187527548 33 33 35
1.3464177228991319 2.4500254553436838 2.8439540915182984 35 35 37
1.3330874705025515 2.4637213709550587 2.8486892643782125 35 35 37
1.3205252307597843 2.4903191661584536 2.85624220296054 34 34 36
1.3066699660191603 2.4971793966886766 2.8594990255708073 34 34 36
1.2905194744307826 2.4658108372353116 2.8544091079182237 34 33 36
1.2760647687714934 2.461904072364683 2.855309307694652 34 32 37
1.2624101288063516 2.471953717983792 2.859261369819534 34 32 37
1.2503714982896814 2.5121947605023296 2.8698295617782583 35 33 38
1.237620305008271 2.5414325887422695 2.878001753855879 34 34 37
1.2183645222308543 2.4455167380187453 2.8587238642125703 38 38 40
1.2040550913942862 2.442927080682448 2.859903475307038 38 38 40
1.189557566768345 2.436173692588947 2.860166361216388 38 38 40
1.178388761710397 2.500854107345443 2.876144224890405 37 36 38
1.1632424961138046 2.4810778428427356 2.8735473265159373 35 35 37
1.1469659017917693 2.433381631126492 2.8647871732276493 44 44 46
1.1318717485023742 2.4104367535904494 2.861468571438272 45 44 45
2.4564701389565293 3.3758013933246156 2.932434648125316 207 207 207
2.4007079299404883 3.4231985728201026 2.950084160892693 153 155 153
2.3765591832930646 3.374958966119492 2.942087108825049 103 105 105
2.353693564748188 3.3334253658644153 2.9354572425549406 82 81 83
1.4722390909972647 2.3985321420624435 2.8314044560882414 54 53 58
1.4582035957561872 2.400037007743895 2.833475735111427 54 53 59
1.4442191106949687 2.402224209881959 2.8356959247261084 52 51 57
1.4305949876710944 2.409189455059729 2.838958466989591 50 49 54
1.4170433980464963 2.4173987349572954 2.8424950242469547 48 47 52
1.4016932105331998 2.401317502546298 2.8407283767237907 47 45 50
1.392494150820577 2.470631104935426 2.8576266645921238 46 46 50
1.37539252684624 2.4298479858270126 2.8504574372701486 48 48 50
1.3622266554580664 2.4448691727207104 2.8554958170249245 51 51 53
1.3487333771319512 2.455668630245261 2.8596143155614384 51 51 53
1.3353461919483047 2.468618611412672 2.8642088718612224 53 51 54
1.3229690508248775 2.4982228436641183 2.87246693918641 52 50 53
1.307643082949132 2.4813587910499226 2.870519259077551 52 50 53
1.2915224922201738 2.450209533409053 2.8654203597697783 53 51 54
1.2804333969690878 2.5038586950350967 2.878988668973348 55 53 55
1.26602437734234 2.5017743793663545 2.8802896181618705 54 52 54
1.2526751671352194 2.5188653331961817 2.885821342452472 53 51 53
1.2398236493487855 2.5463436906076384 2.8936543263694805 51 51 53
1.1914255492858412 2.4352632478417715 2.8743516302661294 53 53 55
1.1800138391300425 2.4944238165388843 2.8892132270790727 56 54 57
1.165035355304792 2.478305494086154 2.8873923541722286 38 36 39
1.1493852613582591 2.4453217551069417 2.881818250603012 52 50 53
1.1340061824184036 2.416167687677925 2.8770818032291223 52 51 52
2.422720057278685 3.4444249253981605 2.9686732114054273 195 195 195
2.3998487673821502 3.404477186172059 2.962334219760935 149 149 149
2.3764007694345923 3.360292966177958 2.955095410907176 102 102 104
2.3520516416857147 3.3098008739333533 2.9465220512663794 81 81 83
