ply
format ascii 1.0
element vertex 714
property float x
property float y
property float z
property uchar diffuse_red
property uchar diffuse_green
property uchar diffuse_blue
end_header
1.924124148049811 2.722593362944294 4.0730179846409635 186 186 186
1.9463090776038867 2.762568735814258 4.085481001072202 185 185 185
1.9255439893696353 2.763852678289203 4.081662271785365 184 184 184
1.9394281416436876 2.7965463585229937 4.091018328951091 183 183 183
1.6664449411513855 2.5679202457174375 3.9910398608991966 183 183 183
1.6481488630027163 2.5705995125427923 3.987989042466219 182 182 182
1.6343993405772677 2.577397014792474 3.9866663171167867 181 181 182
1.630633183320534 2.5933597483443918 3.9891629648149554 179 180 182
1.6171250701223465 2.600359230911054 3.987928613141186 178 179 181
1.5172950489222876 2.527330184524409 3.9535114858539706 177 178 180
1.3185671821763494 2.361775092883183 3.880907305602105 176 176 178
1.3407336905615144 2.4011415062974186 3.8932432361453837 174 174 176
1.4201250604506659 2.4942735776302394 3.92772135065034 171 172 173
1.3699018956425482 2.4662169081459853 3.912167093998059 170 171 172
1.3596409042829178 2.475564018691178 3.9120465845337957 168 168 169
1.3841859101381346 2.517815681797937 3.925434730003655 162 162 162
1.703198509961307 2.8396458795022945 4.053352358181825 157 157 156
1.6867701396207 2.844256125789522 4.05105993677714 150 150 147
1.3092143512287433 2.5039268482090726 3.9078914969554925 138 139 135
1.288464780267639 2.503160937633316 3.9036602056430496 126 126 123
1.2658375780451145 2.5005160568436513 3.898679112898498 112 112 108
1.2441213824347668 2.4986638541888624 3.8940376928323452 97 98 93
1.219804521348047 2.49421390123014 3.8883587064761373 77 77 75
1.1858264868709796 2.480284262633885 3.8788598817465583 60 60 59
1.1604023679424627 2.4745281230464267 3.8726985570604118 43 44 45
1.1288780147724329 2.4627025442114037 3.8641083290006524 41 42 45
1.0930469378543701 2.4465065622910007 3.8537859926445037 41 42 46
1.0617737084214762 2.434620877026423 3.845232908150758 42 43 46
1.0307416672456218 2.4228273231773927 3.83674588192701 43 44 48
0.994032975870367 2.4052650288041337 3.825974127319464 42 43 47
0.950847799844008 2.381082156557447 3.8125878154718738 41 42 46
0.8656854540159623 2.3148099809494127 3.7824219392273193 41 42 46
0.8206962098500804 2.2882277643767432 3.7681947700464424 42 41 47
0.8783832097739707 2.3644819183453856 3.7949873055071848 42 41 47
0.8361157569660668 2.3404998740759835 3.7818219873927035 43 42 48
0.8225213207010739 2.3452702926488884 3.7801187331542083 43 42 48
0.8046060940889446 2.3456267266782325 3.7766717712124316 44 43 49
0.8817868944802488 2.44266518101575 3.8115076700204322 44 43 49
0.883618245202033 2.4633741557021933 3.8160661865729337 44 43 49
0.8569808283370963 2.4550003579977773 3.8091357908203185 44 43 49
0.8289372178958484 2.4450605097435156 3.8016116467048677 43 42 48
0.6673406815380739 2.29730665509646 3.7399106892857312 43 42 48
0.7347624236937891 2.3853903614564187 3.7710139531783424 42 41 46
0.41215364025497103 2.7200871169370195 3.775501538732724 41 40 45
0.3779929340902448 2.6998763206389746 3.7646933179770192 41 40 45
0.38371228822505454 2.726250896498863 3.77116429327736 41 40 45
0.33215647037154117 2.6853241103371404 3.752738821215268 40 39 44
0.30914805409788837 2.6777735654281445 3.746688214202367 41 40 45
0.307896987896898 2.695888262051227 3.7501152342265387 40 39 44
0.3264899090887383 2.7376498543072767 3.7622348022609535 39 38 43
0.3529352106413983 2.788991149149134 3.777839171734621 39 38 43
0.323775091476044 2.7740686506609906 3.7690854645855953 39 38 43
0.33997306679936945 2.813441844646512 3.780250323836461 40 39 44
0.2646844942384987 2.7428053765942915 3.7511391651968746 40 40 43
0.293882479124957 2.79792129669718 3.7680495758611547 41 41 43
0.2783592051477164 2.799109077371887 3.7652410406024175 41 41 43
0.30279320161583856 2.8488561073070473 3.780127074388024 41 41 43
0.29503154121012587 2.859568227573857 3.780774285617163 41 40 45
0.2970931512633386 2.8823187903486676 3.785791968302534 41 40 45
0.29923527172765874 2.9052554341796935 3.790863194444555 42 41 46
0.2470186306699127 2.8612594758808623 3.771685633270299 43 43 48
0.24409415479538432 2.877882661536887 3.7744815265557268 43 44 49
0.21733370753052794 2.864968537961773 3.7666064063628037 43 44 47
0.2450604004270578 2.9197562464249254 3.7831612542177195 46 47 48
0.27320139054593917 2.975362446840129 3.7999634359877676 50 51 52
0.47892299299519414 3.2538861301204003 3.8968459706810363 59 61 58
0.4696392176613968 3.263775582481931 3.897027383939019 70 72 69
0.46260087381595394 3.2764969673532667 3.8982240627986275 86 87 83
0.4557200228667013 3.2894349547241504 3.899495595651949 104 103 99
0.44818197564579054 3.3015566802934293 3.9004725321782994 122 121 117
0.43690480683761246 3.3089257042911733 3.8997513474967027 138 137 132
0.42900052320680837 3.320589563496487 3.9005635083504844 149 149 147
0.4127123456043704 3.3215061582758447 3.8975497337639164 160 160 158
0.40422259797729954 3.3324007233746054 3.8980909119852507 168 166 167
0.39562405738614137 3.343159830634555 3.8985832549038757 174 173 176
0.3902245894745304 3.3580690223897918 3.9005454516135005 179 179 181
0.38121793030456375 3.368319618817859 3.9008545233868857 182 182 184
0.37362023602201466 3.38040911713005 3.9018132088544197 184 185 186
0.3817693946403222 3.413124146430861 3.9100470244969756 185 187 187
0.37539626132516424 3.4269167948108894 3.911591575894753 188 190 189
0.38147744296802033 3.4571452419859607 3.9189150049379395 189 191 190
0.36539481017568765 3.458203632800218 3.915970356459885 190 192 191
0.3687851357437699 3.485033061415743 3.9220760442457965 192 192 190
0.36752850263690373 3.5057885015390338 3.9260373846840553 193 193 191
0.32663794812312097 3.4736850403583954 3.9114959143862027 194 194 192
0.32295235315911563 3.491150003382 3.9143129664289655 195 195 194
0.3275790544704129 3.5198387724901132 3.9210385088139046 196 196 196
0.30766349775602686 3.5155462436646863 3.9162560233519472 196 196 196
0.299777723304002 3.527437864136998 3.917117998984482 196 196 196
0.29289600586715325 3.5407042823224755 3.918455951375022 197 197 195
0.272766835945246 3.5359416191550377 3.9135361838733473 199 199 197
0.2255720034824209 3.4940781946624337 3.895777470030743 201 201 199
0.2837270043341249 3.5963684110546 3.9279407820181294 201 201 199
0.24033351853537166 3.5595213437778597 3.911945869249923 202 202 200
0.44080529916581135 3.859102155291523 4.012066498435087 202 202 200
0.41003184370701207 3.8402363958781476 4.00219636994135 202 202 200
0.4017216292621275 3.8523999229479156 4.003030098870056 202 202 200
0.1093952013209536 3.4684251338128944 3.8677547543751385 203 203 201
0.35354017911571556 3.8325897630033636 3.9895489022116144 204 204 202
0.3294350013622904 3.8224580399355075 3.982759512664291 204 204 202
0.30504714015674517 3.8117893057681576 3.9758057137197595 204 204 202
0.5470463481429608 4.1775585555712365 4.097503689841488 205 205 203
0.5359472171285522 4.186720458737835 4.097180986967152 205 205 203
0.5383120127240757 4.215031900168791 4.103385701711419 205 205 203
0.5751241242125178 4.292650208183919 4.12635420195906 205 205 203
0.5871682200152861 4.335230019423549 4.137353227426462 206 206 204
0.6076319553085661 4.390126285605806 4.152503365399698 206 206 204
0.5872926088048711 4.386460630929105 4.1477647310624715 206 206 204
0.6108812386328384 4.446272934198497 4.164525449250356 207 207 205
0.6347119388849416 4.506764971939916 4.181471536235635 207 207 205
-0.28974175558382154 3.207481775455962 3.7364425472157463 207 207 205
-0.2964034787391585 3.2194433252569987 3.7375591511631336 208 208 206
-0.5031471568531036 2.9369149000270847 3.63966387576485 208 208 206
-0.636451372937173 2.7608756153560963 3.5777856967058153 208 208 206
-0.6509903485817972 2.7595836144242956 3.574667736192949 208 208 206
1.2378658909475286 1.2126802557200769 3.6445212502403668 207 207 209
1.1962142866343337 1.196700035328886 3.6330289447168367 207 207 209
1.1819851838639472 1.2012199678579032 3.6311374375440857 207 207 209
1.3119444377364509 1.3147846025405954 3.679982940017375 206 206 208
1.2583156468174252 1.289708977349966 3.6642684619193093 206 206 208
1.237081049875811 1.2890714427579297 3.659940515378225 206 206 208
1.1586092634374343 1.2446184198110972 3.635364097876625 205 205 207
1.114996569584865 1.2265316202765595 3.6230546117673654 205 205 207
1.1053563858371265 1.234402664914599 3.6227535251421905 206 206 208
0.7776605091459796 0.9966555828777562 3.5094985617466716 206 206 208
0.8864315476249334 1.0954214814728294 3.5511381404453615 206 206 208
0.8595691027832053 1.089347021604957 3.5445891327770616 206 206 206
0.8605857328198243 1.1049221612761997 3.5479655315981358 205 205 206
0.8191017573240881 1.0872721975498651 3.536165942750995 205 205 205
0.802277229101025 1.0888128489367148 3.53315392605868 205 205 205
0.6369039978208367 0.9732144137915743 3.4768926215308085 205 205 205
0.6369296962736799 0.9875844916904715 3.4798274337438992 204 204 204
0.6374391495313039 1.0023792846326844 3.4829444714580577 204 204 204
0.6425941887417568 1.020917105312125 3.4877430351478957 204 204 204
0.640481058171076 1.033716308678128 3.4899347465925996 203 203 203
0.6486428868619682 1.0547834309953905 3.4958434037216835 203 203 203
2.5400083043203026 2.5909891289136824 4.182953736915219 203 203 203
2.539843923729125 2.6106678126023715 4.186933275380415 203 203 203
2.5325028177540645 2.6245890818459663 4.188320207367972 202 202 202
1.22766210052002 1.5839806296229284 3.7182037087176356 202 202 202
1.1450711703724652 1.5329811328382896 3.691478281251101 202 202 202
1.326910966585435 1.697951275308539 3.7610607059955243 202 202 202
1.3190084246680311 1.7081874792540215 3.761585344132405 202 202 202
1.4386228641338177 1.8234833667578763 3.8087386944320407 201 201 201
1.4320022255992777 1.8351439394490905 3.809807154465585 201 201 201
1.4269515539664268 1.8481190571742667 3.811453994478403 201 201 201
1.4126667583806674 1.8534301233524029 3.8097127712717387 201 201 201
1.327955286798606 1.799897958416588 3.7820517705720595 201 201 201
1.377301047483906 1.8582652021765822 3.8037069193757116 200 200 200
1.3997725882618521 1.894367229410412 3.8155098059248527 199 199 199
1.3823323124761027 1.8969776418931557 3.812594159124499 199 199 199
1.389559214115187 1.9204185174642339 3.818801940362058 199 199 199
2.1399892701882557 2.575162425920943 4.100645380490519 198 198 198
2.156380783027642 2.6087301508056586 4.110729591044952 198 198 198
1.9844365348834196 2.481411246573064 4.050779694318004 198 198 198
1.9448728041192058 2.466732750156231 4.03996554226249 197 197 197
1.891541938393622 2.44003036578231 4.023978303236787 197 197 197
2.0654059647290937 2.609313082479851 4.092863196082206 197 197 197
2.062325584732829 2.626314552010384 4.095720433831082 197 197 197
2.1419908903729645 2.715309754674828 4.129613940270866 196 196 196
2.1219838144070464 2.7178650425564683 4.126179611969774 195 195 195
2.11748661140295 2.733939933150601 4.12856784293465 195 195 195
2.061341081462676 2.7046801025085587 4.11150275457137 194 194 194
2.1326476160915284 2.7874772839234643 4.1424801406536815 193 193 193
2.1109150379167807 2.788480923394882 4.1383883438829026 192 192 193
2.1206762873479947 2.8173594026364293 4.146205755911386 191 191 191
2.0519853072724814 2.7765129762723677 4.124298255152899 191 191 191
2.063716776968154 2.8071540549938025 4.132864523240213 190 190 190
2.053159072613431 2.817948910697072 4.132978146152079 189 189 189
1.9424168365979686 2.7386484567410005 4.0949174331558265 189 189 189
1.9439309409592025 2.760027241155409 4.099575411075025 188 188 188
1.690024751797322 2.550241105182623 4.006608879883954 187 187 187
1.6758533511386466 2.5567353511973683 4.005131297690835 186 186 186
1.6772687202785417 2.5774071599439186 4.0096256199326925 185 185 185
1.6609149543437685 2.5818971437258704 4.007307972197399 185 185 185
1.6436426296743458 2.585502818912392 4.004628439855628 184 184 185
1.6328892686272471 2.595062353742801 4.004451528666727 183 184 185
1.6339807588189683 2.615555114001013 4.008845317838859 183 184 185
1.5181147294680408 2.5277231310763284 3.968032273394981 182 182 183
1.499419373635271 2.5295863299872603 3.964716164055173 181 181 181
1.4817481611630434 2.532347243885316 3.961785546103246 181 180 179
1.322355048648511 2.4023933052188013 3.903779719114706 179 179 178
1.3265738230038733 2.4251665535200058 3.9092566954610284 178 177 177
1.3122174207201935 2.4305194382575124 3.9075098418403886 176 176 178
1.3029317485280352 2.44063404219673 3.907736250948183 175 175 176
1.7321328731582348 2.866720274581416 4.07945633159355 172 172 173
1.7190669639106235 2.8746240906206584 4.078484678458893 169 169 170
1.2847150076357048 2.4992193433586767 3.9160791066890135 158 158 159
1.2692255131555852 2.5034263408059934 3.9138746263873836 150 150 151
1.2500756858939797 2.504062238894825 3.910218451745077 141 142 139
1.2276970389572963 2.5015091507271476 3.9052737947890437 129 129 126
1.20415695361649 2.497743018878242 3.899852215596966 115 115 113
1.1788581029518772 2.4921702131258217 3.893714598100208 98 98 97
1.152774869040984 2.485725642887963 3.887244179241392 83 84 83
1.1295436374479468 2.481967618494462 3.8818853117308834 71 72 72
1.1027497623711824 2.4746113158554226 3.87508852138194 62 62 62
1.0780093013367442 2.4691660977391203 3.8690873067827996 51 50 52
1.0431746589142639 2.45361823017571 3.8590308255483428 50 49 51
1.0520391793906734 2.481332577662374 3.8664336190302726 48 48 49
1.009491566202927 2.4578962552663666 3.8532440478120673 44 42 46
0.9658663127972998 2.4331590013894044 3.8395762024953006 45 43 49
0.9497714261267034 2.435827287045385 3.8369383310453746 44 42 48
0.9186621004778588 2.4233249367972034 3.828239236929569 44 42 49
0.8932604276144763 2.4164414181558698 3.82181406750564 43 43 48
0.8708741293611932 2.4125038513693147 3.8165856342504374 42 42 47
0.8549420822451591 2.415040483438041 3.813953114151577 43 43 49
0.8101831905136329 2.388106483746123 3.7996132880553444 43 43 48
0.7523573086099568 2.347547109463847 3.7799122832503205 43 42 48
0.7151419234416377 2.3278297823455625 3.768535083849211 43 42 48
1.0203017236016179 2.779137169740456 3.9208748686451718 42 41 44
0.9581320926367032 2.7334788588885917 3.899275570479856 41 41 44
0.9074526480857459 2.6996125689740667 3.882351946166289 40 40 44
0.8427370730414416 2.6505464407516914 3.859554551905968 40 40 44
0.8085015886901301 2.633567671224392 3.8493247927226175 41 40 44
0.7707332217806946 2.612632790799738 3.837590040346723 40 40 44
0.7232157005426321 2.581035141612875 3.8217540357864417 41 40 45
0.6774955453694969 2.5510966401010062 3.806611623453924 41 40 45
0.6229671471528668 2.5113829564424037 3.787734930838429 41 40 45
0.5752964238240399 2.478770759355715 3.7716617958116134 41 40 44
0.7159894945258856 2.6896846988914396 3.842476624434543 40 40 42
0.6697703777368391 2.6585657325662337 3.826994900120354 40 40 43
0.7085337877826172 2.7207831906559736 3.8473429451064898 41 41 44
0.6838210071364337 2.713197083407712 3.8409107242150013 41 41 44
0.6626263434808177 2.709395856228717 3.835945667373309 41 41 44
0.6135050397396848 2.674435406265915 3.8191070049483185 41 41 44
0.6713750648029975 2.7586004887343085 3.8477069478862593 41 41 44
0.6542690578948633 2.7592937643136732 3.844466523705831 41 41 44
0.5974313220631704 2.715282934163432 3.8242571968814465 41 41 44
0.5473763531833582 2.6785609362378917 3.8068748142560187 41 41 44
0.4901087766750081 2.6333722325654603 3.7863403686001464 41 42 44
0.4997720492881843 2.663774260187763 3.7944490279617082 42 42 45
0.495374269266307 2.678304229099772 3.7965419399629248 41 41 44
0.5021966842908725 2.7056840684866836 3.803472821387331 41 41 44
0.48820157883755266 2.7093211125705245 3.8014475733932636 40 41 44
0.491012328665692 2.7322440078903645 3.8066767003419026 41 40 45
0.4757070506134977 2.73435274537042 3.8040808512131306 40 39 44
0.46907859324002565 2.74645533477696 3.8052378826497115 41 40 45
0.41027034654047 2.69796958294997 3.7837266615628256 42 41 46
0.4077435981771709 2.714682657941089 3.786634552282166 42 41 47
0.41092885668914514 2.7381211558011165 3.792042837241963 42 41 47
0.4146733318671103 2.7623073194760517 3.797714108425251 42 41 47
0.2069280007395886 2.5376776898717535 3.7108470847996395 42 41 46
0.20627122979507995 2.556033788573699 3.7144596353189483 39 39 44
0.20273515441394685 2.571038717277803 3.716819735269696 39 39 43
0.19832356374832205 2.58504072512429 3.718802277736721 39 39 42
0.22298923898684375 2.6337530002693916 3.7336098755799534 40 39 44
0.21842278100670898 2.647747211896344 3.7355602121245157 40 39 44
0.22826099638561148 2.6790661300038776 3.7438903898455433 40 39 45
0.24327841049607524 2.716769440960265 3.754546100190975 41 40 44
0.2622258525617984 2.7594103544365716 3.766985421077309 42 41 45
0.27420294852315874 2.7938194256481834 3.7763684560756126 43 42 45
0.30507168074867885 2.8513779210228956 3.7942059084791215 43 42 45
0.3010425282111753 2.866656581246222 3.7965243373038247 41 41 45
0.29182436286024105 2.875617551812872 3.796528892574391 42 42 46
0.30123631317059774 2.9074665930588726 3.8048828799812298 45 45 49
0.2905696431585738 2.9147085803952124 3.80425061197483 46 46 49
0.30110174756695485 2.948156885091829 3.8131521013473844 51 51 52
0.318799128105288 2.990656105188358 3.8253154036122647 61 61 59
0.32321751137047605 3.0168380016322613 3.8315267873488055 78 78 75
0.46358599212893803 3.2129815672362447 3.8992661032395555 94 93 91
0.4569784631337701 3.2261263787191554 3.9006397574624128 109 108 104
0.44845033200275486 3.236875959380907 3.901145385739279 122 121 118
0.4408248594824642 3.248768939610425 3.9020625780033726 138 137 134
0.43189513434306526 3.25902256438839 3.902387699149365 148 148 145
0.42539563774009137 3.2723643505206716 3.903822869453117 161 160 157
0.41228755443074294 3.2773047951972485 3.902238714766065 167 167 165
0.406365112987497 3.291399740899217 3.9039415179209196 172 173 173
0.38949877122929855 3.2914797239176092 3.9006234378835556 176 177 177
0.3768717259093901 3.2969502401500232 3.8992424513920954 180 181 180
0.36891338528053286 3.308420159364772 3.900007584877432 183 183 183
0.3570361790890668 3.314820756423493 3.8989644599326336 186 186 188
0.3501296643286833 3.327659938661041 3.9002166954017783 188 188 190
0.35894262834935575 3.361025077810983 3.9087613642305885 189 190 192
0.35896532653983115 3.3830396431679977 3.913254120282014 190 191 191
0.35527048347791723 3.4002513291949557 3.9160327402838924 191 192 190
0.35303956756500554 3.419439295088069 3.9195036894341793 192 193 192
0.3502362999278179 3.437930951693602 3.9227195260561185 193 194 193
0.3705992694687794 3.4872088679476496 3.9367918230362346 194 194 193
0.37855809613490843 3.5202387943961377 3.9450992911786518 195 195 195
0.30551932734859477 3.445256250360173 3.9153726782151654 196 196 195
0.30458643952112885 3.466316338013019 3.9194819236776683 196 196 196
0.3201372949846544 3.50960955020055 3.931382746176467 198 198 198
0.3059775827223956 3.5130492549708716 3.9292847232911647 198 198 198
0.29266318740627284 3.5175876872956193 3.9275778206420076 199 199 199
0.276202036677236 3.5178152378558947 3.924369930395306 200 200 198
0.2610922650662362 3.519817254300621 3.921790973868464 200 200 198
0.2560351010145989 3.53550661978202 3.9239899036949835 201 201 199
0.2855446569158213 3.5986448096514296 3.9426962268040513 202 202 200
0.4971285054682053 3.912708964857893 4.048555768958713 202 202 200
0.47604551224480396 3.907541091579217 4.043334160742601 202 202 200
0.18723100991019925 3.5313380164897206 3.909537814677106 202 202 200
0.16992077408995132 3.5299558965965403 3.9058338896258027 203 203 201
0.10724545946330344 3.4652228502373594 3.8802457161146964 204 204 202
0.07674248664621142 3.445010865727882 3.870094675829179 204 204 202
0.11453159900864573 3.520488845229979 3.8929536257599517 205 205 203
0.12539613501218438 3.558474126053744 3.9028458212575323 205 205 203
0.4943546229007072 4.102854921239587 4.086773819057101 205 205 203
0.5227076572571792 4.167725746874477 4.105604748951309 205 205 203
0.5094833475954441 4.17378952232794 4.104226638501789 206 206 204
0.510058235176674 4.199524878331913 4.10958714399482 206 206 204
0.5470187792080656 4.277491477532601 4.1327896632451395 206 206 204
0.558357787877299 4.319076823420307 4.143509630799738 207 207 205
0.5661218305977593 4.355711442217944 4.152513505897201 207 207 205
0.5816108930270385 4.4036986743888065 4.165359116059646 207 207 205
0.6145290737883022 4.477244710930778 4.186861229328016 208 208 206
-0.47225487252714227 2.9613095644193432 3.6629451108249436 208 208 206
-0.5050434707226688 2.933961818557714 3.6508873951624596 209 209 207
-0.5853627717627838 2.8361712748205363 3.615071427455062 209 209 207
1.4053806355957752 1.3534655815809857 3.719159218235834 208 208 210
1.3825960312448808 1.3520791211716316 3.7143419520428895 207 207 209
1.3640734514857662 1.35384204277509 3.7110182572595396 207 207 209
1.320486162835571 1.3365275547649182 3.6987969601137207 207 207 209
1.2280474128539378 1.2818220900037387 3.6691913002548926 207 207 209
1.2083128134501706 1.2822409328429771 3.665350931270427 206 206 208
1.19135924366508 1.2847321374896952 3.662488694302623 206 206 208
1.1530067372453272 1.2707104661137083 3.6519839049969596 206 206 208
1.0609440916791797 1.2150566899754636 3.6222586646816386 207 207 209
1.0315897413243305 1.2075455045803443 3.614878746319977 207 207 209
1.009075885244397 1.2052394196032 3.609926819775042 206 206 206
0.9705924993529552 1.1903978304641423 3.5992279058102525 206 206 206
0.8238280024383865 1.0906307640610973 3.5495762600486374 206 206 206
0.8073987374655547 1.092495827572389 3.5466899733599315 205 205 205
0.6152084498685345 0.9557852973104544 3.4804272497568287 206 206 206
0.6319534625574879 0.983319816051871 3.4894033703775618 205 205 205
0.6434415320465636 1.0068135932503206 3.496505247018424 205 205 205
0.6510650465388212 1.0273331775705385 3.5022285438980525 204 204 204
0.6499797395717943 1.040976990903735 3.5048096487802756 204 204 204
0.6567170644385496 1.060927694051908 3.510240014082989 204 204 204
0.6540917197943836 1.073424908870311 3.5122796691301432 204 204 204
2.519020661322005 2.6132254426681945 4.198974956574735 203 203 203
1.2598726289523199 1.6097943710115592 3.7427584272984302 203 203 203
1.3274645754181091 1.6813566470128931 3.770876476185455 203 203 203
1.3318468340365377 1.7183597107630186 3.7793340894324503 203 203 203
1.382715659138001 1.8452571441288854 3.8154689413318734 202 202 202
1.4212977967276053 1.8947582265181802 3.83329281731575 201 201 201
1.363169366601574 1.8632242914780197 3.8152634990442738 200 200 200
1.3675957705506658 1.884177308037576 3.8204395802653837 200 200 200
1.3902298536408062 1.9206165104480228 3.832412832529518 200 200 200
1.9910911867181211 2.4674679623109754 4.064061676303487 199 199 199
1.9755873730615952 2.4734405469555454 4.062201565723724 199 199 199
1.9224788286870513 2.4471193854956463 4.046239599030863 199 199 199
2.167333936586077 2.7570199796591224 4.158484639238938 197 197 197
2.124030348373484 2.739258292108516 4.146228107351136 197 197 198
1.8524713516006426 2.5208172146602807 4.047419796711868 197 197 199
1.8353422003897282 2.525056069938024 4.044880901894807 195 195 197
2.1097323885513983 2.787026904125713 4.153176232718515 194 194 196
2.1179617212954156 2.814542561151378 4.160454277144058 194 194 194
2.074563877481218 2.796208678267164 4.148061690929532 193 193 193
2.0653326036943467 2.808193177005802 4.14868197621579 192 192 192
2.133656868451505 2.9308065036844737 4.1874113618969195 190 190 190
1.7448024549787258 2.5994484782120395 4.042118559841556 189 189 189
1.719094584538923 2.595631898317548 4.036221521883367 188 188 188
1.6936604708949197 2.5919670040978895 4.030410044404907 188 188 188
1.6678715047055372 2.5878810718634786 4.024441654149842 189 189 189
1.650741970319936 2.5916405292046463 4.021804404875448 189 189 189
1.632396295375079 2.594234091411257 4.018686189793005 187 187 187
1.5774704833398445 2.5629880770800484 4.00135306274906 187 187 187
1.4927004064435891 2.503805093055223 3.972355192034444 186 186 186
1.4983621941301926 2.52823814783101 3.9784904748101124 185 185 185
1.469825809012238 2.5208611206565497 3.9713007949648462 185 185 185
1.4375275680761415 2.5098434710923008 3.9626163472007754 184 184 184
1.3016444734983683 2.401400440744558 3.913350973125385 183 183 184
1.2833295943757665 2.4029463506668822 3.910024112608177 182 182 184
1.253155057449319 2.3932218899799453 3.9020272876489064 182 182 184
1.7793960627003793 2.911177888310613 4.112906618918115 180 180 182
1.7619156983000699 2.9150311584745516 4.1102188033472125 179 179 181
1.7497434852136817 2.9239052831741934 4.109616346231261 178 178 180
1.7398417904139931 2.9349403517266106 4.109908613629637 174 174 176
1.2472750191138637 2.481977747969758 3.9190526995215684 171 171 173
1.2302494512884108 2.48459376931223 3.916201726268666 167 166 168
1.2121504393160438 2.4861203007066117 3.9129138402352557 161 160 162
1.1913413501680017 2.484957588146947 3.9085354753388555 155 155 157
1.1710997627872937 2.484272100682355 3.904367848699688 148 148 147
1.1515822857915246 2.4842220914495585 3.900474560313969 139 139 137
1.132217002268157 2.4842534108122374 3.8966282237283294 126 126 124
1.1135207743244708 2.484875815201287 3.893036171386322 113 113 112
1.0927237149295435 2.483360974915259 3.8885880124367236 104 103 100
1.0736032137651779 2.483429550243014 3.884798013332088 93 92 89
1.047490171603564 2.4764820436282844 3.8781785150138393 83 82 78
1.0193919243522351 2.4674418173015584 3.870735041926073 74 72 71
0.9878905681625187 2.4548700069479965 3.8618905274802184 57 55 58
1.0334562061643053 2.519507726463569 3.8842068457497643 52 50 53
1.003821124924042 2.50877187691567 3.8761100082552407 46 44 47
0.9633301785126763 2.4869280785299317 3.8635762096467765 43 42 47
0.938113816825374 2.480358514502174 3.857212587012292 41 41 45
0.9096401055380686 2.4703656341749616 3.8494991173521327 42 42 46
0.8429775279522486 2.4212647761961046 3.826170635900678 43 42 47
0.7972723296014139 2.3932319370740647 3.811330678098058 42 42 46
0.7589846994770735 2.3725684752164264 3.7994772061774653 41 40 45
0.7183791003617456 2.3493136789416798 3.7866313377972287 41 40 45
0.7623059428928418 2.413266432425324 3.8084811944402697 41 40 44
0.7438453175685777 2.4128426187797416 3.804721537361544 41 40 43
0.7254505635962334 2.412420077662645 3.800975246376664 41 40 43
1.1345632328633881 2.8584938920091427 3.9738155948422724 42 41 44
1.108221894453309 2.8510913438083656 3.967057391495983 42 42 44
1.0479099932989322 2.807849562798843 3.9461935191810555 42 42 44
0.9895281498187021 2.7662878749346325 3.9260580600966555 41 41 43
0.9442536711700926 2.7382562206494043 3.911304037630758 40 40 42
0.9190671721666144 2.7313047454980994 3.9048680631372075 40 40 42
0.8474837079794382 2.674801134181697 3.879042972787579 41 41 43
0.7944627945422924 2.637700396261677 3.860888590214063 40 40 42
0.7643858789702334 2.624897699390289 3.852280138201015 41 40 45
0.6566395993258727 2.528356203454864 3.81105248830956 41 40 45
0.6479095727389821 2.538023509476431 3.8112974651383107 40 39 44
0.609807798093635 2.515870478469408 3.799175602698316 40 40 43
0.5634851692709806 2.484570353983608 3.783543001294187 40 40 42
0.515755635172584 2.451464159035834 3.7672602429651194 39 39 41
0.46873495281554955 2.4188502965206764 3.751219441774931 39 39 41
0.7255056192301668 2.719461139074963 3.8639306722769895 39 39 41
0.7020164376353133 2.713312066466724 3.857996877340518 40 40 42
0.6819685954414891 2.7108593600988495 3.853505510699723 41 41 43
0.6459488250518759 2.69061550222279 3.8421892537135864 41 41 43
0.6029118866649856 2.662365537817693 3.8278356394872826 41 41 43
0.5957200000851284 2.673870957006136 3.828763451485804 41 41 43
0.5956315525846163 2.6933426393518545 3.8327376164796627 41 41 43
0.6049907400925683 2.72349364942084 3.8407807039226443 41 41 43
0.5990420948649333 2.7365235144547517 3.842268377607167 41 41 43
0.6045607684010244 2.7625444962321035 3.8487007180622164 41 41 43
0.6219564481567275 2.802150695331126 3.8602810259862332 42 42 44
0.6602507495372623 2.8657482819172206 3.880937468242336 42 42 44
0.6369149606101789 2.859300983901798 3.8749730538133975 41 41 43
0.5138302544044966 2.7384214789743386 3.8257044215620972 41 41 43
0.49831226741398904 2.740365941361386 3.8230157122705064 41 40 44
0.27930503938583673 2.5839723727857438 3.7473826207988425 41 40 46
0.26818099264695516 2.5902074494290783 3.746447684299842 41 40 45
0.2679406792582084 2.609230512060207 3.7502996667257524 41 40 46
0.2706640326107783 2.63181699534925 3.75547178933173 41 41 46
0.2694450939592177 2.6498204346159167 3.758920046250311 41 41 45
0.26684368362033095 2.6662375003830334 3.7617680459813814 41 41 45
0.26562719345411523 2.6843525181157526 3.7652396639993095 41 40 45
0.26884585187187904 2.707831982815672 3.7706933926749997 41 41 44
0.2781250933631192 2.7386804760066594 3.7788635611539116 42 42 44
0.24587193821782183 2.71964386938614 3.7685441695399624 44 43 44
0.2689578303429989 2.7672963988197203 3.7829060805701764 44 43 44
0.2783887206671307 2.798645264688773 3.791208997968815 45 44 45
0.3073525740172349 2.853902413341361 3.80829931277344 49 47 48
0.3043190854697284 2.870406602587905 3.8110792103987836 56 56 53
0.30955422238898667 2.897082760699865 3.817589454145594 65 65 62
0.3168860436005816 2.926448358147486 3.8250681812180325 76 76 72
0.32450580424207387 2.956299801454314 3.8327037944160236 87 86 82
0.3292363898562507 2.982711426864107 3.8390594266818963 102 101 96
0.34107552326795587 3.0180559657364276 3.848660594965241 118 117 113
0.4482462018432649 3.1722756751319316 3.9015979599366184 133 132 128
0.4401809436206545 3.1834893295681974 3.902292200336558 141 140 138
0.4333612755552847 3.196272085114039 3.9035559242039453 154 153 151
0.4268686417547052 3.209484348656594 3.904972762727567 162 161 159
0.41847640172115264 3.2203206528666817 3.9055245914292143 169 169 167
0.40889301391092636 3.2296541015220783 3.9055313486369787 173 173 171
0.4037953684091633 3.2446807975520695 3.9075976874260014 179 179 177
0.3903462356417706 3.2490966764944855 3.905827229199882 182 182 180
0.38439655097238545 3.2630647729472466 3.9075070367499736 184 186 185
0.38233179611862766 3.282043336892629 3.9109869209592225 186 188 187
0.3834858635714944 3.3052248937196893 3.9159688234995507 188 190 189
0.3715018808024926 3.3115250740038746 3.914876147687352 189 191 190
0.3696040982678832 3.3308704786901138 3.918464454944925 192 192 194
0.2954320773002286 3.2563061107751325 3.8884218495245486 192 192 194
0.3139304159138907 3.302069455304693 3.9014837693318953 193 193 194
0.3291534049135032 3.343784632571867 3.913064164384975 193 193 193
0.32778317194462825 3.3639199937683095 3.916919372353663 194 194 192
0.34899649682401 3.413879964831616 3.9313817663038133 195 195 193
0.35765924467271626 3.4475136917653617 3.9400002647764203 195 195 194
0.34351272930573096 3.4510483381142256 3.9379104053481875 196 196 196
0.3620940654664089 3.49809642482594 3.951252214224566 197 197 197
0.27862945065602873 3.40912261617329 3.916406846083805 198 198 198
0.2554062926235561 3.4001984570372694 3.909957074729697 198 198 198
0.2760048245498403 3.45005716481778 3.924276395221364 199 199 199
0.28259221075078567 3.4812838943068525 3.9319885541039574 199 199 199
0.2886228914228397 3.5118985693217617 3.939464482173968 200 200 200
0.32445423846247023 3.5831154689423483 3.9611929006885926 200 200 198
0.28022650979999764 3.5456681049149013 3.944716878123992 201 201 199
0.2950130049237687 3.5885718769897696 3.956454097973197 202 202 200
0.29670124786238516 3.613729913711654 3.96194746083343 202 202 200
0.517913798643806 3.941087876935626 4.073067593421794 202 202 200
0.4864788926637602 3.921724337896686 4.062843971647111 202 202 200
0.4522476371585402 3.898284624079349 4.051228381389964 203 203 201
0.17778301358312398 3.540677305348142 3.9233124336019194 204 204 202
0.16064900908191615 3.539502370669399 3.919662727673087 205 205 203
0.1435714891519677 3.5383307182784547 3.91602493232917 205 205 203
0.12072787833358944 3.528987152576605 3.9095646927728502 206 206 204
0.4910009292582149 4.097898634464622 4.099859974843778 206 206 204
0.5243551304844785 4.169846843253005 4.1212454817408855 206 206 204
0.4992199610277288 4.158969834156846 4.114014971405206 207 207 205
0.6476762312401485 4.395816674637705 4.192105023083798 207 207 205
0.666734376753277 4.448796093092992 4.206757637403736 207 207 205
0.49896974739662614 4.2334922526626375 4.129242542793013 208 208 206
0.5653611879052942 4.354403171638224 4.167238390267783 208 208 206
0.5227085340166999 4.318241822024904 4.151339368968526 208 208 206
0.5007458314440454 4.311805831720589 4.145650450600578 208 208 206
1.4594613085207984 1.4096384824424348 3.7543859135616167 207 207 209
1.4600402600034996 1.426050097793953 3.7578847481475743 207 207 209
1.415631980156463 1.4083654449615572 3.7453484768419374 208 208 210
1.5275927837022358 1.5095805278331977 3.7886274833274136 207 207 209
1.2566318277788064 1.3187991678765654 3.695052935874745 207 207 209
1.2429809751113432 1.3239511886110655 3.693381897494786 207 207 209
1.234879982537707 1.333345375835581 3.693696428028689 207 207 209
1.9483640323486255 1.9174595975311957 3.9569457102457757 207 207 209
0.7414976856713309 1.0258460755826708 3.531532079847477 206 206 206
0.8054027820333711 1.0905879497127102 3.557671685652329 206 206 206
0.62139977849838 0.9603366255868746 3.4939839476522083 206 206 206
0.6599748771777281 1.0051502414939262 3.510944451857068 206 206 206
0.6773730681331724 1.0334089412769516 3.520252686818406 206 206 206
0.6963615158529579 1.0630691091493183 3.5301681898493205 206 206 206
0.6853813382532055 1.0689310237977065 3.5291781749412436 206 206 206
0.6750691893021464 1.0753102706685682 3.5284285429738866 205 205 205
0.6748884578921679 1.0898244562544401 3.531384165359198 205 205 205
0.6610853995180839 1.0933845602018286 3.5293545125096135 205 205 205
0.7949190044523498 1.2772022191111096 3.594039504552927 204 204 204
0.7785544995609037 1.279012566508506 3.5911363500732865 203 203 203
0.8107902456964651 1.3209450126323692 3.6062337638792132 202 202 202
1.4386559090650963 1.8915947668694548 3.8495660468556494 202 202 202
1.4647491861276218 1.9307889494479522 3.862869245341088 202 202 202
1.4883605971154876 1.9680951601428855 3.8752863846152295 202 202 202
1.5098872016605713 2.003827992371476 3.88696180667145 202 202 202
1.5106732961659666 2.0221815514316477 3.890902405657586 201 201 201
1.5107430090839131 2.0399828468725016 3.8945857406072926 200 200 200
1.9847839464812127 2.461688315892958 4.076419071497078 201 201 201
1.9703221982644101 2.468534967488568 4.074934998486691 200 200 200
1.8295451679229795 2.36699798927703 4.025820371998642 200 200 200
1.102994935986511 1.777335193139878 3.7588113959621228 199 199 199
1.1019360215144571 1.7932867912982033 3.7618874917926495 199 199 199
1.131408526983886 1.8358276517690744 3.7765570923037814 199 199 199
1.843780827327754 2.512790976650033 4.05872276105699 197 197 196
1.837337324677359 2.52642205841044 4.060242486282089 197 197 196
2.135134344539306 2.8090788413472283 4.178128119350504 196 196 195
2.0643014375587683 2.7665288181478727 4.15517590575417 194 194 194
2.0873867825413495 2.8072176720744952 4.168184985517738 195 195 195
1.4669744298063085 2.310364919167869 3.9415566848473014 193 193 193
1.7267091767946372 2.60216625504444 4.053706873595168 191 191 191
1.7423923604284588 2.635995455790799 4.063819995018102 191 191 191
1.7145011223103332 2.6301381746399626 4.057028557996028 190 190 190
1.6779858549695237 2.6162577095848585 4.046856695318765 190 190 191
1.66797038327719 2.626604136954034 4.046984215002574 190 190 191
1.5842844932399962 2.5689103221475467 4.01833713158602 189 189 190
1.50746952494761 2.5171253317879128 3.9922836534093267 188 188 189
1.47463827245612 2.5058160144557955 3.983379353851766 188 188 189
1.4520177546782174 2.503885923153871 3.9784526733764976 188 188 190
1.4285284997737175 2.5010599694533076 3.9731673999616084 189 189 191
1.359270592400697 2.45516444510432 3.949840907907646 187 187 189
1.3190488771685178 2.436251447902393 3.9378896260896 187 187 189
1.7828262730583386 2.9140527151513558 4.129231120362329 185 185 187
1.7820916104209439 2.93385534201831 4.133165946174812 185 185 187
1.8000062633306135 2.9715241982423723 4.144517295302716 184 184 186
1.7988858718836864 2.991133642559978 4.14833507405451 182 182 184
1.7976560485353281 3.010694484212668 4.152120925096926 182 181 184
1.223778109011589 2.478007998448493 3.927422831630437 179 178 183
1.183880015709268 2.4584205107757313 3.915397309235103 178 177 182
1.1569539013306565 2.451229157691655 3.908524106660568 176 175 180
1.1435083682777059 2.4570544284111886 3.9070329520112113 173 173 176
1.140557001219652 2.4731081660888723 3.9097512158140773 169 169 170
1.1204060359270474 2.4723347103743905 3.905557379040859 165 165 166
1.1090590717035549 2.4801512174480056 3.904896829933531 158 158 158
1.106507992742611 2.496635891671322 3.9077840638854817 153 152 149
1.0774650536699535 2.486923335464116 3.899967358826774 144 143 140
1.0646976416204996 2.4932532624559114 3.8987159948070236 134 133 130
1.0438481635868928 2.4914997797764866 3.8941802967203936 124 123 120
1.113028965909402 2.5797350450096648 3.926218834749416 113 112 110
1.092562422435369 2.5785080698281293 3.921868332500613 104 102 101
1.0651299183776188 2.5701899818016054 3.9146614924888246 93 92 90
1.0422282744415732 2.566327145633755 3.9092801316800463 84 84 84
1.014195368980276 2.5571692926919694 3.901779985317837 76 75 75
0.9839787713104637 2.5456622407959766 3.893358404181764 64 64 64
0.871285615481289 2.449840907338613 3.8510445867697216 58 57 57
0.8429832013912869 2.4397265494693094 3.8432933181691036 51 50 50
0.8045471180120055 2.4190688384826013 3.8313398983721734 45 44 44
0.7600232701105696 2.391933675349921 3.816832457330634 44 43 43
0.8608705486213628 2.514892984810534 3.8623685696283045 40 40 41
0.844203893099043 2.5166708666378357 3.859398229752784 42 42 42
0.825240652402035 2.5160040090569877 3.855464159179803 40 40 40
0.805443150087946 2.5143957527619345 3.851169011581818 42 42 42
0.7850013876054838 2.512036197356043 3.846590012154433 41 41 41
1.066657636440278 2.827242172821252 3.9679534768398224 40 40 41
1.015297271893785 2.7931571702885205 3.950644734545573 40 40 41
0.9637325150026435 2.7585608691127956 3.933189677169212 40 40 40
0.9282522242329172 2.7407480734172944 3.9224144555091494 40 40 40
0.8784208920687893 2.7074583524350975 3.905575770491396 40 40 41
0.8876644819251491 2.7370337537147735 3.913522792411464 40 40 41
0.7220821126207875 2.5792225764968153 3.8478421235445044 40 39 44
0.6873515626461457 2.5611127003729717 3.8371557695999625 41 40 45
0.6761361877938057 2.568207292584237 3.8363727576887627 40 39 44
0.6404237486781521 2.54874646278884 3.8252113488721946 40 39 42
0.6073797140742827 2.531991997968784 3.815142041159134 39 39 41
0.5594637807247289 2.4988440526952584 3.7987160604120374 39 39 41
0.5109562291833389 2.4647646929713782 3.7819796400904746 40 40 42
0.46010618228782985 2.4278240455881894 3.76418443442525 39 39 41
0.6781364972138559 2.686718547714717 3.861201941123869 39 39 41
0.4886074834034735 2.496895267890139 3.7841282897562234 39 39 41
0.44769354050083954 2.47051881475741 3.7704999769170615 40 40 42
0.43030648634571844 2.470075308076889 3.766927512346347 41 41 43
0.4253571773912599 2.4834476316988034 3.768693050819897 42 42 44
0.4216647547621053 2.498253438423524 3.771005712851739 41 41 43
0.4241024291141131 2.519981933799345 3.7759726479871656 41 41 43
0.7858701996520552 2.946839702067674 3.936389923606925 41 41 43
0.7564202256265173 2.9340112903774624 3.927849455764942 41 41 43
0.7248726699218537 2.9186500749917434 3.918366946839565 42 42 44
0.6862770658861457 2.8950955488912107 3.9057844695991495 42 42 44
0.5763036952328566 2.789785334900521 3.8620592364196096 42 42 44
0.5620293319570608 2.7933860654512777 3.859943598444209 42 42 44
0.5432901991881012 2.7918114747798874 3.8558672854369154 42 42 44
0.5171919476975777 2.781671101815863 3.84855194752597 42 42 44
0.45243700513968643 2.726652959077107 3.8242465458551553 42 42 44
0.44292032017755756 2.735355373067444 3.824135046949157 42 42 44
0.4353230520510363 2.7462877942859163 3.824867503541652 43 43 45
0.32433254303644055 2.6363547376334218 3.7799857243957637 43 43 45
0.3365761568874266 2.670174922136326 3.7894083544964174 44 44 46
0.33469619933762584 2.687535433191689 3.7926104890780143 43 42 46
0.332122715600496 2.7041290776771185 3.795515699412606 45 44 48
0.3207977549083838 2.710401935912101 3.7945413635553744 47 46 49
0.31965013843743595 2.7287498720451877 3.798093657159513 47 46 48
0.3184988966074962 2.747151950073001 3.801656385193103 47 45 48
0.32032155655639794 2.7691710839117842 3.8065600981672443 52 51 51
0.32058480036222736 2.7894008363503673 3.8107827571412405 55 54 51
0.25322910976690594 2.7282557118060726 3.784693708675549 62 61 57
0.2699522227409108 2.768247973158102 3.7962854238688504 72 71 67
0.2849688072438705 2.806373751461429 3.807150738902031 81 80 76
0.3055958070556519 2.85151472515479 3.820585350491327 98 97 93
0.3089539677077586 2.8758141982673937 3.826266530436789 111 110 105
0.3147213719946671 2.9031615167804095 3.833058314445328 121 121 116
0.32140422989195616 2.9317512002500283 3.8402894689630522 132 131 126
0.3321688597347401 2.9654984826756223 3.84940096587148 143 144 138
0.33711923617694906 2.992213961549739 3.8558989325672215 153 154 148
0.430801542941164 3.129158778732025 3.90288338324715 161 162 158
0.42362739405243754 3.1413701468627977 3.9039641812113195 167 168 166
0.41682164867053206 3.1540565070780007 3.905216646903043 172 173 172
0.41123094352353373 3.168283736764306 3.907029993722 180 180 180
0.4055279222588024 3.1823978484888116 3.908797536859103 182 182 181
0.40286833694803303 3.200379493237922 3.911971617126558 183 183 182
0.39402459665250067 3.210585076140479 3.9123046957301097 185 185 183
0.3823839722269742 3.21723919799643 3.911345750955355 188 188 186
0.39596836094123233 3.2560187981605653 3.9220590996920537 188 188 186
0.3891064373140529 3.2688454755524434 3.92332924154796 189 191 190
0.3694590758493117 3.2652873699447413 3.918662231413637 191 193 192
0.32863264523812297 3.2343759173377675 3.9041166407042196 192 194 193
0.324092182783827 3.2500556095875472 3.9064396514004724 192 193 193
0.35186094150496516 3.3076407714586287 3.923869225604887 194 194 194
0.33343883566233146 3.305487953118311 3.9197371942751595 194 194 194
0.3753323631241756 3.38193532405577 3.943882737947667 195 195 195
0.3819419637314949 3.41264445730713 3.9515361074956936 195 195 194
0.40885239894016934 3.470150470865744 3.9687775227859654 196 196 194
0.42483163073329755 3.5135695245178065 3.9809266703509736 197 197 195
0.42805428864143846 3.540345796071434 3.9870912634412625 197 197 195
0.31490610047769274 3.412873953911979 3.9381622308522326 197 197 197
0.32483846375164727 3.448284686604791 3.947449987209765 198 198 198
0.4611664136817486 3.652642910379874 4.016868392460784 199 199 199
0.2304300366790959 3.3665129910529057 3.911692986255803 199 199 199
0.26072071206468483 3.429288638635364 3.9306973847354 200 200 200
0.2946207038526918 3.4972856687170113 3.951500683446939 200 200 200
0.32801222631593796 3.5649823891692627 3.9721402792571694 201 201 201
0.3263818077146807 3.5855110739856855 3.976045428862626 202 202 200
0.3264578465669712 3.6084333808270865 3.9807856234713124 202 202 200
0.3039304570161476 3.6005431233372502 3.9746490201307303 202 202 200
0.490823570893258 3.8797540767238363 4.069620405543443 203 203 201
0.5266651716046111 3.9529049148057984 4.091874785331246 204 204 202
0.5052186713825164 3.947375552519981 4.086441236655352 204 204 202
0.4708030517800954 3.9237698593298704 4.074685082829939 205 205 203
0.43934543602653275 3.9040452102143304 4.0643211468893465 205 205 203
0.408112499464655 3.884429620231471 4.054024674082884 205 205 203
0.3770798805868536 3.864891013277936 4.043784175176265 206 206 204
0.487650974005148 4.092947883039556 4.11293082369273 207 207 205
0.5133523127937711 4.154025998216412 4.130666483663103 207 207 205
0.49581171823695325 4.153906271981301 4.127130019727457 208 208 206
0.49684460684535114 4.180232462522275 4.132763426191978 208 208 206
0.49467433727549626 4.2020735163329075 4.13683101116061 208 208 206
0.4927084485587767 4.224281945628405 4.1410152420562 208 208 206
0.5909710730874616 4.391130292274519 4.195080722645431 208 208 206
0.5620458668957715 4.374963020449549 4.185957079410244 208 208 206
1.4887078914056815 1.4634425343225907 3.7843830707546298 208 208 210
1.3149334474164944 1.3472501522839522 3.7252917398290037 208 208 210
1.315796119613674 1.3636386030014351 3.7288621503622483 208 208 210
1.2975749582131768 1.3654427910799751 3.7255651274084274 207 207 209
1.9435371739425584 1.91330829622088 3.969253456639393 207 207 209
1.926122981182228 1.9173922121756013 3.966591498938478 207 207 207
0.7339457439557789 1.0779644355360254 3.5524310337136913 206 206 206
0.7415192269812482 1.0986889449297477 3.5582521232321813 206 206 206
0.7058044800323579 1.0849148794451038 3.5482020374335392 206 206 206
0.7056662828948976 1.0995060067066862 3.5511982996278957 206 206 206
0.6438017760822703 1.0644903610601435 3.5314774617996383 206 206 206
0.6655247208543907 1.0966381294001022 3.5425167362971473 206 206 206
0.7858752158099189 1.2542205903526753 3.599423292702606 205 205 205
0.8078207178794176 1.2874568899584662 3.6107330100800348 204 204 204
0.8103294537139303 1.3048498480725865 3.614843237759155 204 204 204
0.8460699813629138 1.349766032972189 3.631352920573044 203 203 203
0.8727446703218884 1.3874089997841148 3.6445287202913956 204 204 204
0.9271742791649114 1.4483413024783938 3.6681230683548134 204 204 204
0.9884969543536236 1.515380960980482 3.6943719264120665 204 204 204
1.5233236041782399 1.9971076195762323 3.901962471043343 203 203 203
1.5589221809046017 2.0448074533671967 3.9190204845151215 203 203 203
1.8163261520526714 2.299085772314282 4.023579550248931 202 202 202
1.8344738606570796 2.333219059653833 4.034310046145821 203 203 203
1.8539339504577912 2.3686333521727714 4.045570439307077 202 202 202
1.8798299033764654 2.4097354546195873 4.059306277795116 202 202 202
1.8508365477835418 2.4038019058540976 4.052235323905839 201 201 201
1.18616328031503 1.8488060263177446 3.8032995301466905 201 201 201
1.154029829131992 1.8380749115948185 3.7946016262156155 201 201 201
1.204788688626822 1.8992727740584887 3.8175114804471284 201 201 201
1.652433981528605 2.307032657534321 3.992207821422358 201 201 201
2.0107219303369717 2.639262761559832 4.133247627734804 199 199 198
1.8441973642816094 2.5127636625082346 4.073480770977568 199 199 197
1.837487666604348 2.5261622070190834 4.074905925988498 198 198 196
2.1349655792874214 2.808519831915415 4.193358161334385 198 198 196
2.064127773593752 2.76596964324739 4.1702679228152055 196 196 196
2.240861261325999 2.943417021695347 4.242650890814721 196 196 196
1.4874055297533233 2.2912515678625343 3.955689395778622 195 195 195
1.4678688219252067 2.2922749635807405 3.951965510172821 195 195 195
1.449058222325156 2.2938890421710236 3.9485103338003924 195 195 195
2.2284653886803465 3.03645928864559 4.259437142364123 193 193 193
1.7970440435799446 2.6854122516193355 4.099763481832912 193 193 193
1.7631793832061518 2.674262702444669 4.090630074144246 193 193 193
1.6793566302447884 2.6171374884485923 4.061903037523615 192 192 193
1.6389796910151075 2.599544453191802 4.050122170594342 192 192 195
1.6139919995227934 2.5959734719687253 4.044347880782716 191 191 194
1.5330714365354532 2.540481172358822 4.016543969965011 191 191 194
1.4516734073436646 2.484102319093098 3.9884601218274707 191 190 194
1.4347810541666164 2.4874457373323584 3.9857498244086007 191 190 194
1.4067140421964115 2.4802835078159275 3.9786108457378275 190 189 193
