ply
format ascii 1.0
element vertex 730
property float x
property float y
property float z
property uchar diffuse_red
property uchar diffuse_green
property uchar diffuse_blue
end_header
0.4294156959491977 3.2238663671776457 1.8147264322481038 49 49 52
0.42763467800420546 3.347077481130192 1.7943961192908473 20 21 23
0.5155065799536571 3.4064147364169317 1.7914051041383439 13 14 16
0.4618669935945717 3.425352771036422 1.7841905229122288 12 13 15
0.4510808601732504 3.4400100899352033 1.780961641630465 11 12 14
0.44055769644035225 3.4545987510518783 1.777764165976561 11 12 14
0.42498766216013467 3.469610316448849 1.7741106071550223 11 12 14
0.4404217134763086 3.481750556174777 1.7733036693594584 12 13 15
0.44783714146008907 3.494646678119729 1.7717583320492458 12 13 15
0.432866457349038 3.5095155818298425 1.7681740865845854 13 14 16
0.42361990940064953 3.5643201126221316 1.7584832204363872 20 21 23
0.45120884626556906 3.575610036102729 1.7587471451552552 29 30 32
0.4748837033670893 3.5872850196709876 1.7586480015138755 36 37 39
0.4827070961030329 3.6002337279931624 1.7571253101924615 41 42 45
0.49963386054276043 3.6125216980592314 1.7564085551834812 43 44 47
0.4720337806217997 3.6416109173116658 1.7495257917629439 40 41 44
0.5154530737658595 3.6520951491894316 1.751134937710852 34 35 38
0.49420336991066655 3.680628756802061 1.744829902824837 19 20 23
0.49285518936727757 3.694230828407657 1.7424972572402957 18 19 21
0.4954504329850464 3.7075711552787056 1.7405097179387714 14 15 18
0.49038532027497883 3.721382298678828 1.7378579563494354 12 13 16
0.4917192620667666 3.734785429264192 1.7357634629294731 12 13 16
0.4917912556636494 3.748257844202644 1.7335609037045578 12 14 15
0.8725802392957289 4.061588927002905 1.7113892115718157 59 59 62
0.9217821485864819 4.074558959530287 1.713034099669409 62 62 65
0.9222818667299012 4.088489968466642 1.7107891576673604 58 57 62
0.9985025598776662 4.115312118068208 1.7122343427867408 48 48 51
1.0290008857837476 2.4818569498562315 1.997532150648604 107 107 110
0.9616537912924654 2.525145767300195 1.9851508765425652 91 90 94
0.9170439929345132 2.548703316474066 1.977789919361197 67 65 76
0.9702642598026457 2.568474554985194 1.978709324708648 44 45 52
1.0907612769559147 2.5761089476535464 1.9868886033374455 42 42 50
1.0897567952169078 2.591457063364521 1.9842894428606583 42 42 50
1.2235524608287287 2.6436994202089354 1.986184109469269 69 68 73
0.5645792441634702 3.0276263056628645 1.8715469203174044 50 51 55
0.557382165000683 3.042689476222122 1.868509771313478 48 49 53
0.5465703595616003 3.0582252626664856 1.86511203115435 43 44 46
0.5301224094629429 3.074495043956001 1.861152529835826 32 33 35
0.5105749464821135 3.0911243857783237 1.8568913368687383 25 26 28
0.48993951784543743 3.1078265709354733 1.8525330106412097 22 23 25
0.45195427793265924 3.12676278796252 1.8464495850791043 25 26 28
0.4379451997079857 3.142409540907022 1.8427833252509391 29 30 32
0.4457153174035095 3.1551716140540353 1.8412957679825088 33 34 36
0.4551663397631108 3.1677350085387186 1.8399724269537843 44 45 49
0.4736634194809637 3.192979739232158 1.8372746736520422 39 40 45
0.453374311064952 3.223029328721519 1.8307514979132555 38 39 43
0.44901306960123927 3.2372966836981294 1.828067042370466 38 39 43
0.5157630703531407 3.2431257767800417 1.8323352453400246 52 53 57
0.47516451039698737 3.2754460543110246 1.8238492570202076 90 90 91
0.4014449485368229 3.3247705837218087 1.8099779112987315 35 36 38
0.4054478199580196 3.3379336684183536 1.8081295820838095 27 28 30
0.4724303878187095 3.3580705324421958 1.8100663154391123 16 17 19
0.462939688963329 3.3727407593602075 1.8069141426552655 14 15 17
0.49802290323932447 3.3828294463743362 1.808003806168349 13 14 16
0.4889063809524198 3.397455509875358 1.8048881782260373 13 14 16
0.4643498404154135 3.4135655654361003 1.8003201321611537 11 12 14
0.41634228311818644 3.431860724190746 1.793557393277021 31 32 34
0.41087299673766275 3.4459344564397947 1.7908179926417194 13 14 16
0.418604329981625 3.458744672934651 1.7893194928770797 12 13 15
0.4050329092804751 3.4735329432347943 1.7858284780211362 12 13 15
0.4199704885419949 3.4856898886723764 1.7850013969723422 12 13 15
0.42053718590174904 3.4991632424096126 1.7828331156509063 12 13 15
0.40269353407467906 3.5142348298255457 1.7789611246743418 13 14 16
0.4225589553318788 3.5664941493378057 1.7719340536525194 22 23 25
0.44626393540994985 3.578096787642741 1.7718843530368344 24 25 27
0.46583650955743383 3.5900877885400675 1.7714473714578023 23 24 26
0.4621767304813544 3.603894642194942 1.7688934546821284 25 26 30
0.47133183251455213 3.6167305131103267 1.7675022006266665 39 39 43
0.4667977359707451 3.6305806580697455 1.764872729039742 44 45 49
0.46362655724162183 3.6443108539683786 1.7623696510361877 45 46 50
0.4561314060842439 3.658321914743346 1.7594819490952185 45 46 50
0.4524428717573774 3.6720424745201177 1.7569399527395442 45 46 50
0.4482721068177747 3.685774426073247 1.754358334486836 44 45 49
0.4467017785665594 3.6993167385355052 1.7520114329026633 42 43 47
0.4869677669529788 3.7237027158327756 1.7511588715745765 33 34 37
0.4646170022440827 3.7385132201664253 1.746976920367001 23 25 27
0.450165403536969 3.7527849244535605 1.7435018337865251 14 18 19
1.0995376688750629 4.002343249553332 1.753354094398139 45 44 49
1.0828161472339082 4.017017584517822 1.749635186914716 44 43 48
0.8739380496903344 4.06378275915586 1.7256033537073896 53 53 56
0.884167704358133 4.077470917249009 1.7241562544697906 59 59 61
0.9013174938284074 2.553893924483893 1.9907199042445256 67 67 73
0.9552685756457144 2.573488560180878 1.9918080668651466 45 45 53
1.027783143559866 2.5749094564222106 1.9973705865990192 43 43 51
1.0686264987233922 2.5824235125203927 1.999398882511049 42 42 50
1.0904054609397795 2.5935595319324927 1.9993072986780134 42 42 50
1.1444671252818523 2.614133833575819 2.0002430950313053 46 47 52
1.1738941000569665 2.6393817501331394 1.9984407084812006 62 63 68
1.2062811874484822 2.6642763058701697 1.9969330796183495 71 70 76
0.5486847328565121 3.0320029760688105 1.8838592369370324 40 41 45
0.5526108588552012 3.0454668376364693 1.8819575666847008 49 50 54
0.5526493706723381 3.059477553617 1.879655160803595 50 51 55
0.5335315526881 3.0761222158830006 1.8753881060381894 47 48 52
0.521469776628135 3.0917325846512695 1.8718552586878237 38 39 43
0.4985272312080841 3.108758871615512 1.8672196838367008 29 30 33
0.4810960223194671 3.124967145035169 1.863159253776871 22 23 25
0.46468844658631464 3.1409742376918937 1.859213750711334 22 24 24
0.46555084390242873 3.154678781757596 1.8570275817816908 24 26 25
0.4500936268501023 3.1704662988329084 1.853194175533121 36 37 39
0.4342552381608566 3.2548509918116024 1.838042533131406 39 40 42
0.4791953758045684 3.304569580056243 1.833453479623748 89 90 91
0.42199552230490334 3.351841638699919 1.8211026173790565 29 30 34
0.46918305482946066 3.3605047936355232 1.8234489385338946 18 19 22
0.46177135905660427 3.3749531019043757 1.8204790063425091 15 16 18
0.44863527428402533 3.3899501864552213 1.81696120276223 15 16 18
0.4324779914793814 3.405197613138126 1.8131607106136205 14 15 17
0.42005671050642296 3.4200159285239073 1.8097294604092413 43 44 46
0.4192424820552463 3.43366219946222 1.80741886214185 14 15 17
0.4080289137990507 3.448286030097888 1.804116151183762 11 12 14
0.4005030499629447 3.462519916037815 1.8011723766745265 13 14 16
0.40412939577275886 3.4756965666581388 1.7992940049864379 13 14 16
0.4333865162464687 3.4865648194223997 1.7998442365903766 13 14 16
0.4146203628844308 3.501772782106184 1.7958417026105007 13 14 16
0.4062295681543847 3.5160090159797535 1.7928284049452918 13 14 16
0.400011946529259 3.5300239372672966 1.79002523354333 14 15 17
0.4149422950542928 3.542240584051263 1.7892083984148153 20 21 23
0.451148711173052 3.5662836253035404 1.7881461791677562 33 37 40
0.4564958488208154 3.5793856186327657 1.7864176410572534 41 45 48
0.4638779058550243 3.5923393592165302 1.784876156024969 36 40 43
0.4670333307981001 3.60562776382877 1.7829417527809972 27 26 32
0.46796399844448433 3.6190822681325803 1.780802185342265 26 25 31
0.4728161056321079 3.6322476838630764 1.7790236415514666 29 28 34
0.461100118780153 3.646591260604422 1.7757268868030427 32 32 36
0.45554440272383534 3.6604628906015764 1.7730002025083322 40 40 42
0.44652474079402305 3.67454159809315 1.7699625586001462 44 44 46
0.4390076011439794 3.688483686815233 1.767067497112479 46 46 48
0.430715453737188 3.7024427145421095 1.764107699341384 47 47 47
0.433376458387289 3.715680848744579 1.7621420475118164 46 46 46
0.46984623281191934 3.7268574315184306 1.7632180743452517 46 47 47
0.4641417233718216 3.7406469230718242 1.7604930125047331 44 45 46
1.102872407096781 4.0045339951844605 1.7681258659723855 40 41 45
0.8557046470616629 4.066357157900555 1.7381958318855792 52 52 55
0.8929683685345903 4.07953868320047 1.7390054052546156 57 58 62
0.8838987747171586 4.093580221674004 1.7359698863422404 64 65 69
1.0167550217984853 4.119583470795921 1.742310654056429 82 82 84
1.0527380349524567 2.587573851145047 2.0125376897022433 42 42 50
1.0549976962845742 2.6022609927724574 2.0103004332621484 42 42 50
1.1345344584103807 2.602935079702554 2.016678119498725 43 44 49
1.168805602994071 2.61199873921689 2.0179796443615903 46 47 52
1.153534252327383 2.629983299076086 2.0137684833702236 50 51 56
1.1696127073394793 2.6423813277705555 2.013036029746675 59 59 64
1.1784395638467562 2.656089523075053 2.011495951268544 69 68 74
0.5415879413571356 3.06312219262289 1.8924285647878758 44 45 49
0.5503827064833468 3.0759003336580655 1.89103921491789 50 51 55
0.48837566910942426 3.1260881491766948 1.8777055764619393 38 39 42
0.48048836530597006 3.1409870012021845 1.8746055958515218 27 28 30
0.46916620852072555 3.1562953035772394 1.871157880532852 23 24 25
0.48634979747284185 3.167915463036765 1.8706438413428337 24 25 27
0.4886115829963708 3.181465279308894 1.8685942796269002 27 28 30
0.49245231533201383 3.2776485982483243 1.8530489773571885 31 32 37
0.5079566521142131 3.3034636083402598 1.8500575028624144 44 45 49
0.4721914464335832 3.334880177958198 1.8419597358650595 91 92 94
0.45708119614807896 3.350192365288955 1.838202336843565 89 90 94
0.4467565991712484 3.364945255537567 1.8349275811870733 65 66 69
0.4522129799576059 3.378029632766138 1.833215384667169 35 36 38
0.44176215418940096 3.3927359977707168 1.8299380019668665 22 23 25
0.4307161421163784 3.4074587614259024 1.8266093585219199 34 35 37
0.42121090762734337 3.4219854772158005 1.8234387402154175 17 17 19
0.41899174019235763 3.435769477818221 1.820984997800698 12 13 15
0.41433456958010473 3.4497687789689024 1.8182968577307248 14 15 17
0.4016519094254113 3.4644922175154487 1.814834580729066 14 15 17
0.40268944015329244 3.4779092159573826 1.8127070398309169 14 15 17
0.37668352884964695 3.5072072741840095 1.8057547617939211 14 15 17
0.4268657223338531 3.556833445691198 1.8016664348350897 30 31 33
0.453373221779533 3.568201404365324 1.8019546487666813 32 34 36
0.46220895229977216 3.5810348660852114 1.8005595197302806 38 40 42
0.4624375328292445 3.5945504437049833 1.7983497287681804 48 50 52
0.48254218757284195 3.606561678080034 1.7980095180469406 54 57 61
0.47524654646809067 3.6206480881787946 1.7950917617865683 51 54 58
0.4665310687245351 3.634804531478656 1.7920466242964967 41 44 48
0.45609407139072233 3.6490453838624703 1.7888471231606922 33 35 38
0.44892299412732367 3.6630191435830333 1.7859581028806295 28 29 31
0.44493890573490213 3.6767470089391767 1.7833696288695475 24 25 27
0.44187347694250684 3.690393211476227 1.7808695661614384 32 33 35
0.4405419102032596 3.703910088342509 1.7785322798474663 41 42 44
0.44118650862968356 3.717290952765055 1.7763786401968498 45 46 47
0.45041194293011316 3.7301443040684936 1.7750120248926853 46 47 49
0.4542024651506583 3.7433401990000466 1.773145536056939 47 48 50
0.4595202431028026 3.7564519954546913 1.7714175110708958 46 47 50
0.4889046740581453 3.7682273243093016 1.771873266122241 45 46 49
0.49789102835564464 3.7811960043929167 1.7704681306792138 44 45 49
0.5005073400466229 3.7945206101772957 1.7684846247406187 42 43 45
0.9042810227070868 4.081567264475828 1.7540975434564692 67 68 71
1.0373395061574615 4.12158029737924 1.7583555013703889 103 103 105
0.8854571725247415 2.561271209210104 2.018220289503366 76 75 81
0.9226819569212932 2.5839828966179796 2.017566472448849 46 46 55
1.028166157028035 2.594318296134882 2.0246387203142526 42 42 50
1.0327948842979708 2.6085320635828424 2.0226757645067313 42 42 50
1.1008447561400225 2.611268737906879 2.0278876179701437 43 44 49
1.1367396484902215 2.6199933106903353 2.029433882869031 46 47 52
1.1528980831576081 2.632336091222141 2.028739675833794 48 49 54
1.1716588035862736 2.64426558933143 2.028330341206738 61 60 66
0.5395591626523752 3.0794914495083905 1.903816549784137 37 38 42
0.5315563598390546 3.0945556777476617 1.9006617358615614 47 48 52
0.5245710893714952 3.109447840516853 1.8976200403216084 50 51 55
0.4948241451364899 3.127323267265367 1.8921909733648448 49 50 54
0.48351528560454216 3.1426789813041913 1.8887128319875803 45 46 49
0.4764093302426774 3.157445429908331 1.8856818604113366 37 38 40
0.48665541487495717 3.169966978675539 1.8844660189523839 30 31 33
0.48695125549600005 3.1837658054162827 1.8822109766673532 24 25 27
0.47283452258919934 3.199346681673269 1.8784619300950964 24 25 27
0.4714835015673178 3.2133076879800844 1.8760430218988864 25 26 28
0.45727571852002613 3.297481893624207 1.860954283316456 29 30 34
0.46464906116397 3.3651647777855103 1.8503862847021044 85 86 88
0.44995706609521546 3.3803511953327248 1.8466545249591726 92 93 95
0.439434859923643 3.3950589635394293 1.8433489041669548 102 103 105
0.4323755103477489 3.409378978226843 1.8403955658231825 59 60 62
0.4228474274044721 3.423908764573389 1.8372020924408679 35 35 37
0.4157805761057138 3.4381618512024392 1.8342591867076066 27 27 29
0.42538409790666276 3.4508063450416393 1.8329695516207878 20 20 22
0.4043332921692633 3.466323002311081 1.8286539731639424 17 17 19
0.395982162278434 3.4806025060843946 1.825599809204337 16 16 18
0.4058323345199614 3.493213714493114 1.8243362024833785 16 16 18
0.3850512571314994 3.508545694442405 1.8200735842622078 17 18 20
0.37820814691017063 3.5225967243856204 1.8171826823184873 17 18 20
0.39626868918926117 3.534505187929837 1.8167185450638081 19 20 22
0.4429001089094961 3.5576158801009847 1.8167817488175708 27 28 30
0.4517672365784194 3.570426766434729 1.8154033324459993 29 29 31
0.46134554988820475 3.583202204437983 1.8140899662673167 27 27 29
0.47245457772113897 3.595882813912175 1.8129196718881102 22 22 24
0.49623954270540493 3.6076397064033077 1.812957034194572 22 24 26
0.4877879190547923 3.621831859048463 1.8099089369096049 33 35 37
0.47378430905936103 3.6363865895032395 1.806338832559528 42 44 46
0.45197566722545324 3.6649092043650566 1.7998114992143344 48 51 52
0.4409501644023558 3.6791128220807137 1.7965472770071833 48 51 53
0.4403089964656173 3.692593932720982 1.7942667340031642 38 41 42
0.45273009759259547 3.7052323334347173 1.793212620166381 28 31 34
0.4638062489614386 3.7179858501323872 1.7920275445914813 25 28 32
0.4722094165220482 3.730928251917228 1.7905887842831834 27 30 34
0.4818115483090693 3.7438186697498943 1.7892584050810603 37 40 44
0.49150697743454647 3.75672618298357 1.7879329669807986 43 44 48
0.49682606278656666 3.7698999033083886 1.7861992948127494 45 46 50
0.47950517460299663 3.784305417619925 1.782377736160656 46 47 51
0.5085733354955555 3.796215003758924 1.7828296068211618 48 48 51
0.5052303035764769 3.8098564190585273 1.7802976970032336 49 49 51
0.8429328425312597 4.05719872336873 1.7675428416146324 64 64 67
0.8688988639212912 4.070542544400201 1.7674995669851707 73 73 75
0.9142756887875806 4.083624743944368 1.7691151269192724 84 84 86
0.9835073401356549 4.110498223770217 1.7704377683547694 85 85 87
1.0444746822444568 4.123756379838955 1.7733218992182949 126 126 128
0.9117454190393184 2.588213679404781 2.030988913834592 46 46 55
0.9700184828136124 2.5922638793056403 2.0352648554131996 43 43 51
1.0172515702412999 2.598535331597905 2.0382359951938542 42 42 50
1.0497282692163088 2.607650047064946 2.039483908282352 42 42 50
1.0873967532723596 2.615926144403342 2.0413113364911397 43 44 50
1.1217428269867527 2.624914923614086 2.042738774597459 47 48 53
1.1393379228898695 2.6369820783949454 2.042234759904913 50 50 55
1.1639805039084679 2.6478602532041386 2.042525774940391 65 63 69
0.5261120209052302 3.0973931459784203 1.913968057796345 30 31 34
0.5253172474015234 3.1114462182411797 1.911574316568468 38 39 43
0.5070821766981705 3.1277937855833633 1.9073203708787194 46 47 51
0.4938747488647408 3.1434154342672853 1.9036133516942422 49 50 54
0.4871642942423726 3.1581468267155475 1.9006051838364948 50 51 54
0.4738403194963965 3.187504037355236 1.8946145524701155 36 37 39
0.47381768410654934 3.2013133407693597 1.8923267049709058 31 32 35
0.4177811085633213 3.304008907125613 1.870570418846123 32 33 34
0.46003436846292867 3.3814075070333947 1.8613448075975516 68 69 71
0.44806417840517 3.396275749650846 1.8578675241064007 88 89 91
0.4366239590307696 3.4110434297545806 1.854451872753727 90 90 92
0.4267970021528193 3.425607458441966 1.8512068714404493 89 89 91
0.41897941337547334 3.439937787346215 1.848171116860724 77 77 79
0.4267268912086672 3.4527655237242802 1.846705303782564 64 64 65
0.40955848696633335 3.4679196792801212 1.8427394516272393 51 51 54
0.39757513469026784 3.4825368960168746 1.8393026045130356 40 40 43
0.39162604744458585 3.4965666848854973 1.836475203906435 33 33 36
0.38562208982792967 3.5105732749793157 1.8336469859526627 31 31 34
0.39051684067202586 3.523612529592351 1.8319040111380611 26 28 31
0.41592233556167857 3.534925132534587 1.8321878714312771 22 24 27
0.4214778441160629 3.5479577596383165 1.830502080798002 25 25 28
0.4440572813700065 3.559616068749915 1.8304888302996019 27 27 29
0.45130982748141124 3.572560183697335 1.828961741180734 27 27 29
0.4579856759380312 3.585564278446531 1.8273757714663155 24 24 26
0.45585263899663625 3.5992545484868397 1.8249284909736774 18 18 20
0.49560172706569006 3.6233682053910012 1.824310853111077 15 14 16
0.4806511787138992 3.6380003100925977 1.8206196770171232 14 14 16
0.4600874322089485 3.6664556153351557 1.8141638092347556 31 33 34
0.45650338491843506 3.6801738327547024 1.8115887363585526 39 40 42
0.4759615036683123 3.7058603913143187 1.8089883695689795 47 50 54
0.4829102484912108 3.718909935656447 1.8074180406075797 42 45 48
0.4877920167390764 3.7320978463456127 1.8056493559743734 39 41 44
0.49327137305379765 3.745257940961275 1.803936000947535 34 36 38
0.5072296411213745 3.757943896684323 1.8030208480540055 30 32 36
0.5049849782812279 3.7715636944863773 1.8005757580582535 32 33 37
0.49227516036939417 3.7857304847752555 1.7971518078064121 48 48 52
0.4890557590275226 3.7993527631164317 1.7946235684682317 45 45 49
0.5080876739509111 3.811831196868468 1.7941734341242406 46 46 49
0.8943529666920289 4.058374192807232 1.786149239854499 74 74 75
0.8678822989175436 4.0727825116270555 1.7815172459382709 81 81 82
0.9924364477283711 4.1126261803976725 1.7854942447924942 86 86 87
1.054197350429313 4.125904736301399 1.788538626612296 119 118 119
1.0224198990732916 2.5092763968248772 2.068694532586551 84 82 85
0.950519671028853 2.5980756428791483 2.0477441969579733 42 42 50
1.028746603180112 2.613687009570002 2.051924116224953 41 41 49
1.0654678987827544 2.622108592245521 2.053704917199252 43 43 51
1.1052711963663566 2.630093284266151 2.05582487958997 48 48 54
1.1258154714572732 2.641615041597265 2.05569161657326 56 55 60
1.1551921501032254 2.6516463038288665 2.0565698732878435 65 62 68
0.5196691716289341 3.1142998481451474 1.92483841784724 32 33 36
0.5299311516658757 3.1268730252708963 1.9236409969893422 33 34 38
0.4474308860824287 3.234166472577634 1.8987058905654852 31 32 36
0.48461614602048375 3.394687240649775 1.8752991655531626 41 41 43
0.4525744302977761 3.411551926000013 1.8697292421694442 69 69 71
0.4381045967242121 3.42659213750956 1.8659824934669973 86 86 88
0.4239443720493027 3.441546636726213 1.8622767529180384 88 88 90
0.42898953346207075 3.45463919337644 1.8605417550099694 89 89 89
0.4147940473011335 3.469518385310385 1.856845453866582 89 89 89
0.41174361858739716 3.4833303893150758 1.8542905840117183 86 86 87
0.39066764928506237 3.4987313751126004 1.8499123421862698 79 79 79
0.42042805388965976 3.5096041720485847 1.8506842244262063 66 66 67
0.4193962748410681 3.523211124984195 1.8483380464094918 59 59 62
0.4164421874119299 3.5369681375469777 1.8458006343929492 44 44 48
0.42094151897492504 3.5500908116411236 1.844013408385009 26 26 32
0.43912148470032264 3.5621109405603564 1.8435928911765738 23 23 28
0.44569585529004896 3.5751032018246804 1.8420068568459373 27 27 29
0.4580923108282483 3.587655385997276 1.8409976221851407 24 24 26
0.4562798148671824 3.6013213729013 1.838574094212312 20 20 22
0.4549477892934601 3.62844272116812 1.8339603923651104 13 13 15
0.4589087628589468 3.641657420090391 1.8321113166611749 15 15 17
0.476568105652737 3.6539220209279435 1.8316051990598434 15 15 17
0.45958275759668327 3.668592834533266 1.8277020429368047 13 13 15
0.45987654272906353 3.682052204755391 1.8254950495587092 17 17 19
0.5080523057108427 3.719472194241291 1.8234572771254942 40 41 43
0.5071603921880904 3.7330486500725923 1.8211282605523276 41 44 46
0.5186051721317426 3.7458937431912034 1.8199880909559236 41 45 46
0.5003336745524012 3.7604533817844557 1.8159920793068882 43 45 47
0.48607815350310263 3.7747241687923645 1.8123914951733968 44 44 46
0.516573068336332 3.786545376218775 1.8130696308562166 51 51 53
0.5343943339936348 3.7991141369388437 1.8125270760871985 43 42 47
0.887014672827269 4.060747953091104 1.7996451962332058 79 80 82
0.8621842114400029 4.075108264844957 1.7951146736536479 86 86 87
1.006319762369101 4.114691702536074 1.801021827847561 75 75 75
1.0782592361650534 4.127886177056506 1.805058543306894 93 91 92
1.0041316301302572 2.5150244385126763 2.081374964172747 84 82 85
0.9334400972385829 2.5436894010024176 2.0703771577720844 83 81 82
0.883790416407346 2.597797977953668 2.0570064152063745 48 48 56
0.9362159414673155 2.6029149858891576 2.0607791575814725 43 43 51
1.0424447928695046 2.62847785202969 2.0658986193268625 43 43 51
1.0864115965649526 2.6356904045230034 2.06857716759335 48 48 55
1.109350224214297 2.6467623613275064 2.0687599457684134 58 57 62
1.1626987348665685 2.6982622529347173 2.0649056412100824 67 68 73
0.521638565930043 3.1300662736862837 1.9366115902959822 35 35 39
0.42673265765201646 3.2524401682169937 1.907904812120065 36 37 41
0.4273924839707563 3.266057475368855 1.9056999183813048 29 30 34
0.4342871406711059 3.3063198821607713 1.8996166544901771 24 25 27
0.49419165447249425 3.4095343540501957 1.8877459681267452 23 22 25
0.47816886628617744 3.42479040961175 1.883797571798762 46 45 50
0.4492622054617417 3.441215270497938 1.878518765517436 69 69 72
0.4336515738608945 3.456289217715336 1.8746369800793083 84 84 86
0.4186185419433309 3.4712501823272834 1.8708249070231995 88 88 87
0.4183473709510955 3.4848164664332857 1.8685463928716637 89 89 88
0.41698527645036726 3.4984702481175405 1.8661571342652112 90 90 89
0.4212149040015052 3.5116228045588924 1.8643442811013702 83 83 81
0.41672747378413855 3.525527318947309 1.8616377450874684 95 93 93
0.4159639101554142 3.5390956448093034 1.8593154699631111 78 77 80
0.420522099734104 3.5522143180627217 1.8575372221428794 58 58 64
0.43776979211787403 3.5643141517539263 1.8570473207368916 30 30 36
0.44692927072584576 3.5771017397517118 1.8557298611941402 35 34 39
0.45707495535793574 3.58983405079754 1.854508556799922 27 26 32
0.4618318834983713 3.602999765745466 1.8527400168128798 29 28 33
0.46067214467628936 3.6166118284485695 1.8503755362838257 25 25 27
0.4654032029812925 3.629783509618879 1.8486037234296735 20 19 22
0.46464258347176124 3.643352063434374 1.846281670048571 18 17 19
0.45902554888354485 3.6572466877499585 1.8434771635060474 14 14 16
0.4578204803825475 3.6708154220220433 1.8411158863951311 12 12 14
0.46488082776455414 3.6838246936594428 1.839576473007081 12 12 14
0.46608814367738244 3.6972261364087355 1.8374557344706661 12 12 14
0.5100574281157685 3.7349932115362243 1.8350565999372845 26 28 32
0.5229068055220903 3.7477647459173458 1.8340672021372664 32 34 39
0.4849478069214417 3.76343933946783 1.828114803388708 38 39 43
0.5000812255295733 3.7895457549465017 1.8251106800642742 47 45 51
0.5313333869815728 3.801399130848262 1.8258967221120093 53 52 57
0.5551687167592553 3.813715728425817 1.8259517272732675 59 58 63
0.5615417520179578 3.8404873769478423 1.8220645133726614 55 55 57
0.8601918498229387 4.077364423549168 1.809034026997105 80 81 82
1.0007219688899345 4.117024586723428 1.8148354956663562 59 59 60
0.8720213654251051 2.60216767344247 2.0702160345383898 47 48 54
0.9606348087767417 2.6155357903287104 2.075950717323939 41 41 49
1.0308528203449507 2.6327777055846835 2.0793877514931167 43 43 51
1.1627252963608046 2.715714517674674 2.0774241206391677 63 64 69
1.1596363948922919 2.7314299500780543 2.0745296940534232 59 60 65
0.435379231652157 3.1985726826739787 1.9316763369844971 30 31 35
0.4416141063552835 3.211549015623036 1.9300756417349838 40 41 45
0.4411393089623071 3.2253526325268718 1.9277344126453582 48 49 54
0.42067396144889624 3.241542427654377 1.9231999529282884 50 51 55
0.4196421669223032 3.255358112118535 1.9208066755736006 48 49 53
0.41100291950406326 3.2700485048434937 1.9175843136415764 45 46 50
0.4151864509454712 3.283227868228708 1.9157655239288551 40 41 43
0.38187201212185795 3.3006601875877877 1.909869839573098 34 35 37
0.4539798516609666 3.388301947136571 1.9017536850128587 21 22 24
0.45958156630637365 3.401393248461281 1.900076964255151 16 16 18
0.4604633118224913 3.4149590764860007 1.8978971990332858 15 15 17
0.468603842672622 3.4278160260353747 1.8964875813152844 19 18 23
0.4747225245347081 3.4408834335349257 1.8948612819741546 27 26 31
0.4675075078070727 3.455209938247792 1.8918274627523808 43 43 45
0.4374219468902971 3.4716070050693784 1.8863942400907405 62 61 64
0.43140567656893736 3.4857233002383006 1.8835031163174247 80 80 82
0.4232420146140712 3.5000017216318775 1.8803920807724148 88 87 90
0.4245799599707123 3.5134177658453707 1.8782782409965582 86 86 88
0.4161129374827818 3.5276670587936088 1.8751448030073734 89 89 90
0.4155796739754138 3.5412153904818933 1.8728408315464453 86 84 87
0.41907976465864405 3.5544220128614272 1.8709561046183447 88 86 90
0.4199244809030833 3.5678452771916773 1.8687967524803935 77 76 81
0.4404384137121674 3.579710732296904 1.8686638236271167 49 48 54
0.4399530643393452 3.5932570870683995 1.8663644858090547 30 29 35
0.45293220451665517 3.6057746411131477 1.8654460687845467 27 26 31
0.45397532723251793 3.6192093768095934 1.8633026306178824 36 33 37
0.45031907027036416 3.63297917703595 1.8606812208811623 38 35 38
0.45608328542765864 3.6460617062615057 1.859020559359076 35 32 35
0.4528637313396016 3.6732532515056713 1.8542033959099387 25 25 27
0.456826820059869 3.6864609637142216 1.8523600817141446 17 17 19
0.4908925314857977 3.7247552361345817 1.8490436796669283 11 11 13
0.503610577845561 3.737495217842037 1.8480647682392584 15 14 16
0.5205883293731589 3.7500212596395106 1.8475041598380157 16 15 18
0.49791204940833994 3.791778819368834 1.8385135394493965 36 32 39
0.521431017124821 3.8310143946588338 1.8340929073538974 51 50 54
0.8866690419333769 4.065206909136716 1.8279070025230186 62 63 65
0.8573852342055958 4.079634476576614 1.8228737672614574 66 66 68
0.877487751296808 2.6181427599456977 2.083028464142488 44 44 50
1.1651924054438352 2.7327527150307267 2.0902277672442153 56 57 61
0.4264895833996656 3.2017603574468807 1.944391687157721 30 31 34
0.43883573983119106 3.2139727327628953 1.943483610656069 28 29 31
0.40621437701365554 3.2726821095536285 1.930703572640684 48 49 52
0.41603881194370873 3.285208229842776 1.9295124390806608 47 48 52
0.41252652524836003 3.299265486638452 1.9268456774797373 46 47 51
0.4090594311903776 3.3132973850209853 1.9241872815027008 41 42 47
0.4679086311279281 3.388979834714348 1.9169438515362254 22 23 25
0.4517905769852791 3.4042652883452234 1.9129188809339066 17 17 19
0.45406495026696186 3.4176822606856976 1.910888364227212 16 16 18
0.4525800530348981 3.431461130297575 1.9084535344536582 15 15 17
0.48491462549736214 3.442014730263634 1.9096509379101219 17 17 19
0.48710977244193576 3.4827963582413335 1.9030474319304629 32 32 34
0.423563027067369 3.583133568718814 1.8804925422238201 85 83 88
0.42201099049192875 3.5967350211350144 1.8780811716744856 72 70 75
0.433767429057227 3.6093193838140367 1.8770570771991493 49 47 52
0.43586350124942974 3.6226460731851877 1.8750253114800113 33 33 35
0.4385554001269467 3.6359280036411192 1.8730555251765941 30 29 32
0.4556248111182148 3.648196012962364 1.8725702911943454 35 34 38
0.4543055770618102 3.6617779934798396 1.8701834683202865 39 37 42
0.44949965543087245 3.675581761896303 1.867440647651954 40 37 44
0.505471968162132 3.6989158705184835 1.868668236224592 35 34 40
0.5078527925105041 3.712304635485754 1.866652164946289 28 29 33
0.49855452398370187 3.7264028844620136 1.863449211274503 23 23 27
0.5357805635456342 3.737707810558714 1.8649687719026644 17 16 20
0.5298389773482669 3.7516106176670854 1.8621055262143673 14 12 16
1.0676938870976689 4.13483714822531 1.8473726122755407 80 81 79
1.111896565303621 4.148558322714473 1.8491273108174149 145 143 142
0.8603959193029552 2.6234693028403973 2.0955316018946557 44 45 50
0.9033523669122778 2.6303990749238144 2.0983741294292493 41 42 47
0.9231067808381395 2.641670333517271 2.0983297927485216 41 42 47
0.42350883596954414 3.2179350079415427 1.955458610761246 32 33 36
0.4327224015564694 3.2305368360211673 1.9542100448827784 28 29 31
0.4095311805897804 3.2470289236023766 1.94929289223947 26 27 29
0.45002950665090624 3.420171045326967 1.9241196601396857 17 17 19
0.4462579795800103 3.434163757356421 1.9214291216052017 16 16 18
0.4472651750648681 3.44768280230106 1.919262865923037 15 15 17
0.479742237088208 3.4855622237593207 1.9159552734642709 15 15 17
0.4338200828439407 3.6248925604854567 1.8883852558595058 74 74 76
0.4327500825308519 3.6384428327084897 1.8860203068208796 54 54 56
0.4233122188752345 3.6525691686115453 1.8827796590866108 32 31 36
0.4396600990064935 3.6648859176053064 1.8822432516637437 30 28 33
0.4331299013089061 3.678780834922229 1.8793121157162849 34 32 37
0.47246208807395473 3.689645681732324 1.8811592223784477 38 37 42
0.4666997394737636 3.703506453657292 1.8783053132660414 42 41 46
0.4705091824234957 3.7167447889225387 1.8764469908613204 42 43 47
0.4825872457651046 3.7294860391467815 1.875441920150426 41 41 46
0.49472380023839085 3.742254297466442 1.8744377822642342 42 40 45
0.5142971912527254 3.7546267147870527 1.874192496944845 36 34 39
0.5058538145346322 3.768615118127828 1.8710675361881624 30 28 31
1.2524258905765233 2.413809692375772 2.182772516174121 125 126 130
0.8765749865681518 2.5781441783159917 2.1196170943111206 81 80 85
0.8790835360866346 2.637011097782435 2.1099943827747234 42 43 48
0.9026518367442555 2.647556403123984 2.1104621334873785 41 42 47
1.001544207988041 2.6596639654252923 2.1178084982847953 48 48 54
1.0655681660712095 2.6633891472787874 2.1232536240827353 53 54 58
0.4213821222706641 3.2339877383693736 1.966610232768874 36 37 41
0.41268053181529163 3.2487295935747724 1.9633160351071341 32 33 35
0.4908432621315658 3.2946094262006045 1.9630403192342354 44 45 48
0.4769934869959114 3.309920928130063 1.959162683776409 49 50 53
0.4654470398046652 3.324926385132029 1.9555546549882457 48 49 52
0.4520060976390915 3.3400888678357696 1.951740736083568 48 49 53
0.4643890650619502 3.434513613968946 1.937097947508767 16 16 18
0.46149022532130207 3.4484320786299247 1.9344917402160802 16 16 18
0.44335507244527705 3.4637466787301086 1.9302073559882118 14 14 16
0.45191368065897525 3.4901571690930737 1.9265947728480801 14 14 16
0.43386577214238947 3.518884819162138 1.9200719049052846 15 15 18
0.4733089533161355 3.6511624192737204 1.9016537277633887 66 65 69
0.4694058228241347 3.6649501285602755 1.89897422152102 52 52 56
0.4668042717168579 3.678629676988165 1.896436215208337 37 37 40
0.4596402249211773 3.6925895597815774 1.8934187524254138 30 31 33
0.45352665110769164 3.706450941276626 1.8905173680660599 30 31 34
0.4453812097914601 3.720409849624485 1.8874070378031969 37 38 42
0.43927877795005227 3.7342106714926744 1.8845168536854664 43 43 47
0.43485091700897094 3.747884964641055 1.8818066037142918 46 44 49
0.47958231609781743 3.7587299188458263 1.8842303049336884 46 44 49
0.482133206303918 3.7720507469534934 1.8822408086781826 46 44 47
0.4787435729188504 3.785691264765557 1.8796346344053811 45 43 46
0.49614210959845106 3.7982260254028084 1.8791842821789622 42 40 43
1.203402834425623 2.4103745738091886 2.194301648519395 170 170 171
0.8451873098596283 2.5862533385591733 2.130234142503754 79 79 82
0.8573179863690095 2.643154706153263 2.1218541533612267 41 42 47
0.8961571278790692 2.6509091740088424 2.1242986445990053 41 42 48
1.0376803242584363 2.6705098472784106 2.134658601182094 52 53 57
0.4102959922666189 3.264768704255021 1.9744120601215616 33 34 37
0.5012309693781487 3.295541793833468 1.9780177830314147 28 29 31
0.488588969180046 3.3107338358705567 1.9742487525018741 35 36 38
0.47851267305479606 3.3255957806183782 1.9707825801002496 44 45 48
0.45557672391782383 3.341796093117909 1.9658514984166457 49 50 53
0.44825670118096234 3.3562616443361057 1.9627176908897046 49 50 54
0.4711875468992098 3.4632629899796137 1.9469708903806877 17 17 19
0.4529115456220739 3.4785638386128084 1.9426402110646923 15 15 17
0.43634316044065735 3.507208286262625 1.9362347220969602 16 16 18
0.49551993473025646 3.6517200456435375 1.9176882525181709 71 71 75
0.4857426006036087 3.6659436104484038 1.914358056029932 70 69 73
0.46584014650186295 3.6808005615717923 1.9099450097731396 69 69 71
0.46083612787146977 3.69461733961841 1.9071434618976093 61 62 63
0.46196094318131586 3.7080214179801625 1.9050022918824219 41 41 44
0.46261927855534224 3.7214493547072873 1.9028121266358595 32 33 37
0.474695585310831 3.7341850420015077 1.9018393831293905 30 30 34
0.46714988689475606 3.748098122557845 1.8987765328597395 36 35 39
0.46312296450151247 3.7617783107589813 1.896092148208728 43 41 45
0.453446965912246 3.7757489575020733 1.892814173490462 47 45 49
0.44630462413843625 3.7895440654562877 1.8898100258857784 49 47 51
0.4794902351231567 3.8012104902205204 1.8910526879798382 50 48 52
0.5038383922703396 3.82688838297939 1.8890914000246362 48 47 52
0.5047742056001536 3.8403034825782956 1.8869301514370818 46 45 50
0.5351418762391059 3.8523718266494678 1.8878335735984595 43 42 47
1.1757490029675837 2.4027417666535658 2.2084773753335583 187 189 186
1.2218126707012416 2.4089222841238835 2.2119569722854533 143 145 145
0.7914895459198136 2.642642688548434 2.1304385232200214 45 46 51
0.8852445805988585 2.655056592367871 2.1375485067506186 41 41 49
0.9033511799258045 2.6666321644356428 2.137378220247261 41 42 47
0.43532878512894385 3.263917682421607 1.9910234209695272 36 37 41
0.43941148247489964 3.2771585311737788 1.9891973278275679 34 35 39
0.45519885028684465 3.289073499851596 1.988742446840693 31 32 34
0.47598704219502314 3.300471511337885 1.9888650883490806 28 29 31
0.4721588027475971 3.3146464261687565 1.986105843450871 26 27 29
0.4595382434695297 3.3297559461337993 1.9823268909055536 28 29 31
0.4483372827410555 3.344663104120997 1.9787212331777004 38 39 41
0.43845516125019607 3.359385577683862 1.9752760128998172 47 48 50
0.4318872637207242 3.3737227939027576 1.9722207096837727 50 51 53
0.4429187554289923 3.4407608232480373 1.9620296422011396 44 44 46
0.4428227967627583 3.481574926426458 1.955156830628261 19 19 21
0.4434625353781626 3.4951022398775624 1.9529448045239226 15 15 17
0.43952965968859437 3.5090227150491105 1.950218081810159 15 15 17
0.4205594367107013 3.524211713238099 1.945802850724348 15 15 17
0.42466422453902347 3.5509083350482413 1.94171616950352 15 15 17
0.4304085700042008 3.563955089443479 1.94008572636884 15 15 17
0.43615679247343997 3.5770116353620147 1.938454017009014 15 14 18
0.4377186500005823 3.590403321662265 1.9363552597965645 18 17 22
0.5029814544056233 3.6668844582129494 1.9298964048038527 58 58 63
0.4493183815983083 3.697468189665046 1.9194889280968186 68 69 69
0.4692808873651346 3.709666775632634 1.919395941795374 64 64 68
0.49076432247172413 3.721827939415519 1.919458454369219 56 57 61
0.4845093570081703 3.7357090879990973 1.9165105437764702 50 50 53
0.4633727165615519 3.750427558618284 1.9119619083367103 41 40 42
0.4657126240853142 3.7637408494658913 1.9099526623794305 35 33 36
0.4682844176211505 3.7770404169220697 1.9079684726104933 34 32 37
0.4642489252401363 3.790692324435494 1.905276846000982 39 37 42
0.4794255833659493 3.8033284946414168 1.9046407743234128 47 45 50
0.4734079185044143 3.8170677110819096 1.9017400109922638 49 48 53
0.4758037159455049 3.830370740916263 1.8997379734518725 49 48 53
0.508331206640667 3.8422590729597386 1.9009298075441559 50 49 54
1.1388743499054033 4.143213110867807 1.912178054632288 149 149 149
1.1939024215695853 2.4013074278474416 2.2260960131423375 184 186 185
1.245414086933223 2.406437763934841 2.230370201360255 114 115 118
0.8597494625548467 2.6618277400817 2.1488668234167596 41 41 48
0.44220571652880714 3.265198882866173 2.0055515411835447 39 40 44
0.43115829028495245 3.280193757680807 2.0019229880867937 37 38 42
0.4386078163135666 3.2930453232856305 2.0005007482415373 34 35 37
0.4474099273178731 3.3057614895706706 1.9992362506425947 31 32 34
0.45220013896541045 3.318939717601324 1.9974936881225556 28 29 31
0.44857947685773975 3.3330373784190384 1.9947571729919649 26 27 29
0.43657105169655364 3.3480104657782928 1.9910364253504993 25 26 28
0.42368139760099144 3.3630279825332283 1.9872202837525779 28 29 31
0.41655266768486937 3.37739784643817 1.9840879535039189 37 38 40
0.4188720406122871 3.390772754173633 1.9820657708582554 46 46 50
0.4288493008500587 3.4033787629798233 1.9809370621732663 50 49 54
0.42770352077031726 3.4171057988517535 1.9785098787564168 49 48 53
0.42813762109435416 3.471427528162 1.9694004492689012 45 44 49
0.42654445280295133 3.498699232853889 1.9646464785542834 34 34 36
0.4420882527672867 3.5108938437205284 1.964142383301831 20 20 22
0.4347934967114242 3.5250840667782453 1.9610237588297987 16 16 18
0.45082692539681446 3.5372845046834973 1.9605675252422017 15 15 17
0.4198392183537401 3.553397209423357 1.9547614622571026 15 15 17
0.4180028126281803 3.5670493972146047 1.9522779959372882 16 16 18
0.42329273731437395 3.580123903257904 1.9506027591021202 15 15 17
0.4315183142642404 3.592979842716066 1.9492571981428048 15 15 17
0.4377854590031946 3.606002322069553 1.9476882110444644 15 15 17
0.44523932812916883 3.6189485986357237 1.9462504464857657 19 19 21
0.4607442932906649 3.631326674766473 1.945711564939889 25 26 28
0.4768771549309833 3.6437019790300336 1.9452357869562116 30 31 33
0.49431555200040733 3.65603058686142 1.9448981120813809 33 34 37
0.46678508089631254 3.698446679386716 1.935005040079228 51 53 53
0.4669619015173119 3.711921449471004 1.9327522987653203 57 59 62
0.4722407271383671 3.72507611263329 1.9310624489606825 59 60 64
0.5146285655743074 3.736029071449736 1.9334454187295926 63 63 66
0.4731041683534577 3.751972683634671 1.9266167468474944 63 61 64
0.4921216594822013 3.764363278651501 1.926426151999856 59 58 61
0.4718992495608987 3.778953839931687 1.9219504612522662 49 49 51
0.4701745976424321 3.7924883089613575 1.9194979776365595 38 38 40
0.4692297947487951 3.805968546433371 1.9171324262872833 34 34 36
0.4737761590607019 3.819163298267878 1.9153627543834728 41 40 45
0.49619286381905153 3.8315014287450877 1.9155200917687707 44 43 48
0.9015887412944554 2.567208330023137 2.1840455763034656 63 64 68
0.8458409380634475 2.5926169655401328 2.1741026507350263 67 67 69
0.7722426416787014 2.6651169803548203 2.154399518792938 43 44 50
0.8418908185608264 2.6672118834467335 2.161108944450385 40 40 47
0.8700068398652521 2.67693932205466 2.162318029637846 46 47 52
0.4428728996951901 3.267207189711781 2.019352897419949 39 40 44
0.3999413330503966 3.313144376079665 2.007244046654924 39 40 42
0.4180295431664115 3.32478492802258 2.007113230069801 34 35 37
0.42514884316347207 3.3376635128508143 2.0056610411247124 28 29 31
0.4234853353044022 3.3514929116431116 2.003157662839447 26 27 29
0.41746405812655674 3.365765403440844 2.0001375560501016 26 27 29
0.40707137093089474 3.380460920266895 1.996602725318255 26 27 29
0.40092215964846506 3.3946822086211643 1.993578288780605 28 28 32
0.4076726255961639 3.407584484632304 1.9920846964785681 36 35 40
0.41573218668430456 3.420371451950063 1.990743327175264 44 43 48
0.4107915710516795 3.48865194670492 1.9787151752427825 48 47 52
0.4147237326741158 3.50183669159949 1.9768880896145997 46 45 50
0.41756650452187777 3.5151203327396474 1.9749338322672627 43 42 47
0.435633587151101 3.5271062423866075 1.9747425698042347 37 37 41
0.44183014800413933 3.540135467660993 1.9731713738771042 30 30 32
0.4579423992340884 3.5523629576959954 1.9727410864923605 22 22 24
0.4786244060589621 3.5642669400791367 1.9728288369297111 15 15 17
0.42996330196843074 3.5816914035614045 1.9649524688744007 14 14 16
0.4276584761508246 3.595373053806658 1.9624089968526897 15 15 17
0.5087705006452728 3.6163544473621303 1.9670925630569156 15 15 17
0.5063141239057177 3.630138033410538 1.9645165133013793 15 16 18
0.5019831259797631 3.644037414071774 1.9617308079837603 16 17 19
0.47486902239656886 3.659486526741325 1.9563730205049508 22 23 27
0.44621299046037877 3.6749430283531996 1.9508576172137913 32 34 38
0.445409420120636 3.6884660647628533 1.9484931661302116 33 37 39
0.44620196459187633 3.701875540712865 1.9463097498442248 34 38 37
0.4531740733663529 3.7148925670748008 1.9448192623857363 37 41 44
0.4714652876989492 3.72723400899972 1.944590708338385 41 42 46
0.5446785773678638 3.7363687666431717 1.950473206554257 48 49 52
0.49479006156948624 3.7528334202558176 1.9426344007094287 61 59 62
0.5317394481623051 3.7642587183420857 1.9444526530186623 68 67 70
0.5177767634077648 3.778567593854315 1.9406210582853178 68 68 70
0.5094372629698083 3.792525667891263 1.937418938321347 63 64 66
0.4964614179747437 3.806685893830572 1.9337125149745884 57 58 60
0.49962674193319845 3.81999465570715 1.9317867270563605 52 52 56
0.6965148369386197 3.9339215398262635 1.932520187598637 58 58 60
0.8506258827518116 2.593879403978638 2.18934820825927 64 62 68
0.8213329412614119 2.6730727729922727 2.172933611503255 40 40 47
0.4249010637401465 3.271382532895978 2.0308713458321095 37 38 40
0.4055533783083593 3.3418641087293843 2.0169553605267945 39 42 45
0.4107788602798698 3.35492881258578 2.01528404861158 36 37 39
0.3970766993302984 3.3699835043611754 2.011325331861773 29 30 32
0.4047195351527763 3.3827849279041025 2.009947701041928 26 27 29
0.4082106053879768 3.396023766527371 2.0080681751661196 26 27 29
0.3992806518593071 3.4105045004685217 2.0046983961340423 24 24 26
0.3986803094378354 3.4241299403731627 2.002331790656245 24 24 27
0.4022226398025972 3.4373450531710055 2.0004615611684717 33 33 36
0.405418854549423 3.4505959372011095 1.9985496081885639 44 43 48
0.41159355139991094 3.4635710243460016 1.9969912868272301 47 46 52
0.41236778072085906 3.4770521728962076 1.9947907599838148 49 48 53
0.4118655547838195 3.490641994805393 1.9924402917499793 49 48 54
0.4127659763329294 3.504097679816516 1.990257078193911 49 48 54
0.4050695716499859 3.5182927023879573 1.9870627641659602 47 46 52
0.40581127817983603 3.5317364650643195 1.9848652091077803 46 45 51
0.410431806781926 3.544850541296446 1.9831231956562059 45 45 49
0.4248778556429966 3.5571676491207294 1.982528667705079 43 42 46
0.4481081575168414 3.5688192555056557 1.9829520682808437 36 35 40
0.4430440536777721 3.582759354390266 1.9800721756024269 28 26 31
0.46376971396039485 3.594691505578933 1.980189978394676 19 17 22
0.4824929382344732 3.6068331531789015 1.9800659615938565 16 15 19
0.4920118359335398 3.633284139198931 1.9765728785663832 14 15 17
0.48802071007960357 3.6471357829515836 1.9738185357548093 14 15 17
0.4759859575610041 3.6615189648122706 1.9701452577323986 13 14 17
0.4715276217350006 3.6753458073806287 1.967346956461588 16 17 20
0.43723797016278565 3.691104256776474 1.96114732533858 16 18 20
0.4366845846698426 3.704587200763407 1.9588096625846962 25 27 28
0.4439080554379109 3.7175754212593395 1.9573572128716827 30 32 34
0.46653694230950776 3.7296438295597407 1.9576481262328154 31 32 35
0.4871629285090389 3.7418951167076777 1.9577016744458886 32 33 35
0.5022268275144725 3.7545239538057693 1.9571180972451105 30 30 32
0.5003895379295072 3.768136363057744 1.954626208446249 41 41 43
0.5528086634885424 3.7923671623828312 1.955930231397252 65 65 67
0.5278013183367439 3.807207924813016 1.9508425182201155 66 67 69
1.1070018435037752 4.13617838679015 1.954893468268161 87 86 87
0.912780387716879 2.5694385334506147 2.2149768304825397 59 56 63
0.8545084809169667 2.59531424001734 2.204489119007944 60 57 64
0.7837512053649427 2.623308419487251 2.1923348811129664 74 71 78
0.7452305408695672 2.6743069455313027 2.179657788788559 50 50 56
0.7553282147283298 2.6870825439764623 2.178550051843694 43 43 51
0.3842451600464054 3.003742852723096 2.0860225298048367 22 21 27
0.4551231239748894 3.2974440264952896 2.043669078444362 38 39 43
0.3998374830750401 3.3445599849617365 2.029894336176855 43 46 49
0.41014829206932757 3.3570776400458526 2.0288526349085174 47 48 51
0.3958501146182413 3.3721906051526025 2.024793985427307 44 45 48
0.40174858427646826 3.385171752961071 2.0232116637010917 37 38 41
0.4006897939742979 3.3988673182364537 2.0207796863268412 36 36 38
0.39907034366659405 3.4126065037804842 2.018281602887637 31 31 33
0.39344518860745553 3.426723720996462 2.015299966318104 26 26 28
0.393261062369192 3.440290235730256 2.0129814566748365 24 24 27
0.39321151996589904 3.453834756944148 2.0106807683277066 24 23 28
0.38854611871409056 3.467799516866388 2.007825477181755 30 29 34
0.39743192482188067 3.4805029321256713 2.0066030646102755 38 37 42
0.40505794807790474 3.493339761414199 2.0052261144193606 48 47 52
0.41422541099340304 3.506057173976669 2.004030825248228 50 49 54
0.4123317227400363 3.519751716872429 2.0015115890419164 48 47 53
0.4223096663590977 3.5324249796138845 2.000408657382428 47 46 51
0.42119519169289044 3.5730686691094036 1.9934037308456796 48 47 52
0.42529934921623574 3.58624665800901 1.991600145075731 45 44 49
0.4285832161702755 3.599492266903295 1.989699196805099 42 40 45
0.4141494937041192 3.6140688895862736 1.9857172511046524 34 33 38
0.4378513810676663 3.625791582810953 1.9862126177110786 23 24 28
0.4638186327425589 3.6374201463195117 1.9869611705099062 17 18 20
0.44862544677878197 3.6520111535815656 1.9828972544743986 14 15 17
0.4465947161148357 3.6656424906627834 1.9803743789293942 14 15 17
0.44081083517589725 3.6795097166362485 1.9774184883326544 16 17 19
0.4222259685831171 3.7076089221303765 1.9707100448229182 15 16 18
0.439044487509914 3.719980847554643 1.9703745413197804 15 16 18
0.4631406649951335 3.731958954703688 1.9708679116633259 16 17 19
0.4712558862524821 3.7449460994749018 1.969516716031099 16 17 19
0.5041600283354984 3.770046787712627 1.9687084826497054 19 19 21
0.5264132632171937 3.78235090485411 1.9689536049699738 22 22 24
0.5203250654236261 3.7962017895758193 1.9659686152176579 32 32 34
0.5198104588507485 3.8097417019651107 1.9636200055602213 45 45 47
0.5227704395037226 3.823100702399205 1.9616659219129753 57 57 59
1.0885250173046215 4.138665540117376 1.9674314788231126 81 79 81
1.190680726993318 4.151918822306916 1.9758832777147686 100 99 98
1.2161464781761715 2.3747624695002094 2.2953982689165255 196 196 198
0.8652127414865829 2.5954706003388113 2.2205887711382353 58 55 62
0.7817829774369235 2.6258237506010937 2.2065594888981312 66 63 70
0.7220521532449887 2.6515150351824883 2.19584287257974 86 85 90
0.7350732084753098 2.678286413134846 2.1926820520534602 60 59 65
0.6789294399907335 2.7029232495822053 2.1825260727260822 49 48 56
