ply
format ascii 1.0
element vertex 729
property float x
property float y
property float z
property uchar diffuse_red
property uchar diffuse_green
property uchar diffuse_blue
end_header
1.186591241517744 2.5661756284315134 2.3713623288404633 28 28 30
1.2152397323655988 2.618397864124225 2.377183337826304 27 27 29
1.2467815658555352 2.674058448461224 2.383451833043691 32 31 35
1.2646431374526828 2.7150632484209134 2.3877270036795255 36 35 40
1.2738531092942094 2.746783845754944 2.3907403680966284 40 39 44
1.2162803079287205 2.705126880724573 2.3838827856427893 40 39 44
1.2198993553612951 2.730725346877569 2.3860713716625574 40 40 42
1.214976083146701 2.746964561281251 2.3869993808640806 40 40 42
1.2577329433412703 2.816266441895475 2.395026394733212 40 40 42
1.2743764688663424 2.856833196961219 2.399190384077006 39 39 42
1.2288641359673003 2.8280349753771903 2.3940853871596808 34 33 38
1.817492048177867 3.5111321738145955 2.48386807084597 28 28 30
1.7743732898199829 3.4868837189516366 2.4792636899876377 23 23 25
1.7558928264526676 3.490258689866197 2.478343241394919 22 22 24
1.7565261622750121 3.5152670805917015 2.4802962880860435 20 20 22
0.7745469869022583 2.4429299311051955 2.335658819815966 17 16 19
0.7611971510850416 2.4484823430876705 2.3352321025362324 15 14 19
0.7355139196466929 2.439837451385996 2.332933020255566 13 12 18
0.7052529209572332 2.425797460198271 2.329929376217431 13 12 18
0.7227020670983717 2.4668085798011363 2.33417872826737 13 10 17
0.6740808367869099 2.431333556831101 2.3283648196050377 13 10 17
0.5663708839588022 2.3267386874622202 2.3134962751317714 12 9 16
1.0240365569346797 2.9722042155535697 2.392048913969311 12 12 14
1.136704320236967 3.128830736993773 2.411213048067094 12 12 14
1.1442638321594627 3.1611237821825267 2.414164937623926 13 12 17
1.1395956893566834 3.1789412347523616 2.4152299219706728 14 13 18
1.0782162982781467 3.1287439573809217 2.407476410902312 17 17 19
1.0650127542791232 3.1361641756317584 2.4072018741263306 21 21 23
1.0503733346808262 3.1418350940909416 2.406701978704482 26 26 28
1.0916437501452378 3.215265396729059 2.4149499405809824 30 30 32
1.0945441316437332 3.24244861442037 2.417213897316275 32 32 34
1.1206099576654944 3.2980247983002573 2.423126712031949 32 32 34
1.1340049182894565 3.338392248897234 2.427068285302035 32 32 34
1.1127013719579089 3.336328790649475 2.425551863861205 31 31 33
1.0489608436992808 3.2818639668730416 2.4173213897623156 30 31 33
1.118426330504985 3.3917534317116975 2.4301558751935177 29 30 32
1.0852196089576804 3.374876520182796 2.426747402033156 28 29 31
1.052300039918091 3.3581773284428493 2.4233708337780793 30 30 34
1.0589535693925736 3.3907519439269 2.4262864801036237 33 32 38
1.0471206056496767 3.40030139017777 2.426262194978711 37 35 43
1.0193609341650718 3.3898120053839107 2.4236896224185127 43 40 48
1.0045043502695754 3.3954741068162324 2.42317520328469 52 50 55
1.1670570864017296 3.625821981152148 2.451158941540882 62 60 65
1.1567121980784467 3.637924297011061 2.4514248015340576 67 64 71
1.1401180253748358 3.642071495553002 2.450683709186525 70 70 72
0.6980499876100261 3.1489042879442857 2.3847736554672068 70 70 74
0.5878677999098618 3.030196313943967 2.3686680687391237 68 69 73
0.4810935759734467 2.9150375512607645 2.353051266401564 67 68 72
0.49390434126753324 2.954667787561564 2.3568992007627414 64 65 69
0.514983961704059 3.005305241232997 2.3621163094706046 63 62 67
0.5558973787128938 3.082215801165809 2.370607676352064 61 60 65
0.5818644272284514 3.1399375929699604 2.3766782890175677 60 59 64
0.5499123270280852 3.1215776835134417 2.373236407201859 60 59 63
0.8973123571690891 3.6052235202522365 2.4323809274579884 58 58 60
0.7983293733040768 3.4991626806955276 2.417956816213772 57 57 59
0.742788776516075 3.4502127616066147 2.410671065622873 56 56 58
0.7034807549144217 3.422571754113145 2.4060502452904204 55 54 59
0.9620556449076054 3.7944484989193366 2.4509818875259146 54 53 58
0.9463000007897209 3.799383996016328 2.4503545608258324 53 52 58
0.9695255599008865 3.856959052331271 2.4562391160277515 51 51 56
0.9574470689057801 3.866991633627252 2.456236123164032 48 49 54
0.9854905730041479 3.93161336942317 2.4629668709706696 45 46 51
0.9716802984231789 3.939469117145923 2.462686950264415 44 45 50
0.8362643203130036 3.780712807162037 2.4419091898263066 43 44 49
0.8022877966152653 3.760240170294007 2.438176620302026 43 44 49
0.7678079201170671 3.738863483858114 2.434342807839589 43 44 49
0.709283423175098 3.6839882769421575 2.4264135932478603 44 45 50
0.6963636219467066 3.6920101421209788 2.4262031661234427 46 45 51
0.548303367966116 3.511661968130584 2.402967674345584 48 47 53
0.5655038691409819 3.561134533054955 2.407848305710704 50 49 55
0.5846230230984375 3.6135769711908274 2.4130784344068354 52 51 56
0.5951139805352543 3.6541655859066635 2.41685172328009 54 53 59
0.6306231083191847 3.7303257360248443 2.4249410466117687 58 57 62
0.5955159345444381 3.706804451306185 2.4209032089093 67 67 67
0.5140242840375313 3.6170433961082358 2.408841202636745 72 74 73
0.5518267881674588 3.6969450822596412 2.4173629380528667 79 81 80
0.5936305303999656 3.783070790945634 2.426615864327798 99 101 100
0.6415716153994184 3.878555480626484 2.4369759723307824 172 173 173
0.6873830201095126 3.9715656315470196 2.4470110084597056 204 204 204
0.7216889941255324 4.048496321322085 2.4550825334976465 205 205 205
0.7958723186090522 4.183842374567607 2.470164828023904 205 205 205
-0.8635797380432892 5.5827683446723295 2.471326039880045 190 190 190
-0.8671363395056684 5.614300403370952 2.473510812558193 190 190 190
-0.8707091745880979 5.645975190790016 2.4757054659344337 190 190 190
-0.8742595668232109 5.677889611902504 2.4779198779015124 189 189 189
-0.8764430384273525 5.713385879266509 2.480495405233514 189 189 188
-0.8971928153407549 5.702781482380827 2.478361083710755 189 189 188
-1.3023882981326806 4.728756686869991 2.378026258577559 189 189 188
-1.3304566213142444 4.695198943992817 2.3736697204912596 189 189 189
-1.3113852076032042 4.780406345570741 2.381402688369599 189 189 189
-1.2919704398385274 4.867146928755836 2.389274811856746 189 189 189
-1.267293737509146 4.9679779380664 2.398560152730519 189 189 189
-1.2568992447783558 5.033038736380268 2.4041989367441494 189 189 188
-1.245700403600574 5.100655337570755 2.4100844863842545 189 189 188
1.9239593294567052 2.7343676438688544 2.4465423720343646 206 206 204
1.8964414124776288 2.7285257812825976 2.444304270417562 206 206 204
1.8682839641142042 2.7219456828011523 2.441967315885811 205 205 203
1.831910306986442 2.7070607796834496 2.438452072629325 194 194 193
1.78737403241814 2.6838437385221017 2.433759889861537 124 124 125
1.7437337468080918 2.661311148030436 2.429179004172839 93 92 94
1.718568188746457 2.657182887917502 2.4272266235286595 85 83 86
1.7201716982047708 2.6800252403415254 2.4291064300348526 77 77 79
1.6719933568813437 2.6524656181867408 2.4238405299681087 68 69 71
1.6456074321639789 2.6468367455824318 2.4216923718544083 63 63 65
1.6838366715377138 2.707070931391039 2.4288535401140083 58 58 61
1.6469833965931195 2.6907379930861137 2.4251946282403196 50 49 55
1.6275885250746873 2.6921744297139756 2.4240489711937063 46 45 50
1.6216060709420832 2.7073846773659787 2.4248436448550494 44 43 48
1.679717195076028 2.788924312171676 2.4349500857363737 42 41 46
1.690348278630434 2.821666219257321 2.438184762309092 41 40 45
1.5318588731814882 2.6784872930444155 2.416778914926831 40 39 44
1.4629071228024162 2.6278285508590997 2.4083704994489707 40 39 44
1.4163206166202662 2.6002124449238675 2.403203403644117 39 38 43
1.3644557313543864 2.5668033931127807 2.3972437545795393 43 42 47
1.132100275739582 2.342721965223432 2.364759638764536 48 47 52
1.0521968956654024 2.2784493005995645 2.354582850957762 46 45 50
0.9968991482266095 2.2398212790090075 2.3479949130099924 46 45 50
1.2669959573214518 2.547523424881047 2.3894267292249345 45 44 49
1.2124530561929523 2.510216850564534 2.38299046097346 46 45 50
1.1742862087178536 2.490164386368543 2.37895722223865 45 44 49
1.1560654090553801 2.491378731151082 2.3778704116629736 41 40 45
1.1686424915723466 2.5257845712938685 2.3813606041984774 35 35 37
1.197246866968507 2.5777144543629866 2.387252202413504 29 29 31
1.220128701168965 2.6237090560560117 2.3923113874945225 27 27 29
1.2470656799457667 2.674367296631633 2.3979960291956486 32 32 35
1.26661896864544 2.7172233883459715 2.402595431149843 38 37 42
1.2731845691790082 2.7460493507686747 2.4052621095653737 40 39 44
1.2237172271671843 2.7133137962284826 2.399510248823231 40 39 44
1.2332750389563416 2.745499325219506 2.4026320922868907 39 39 41
1.234065462786892 2.7681196732749984 2.404441928564298 40 40 42
1.2925512229745197 2.8549809611210897 2.414986382560882 40 40 42
1.2824409884117598 2.8658291591611778 2.4151743374968335 39 38 41
1.2415803747022935 2.842267439364333 2.410693643902985 33 32 37
1.774500487022619 3.4628510350007056 2.4934884087096547 26 26 28
1.7798144023456013 3.4930134581310526 2.4961778445436162 24 24 26
1.7376283262738141 3.469610123401307 2.491623537315848 22 22 24
1.5932469434021854 3.330070055894643 2.4714151843738494 20 20 22
0.8319692483900367 2.5084925170305903 2.358190389661997 16 16 19
0.7936403688919255 2.485647575105135 2.3539295485294778 14 13 18
0.7735591763355191 2.483565190858285 2.3524658316947984 13 12 18
0.740714753285243 2.466691498725678 2.3490247654575658 12 11 17
0.7548560691381556 2.504011460724463 2.3528429194283533 12 10 17
0.6893879567347206 2.449102800402348 2.3443299360098546 12 9 16
0.9982302707912675 2.9416397242118038 2.402643328145565 12 11 14
1.139107267197991 3.1316852639535733 2.4265509923073254 12 12 14
1.1485729304726515 3.1662605365736933 2.4298526500157616 12 11 16
1.150850107300844 3.192403717981687 2.4320327484523103 14 13 18
1.0835657357143127 3.135163895840735 2.423220786861751 17 16 19
1.1373656843517415 3.223298563489547 2.433560466481914 20 20 22
1.0455080260782892 3.135955189843957 2.42081509890733 25 25 27
1.0863038368883768 3.208790336931174 2.4291223011291105 31 31 33
1.0870691063686708 3.2333544920284774 2.4310816258899077 33 33 35
1.0978925300512463 3.2702957583571806 2.4346552461669297 33 33 35
1.1160776346778043 3.31643630348326 2.439421297748187 33 33 35
1.1139260072943187 3.337832676770583 2.440945250044348 30 31 33
1.0856219124106574 3.3270635296828672 2.438273115624157 30 31 33
1.144276903807451 3.423731798500274 2.449590973746608 29 30 32
1.1250337771803105 3.424295081161691 2.4483872716048953 29 30 32
1.0891538120251791 3.4040756247484643 2.444489304310064 29 30 33
1.067869620841977 3.4018929185178677 2.4429398000221614 32 31 37
1.053831635927121 3.408715199288117 2.442560136036014 35 33 41
1.1550435247802406 3.5605143258928003 2.4609229632016607 41 38 47
1.1592582792239745 3.590828873140937 2.46355296932975 50 47 53
1.1657424979446722 3.6241559077350916 2.4665643029434934 57 54 61
1.1543365941299033 3.6349041076112663 2.466660487947383 63 61 68
1.1427128209847361 3.6453795054344833 2.466721340209727 68 68 70
1.1065297667682177 3.6244329444005925 2.4627471962811804 71 71 73
0.7348114747487118 3.172480318148857 2.4035128611162855 71 71 73
0.6591108765728633 3.0987393587061614 2.392872428961817 70 70 74
0.6256362375831837 3.0790167329178475 2.389169019781612 69 70 74
0.5556248333853036 3.0117071663825907 2.3793974085848455 68 69 73
0.5230894687954615 2.992650258355426 2.375806646223689 65 66 70
0.5266241636758267 3.020505263635538 2.3782013509834177 65 64 69
0.5673408398502096 3.0972098483468895 2.3868042483341343 62 61 66
0.5986141499659237 3.1619595896688066 2.393865534431211 61 60 65
0.5899410302733095 3.1743871236525703 2.394269438466173 60 60 63
0.6050732165228592 3.218350342917999 2.3986683015101296 59 59 61
0.970519540519482 3.7278903109786006 2.461973103382952 59 59 61
0.9061319479075318 3.667931222020952 2.453137527782704 57 57 59
0.8478438983783882 3.6156510047529915 2.4452943591611236 55 54 59
1.2031984418077468 4.118072527312965 2.507391514904849 54 53 58
1.0449033528644025 3.9321674169946985 2.482676563394276 52 51 57
0.9986848902875598 3.896360379552445 2.4768965319596803 49 49 55
0.9649705083137361 3.877191831536147 2.4732206568958053 46 47 52
1.030173488781157 3.9924072398289576 2.4864049356694955 44 45 50
0.9963063042051856 3.9730892144557663 2.4827075337577535 43 44 49
0.8758757692800119 3.8349783884230044 2.4641629818942343 43 44 49
0.84921372914819 3.8247480601171238 2.461639188532434 42 43 48
0.7930639941598876 3.7737017421578374 2.4540305708014807 42 43 48
0.780305229829837 3.782295989635969 2.4538715958110586 43 44 49
0.7223123043280404 3.728051620567131 2.44589485862637 45 44 50
0.7772696028934896 3.83079301961906 2.457445151601261 47 46 52
0.5646057187496207 3.5598774177747825 2.4225965289862255 49 48 54
0.5761408178147882 3.6016715085440847 2.4265935633976308 50 50 53
0.5869437104794777 3.6426581316979485 2.4304803546098532 53 52 58
0.6212465839677404 3.7170736087490956 2.4384894935660673 56 55 61
0.5870862125476222 3.694848974243811 2.4345471137249413 63 63 65
0.5053131200831085 3.604645836893166 2.4222331794054224 70 72 71
0.5372725313841569 3.6761602647246954 2.429864857374826 80 82 81
0.5851569163838881 3.770927113680396 2.4403366544822873 111 113 112
0.645656405105955 3.884428431363439 2.453082755029483 183 184 183
0.6925408433421665 3.9790074873149033 2.4634751277950286 203 203 203
0.7151209500793183 4.03898437770525 2.469601790493804 205 205 205
0.77264797715456 4.150093413202146 2.481969206806231 205 205 205
-0.8602715902900533 5.550811979043194 2.48500761192512 194 194 194
-0.8509625310583839 5.613576385463809 2.4904906512270983 193 193 193
-0.8683473888524458 5.611329381031627 2.4891889342377698 193 193 193
-0.8910704742255984 5.595828223740304 2.486510720607179 193 193 193
-0.8967250292110931 5.622322839002695 2.488203942361028 191 191 190
-0.8749449314739479 5.717106019365034 2.4969847196769237 191 191 189
-1.2863400204611277 4.76896501795426 2.3966025838267697 190 190 188
-1.261074379093275 4.869790209989742 2.406079051768726 191 191 190
-1.2741999029507032 4.8743840668097125 2.405585294407234 190 190 190
-1.2576677114476387 4.954216741157444 2.4128635492827857 189 189 189
-1.2391565776624682 5.039709111292235 2.420710102052496 189 189 189
-1.224472103418131 5.116068033258516 2.4275985099151383 189 189 189
-1.2147555428066297 5.180236318906871 2.433217109810305 189 189 189
-1.1681412589347477 5.340191714797664 2.448674582318448 189 189 189
-1.1229042161931 5.497896744388596 2.463867818689875 189 189 189
-1.199632879030108 5.339083268846528 2.446546867757091 189 189 189
-1.165503007158768 5.468933992380833 2.458854545045504 189 189 189
1.9205314217925293 2.730979785224462 2.4613407636579168 206 206 204
1.893432518009971 2.7255422198909662 2.459125818123115 206 206 204
1.858123896592267 2.7118403924577765 2.4557170607101253 206 205 203
1.8206171744138981 2.6957919265073707 2.4519780858587423 187 187 186
1.7834053152495792 2.6798700290768003 2.4482685370960637 121 121 123
1.7464838572797945 2.6640722130154892 2.444587923964156 91 91 94
1.7098490370756971 2.6483966504781584 2.4409358541065824 82 82 84
1.712102176752181 2.6718669552360104 2.442938620647002 75 75 77
1.7009302519925296 2.6818124931967184 2.442988358144844 67 68 70
1.6769330437565975 2.6787102883707674 2.4411622699159805 61 61 63
1.6678597932637838 2.690760000884974 2.4415165179914293 55 55 58
1.6375188317217084 2.681043519256421 2.4387499127445125 46 45 50
1.6255034288724182 2.6900309912889346 2.438668385792201 44 43 49
1.6233960569240529 2.709229127638969 2.4400463394278287 44 43 48
1.6890723843070419 2.7985995355955855 2.4514341587603172 41 41 44
1.5472853955274588 2.694547042938598 2.4338720019087545 40 40 43
1.4674618496159588 2.6325851956750297 2.4237176064405346 40 40 43
1.5525665445037666 2.7429911302807937 2.4380473708556507 40 40 42
1.1945076993761063 2.3881194743548018 2.3864201893393395 43 43 46
1.1263794843965313 2.3366865292358305 2.3778681690135963 46 45 50
1.0272691086960104 2.2520668210830284 2.364652977109811 46 45 50
1.5051393678542622 2.779472345643204 2.437805039782703 45 44 49
1.3132350640109867 2.5967810477952886 2.41072800181859 45 44 49
1.2705425065492257 2.5723023795175006 2.4059813249619717 46 45 50
1.178665086188307 2.494859123366033 2.393809648683279 47 46 51
1.1534914168154065 2.4886086252227986 2.391657314444878 42 41 46
1.1773878269325677 2.535223490194736 2.39691457795597 36 36 38
1.2113493779846918 2.5929861380841523 2.403715712000812 25 25 27
1.2486225179432964 2.6546678396597763 2.4110446548713322 30 30 32
1.2538332750187866 2.681743952567683 2.413527161104868 33 32 36
1.2657243581447961 2.716244053379106 2.4170363316027372 38 37 42
1.2240862617864632 2.692171015826517 2.412391172852438 40 41 45
1.2488912462911637 2.741028636965348 2.417885489365131 38 38 43
1.2740064846022108 2.7904906234408458 2.4234479953652768 39 39 43
1.27498243463133 2.813465417087225 2.4253274687251682 39 40 43
1.3094483228511729 2.873768418408201 2.4323625360343555 40 40 44
1.323603119485707 2.9117491194270575 2.436295837897218 37 38 41
1.294809204860059 2.9018458434109555 2.4336163975625884 32 32 36
1.6075821143716986 3.275398277425791 2.4837359541195823 28 27 30
1.785104148958204 3.4989726458654697 2.513095514382781 25 23 26
1.5568940342956048 3.2652932563162858 2.4795981362527355 22 21 24
1.3691153164330208 3.0758525145364692 2.4522596463468815 19 19 21
1.2745229489651044 2.9911329132082978 2.439334218977861 17 17 19
0.9884450219848786 2.6871520925504075 2.3964700521589646 16 15 17
0.8313504605335634 2.528846383202857 2.373612999003655 15 13 17
0.7976980721366499 2.511309186762271 2.370010336048656 14 12 17
0.7716248325294504 2.50233640941361 2.367583656221232 13 11 17
0.798912004496284 2.554985434203541 2.3735410533965324 12 9 16
0.7237687353606245 2.489014690238558 2.363378273427944 12 9 16
0.9608318831306731 2.8973461723502894 2.411257693287638 11 10 16
1.0608480175400659 3.0386882619627564 2.4290140386620704 12 11 17
1.1066118782287795 3.11623010061623 2.4381554358205264 12 11 17
1.1740071351283432 3.2201050158579276 2.450802463593203 14 13 19
1.0913868452885764 3.144550543836815 2.4393898961219476 15 14 19
1.0996852451205053 3.1779187450236113 2.442572944054711 19 19 23
1.0530605234781691 3.145080330269427 2.4369067264654443 23 22 26
1.084079366319258 3.206092456898345 2.4437707205091534 31 30 35
1.075580025619976 3.2193773657659284 2.44426036856841 34 33 37
1.0969262220048912 3.269115388519954 2.4495963702486185 33 33 37
1.1115096698436713 3.310841120841437 2.453853797308616 32 33 37
1.1204916439643267 3.3458995373830054 2.4572154199804874 32 33 37
1.1169670900460194 3.365708965960223 2.4585483029181403 32 33 37
1.1629712900829237 3.4468573599446546 2.46799047824634 30 31 33
1.1455539927529734 3.4497649347249757 2.467072705976095 28 29 31
1.1108073791702364 3.4310429395170083 2.463304345232316 28 29 31
1.0812042865895795 3.418555595948966 2.4603674342850432 29 29 32
1.0826267602949562 3.444819550255436 2.462536193231 30 30 33
1.1602148888958728 3.567019496144472 2.4773025614197923 35 34 42
1.1653302095678542 3.598492891921359 2.4801261973577056 44 43 49
1.157858903596211 3.614169290235655 2.480872519750826 51 50 55
1.1567095654408794 3.63791901501171 2.4826731994007694 57 57 61
1.1439440633385602 3.64694866191399 2.482545586297552 66 65 69
1.119028263192487 3.6404245858485647 2.480388626437313 70 70 72
0.7853515456502362 3.237368132552539 2.4265608469596307 71 71 73
0.7043399438558655 3.15700563411595 2.414874394575873 71 70 74
0.6509026414990691 3.111676409108883 2.4077724837238557 70 70 74
0.5835214094852539 3.047889426928695 2.39829361773176 68 69 73
0.506508595432507 2.971069997182596 2.387150542875995 66 67 71
0.5126710933563607 3.002283110663277 2.3900226050794 64 65 69
0.5711087087046025 3.1021461813423126 2.4017625178803153 62 63 67
0.6140918928335541 3.182309154497846 2.4109278063000477 61 62 66
0.6180538446530504 3.2114757810183443 2.413493204112561 61 61 65
0.6371817042179968 3.2608553107848337 2.4186547330887223 60 59 63
0.99093936658964 3.7550139834987166 2.4810032284310366 59 58 62
1.0850374196540669 3.906392545614726 2.4991626311353032 57 56 60
1.077231114808505 3.9224466364537416 2.499916723480479 54 55 60
1.0506240318662587 3.913309478671803 2.4974418855729414 53 53 58
1.029569309533873 3.991584201220088 2.502239023250943 44 45 50
0.975076469986397 3.944103810715199 2.494897613476198 42 43 48
0.9281835017282491 3.9066374997539977 2.488848085776795 41 42 47
0.8763018693473386 3.8619850163544123 2.4819021335578513 42 43 48
0.8304055004222657 3.82521111180265 2.475972969258972 41 42 47
0.792127492896538 3.798659439512468 2.471353350782704 42 43 48
0.731037198323996 3.740169437274108 2.4627074461606155 44 44 50
0.6947335137774042 3.715753670126619 2.458386652658756 46 46 52
0.6584608748853948 3.691144307297792 2.454052609051833 48 48 53
0.6381915556749396 3.688756848259395 2.4525285928719787 50 49 55
0.4032419825482709 3.3839431157140503 2.412967074046968 52 51 57
0.4819659229649129 3.520237377357874 2.428921825425282 56 55 61
0.47555042016486615 3.5366747773145124 2.429797831226061 63 63 67
0.5094579274065003 3.6105432486455467 2.4378678817354174 68 70 71
0.5339018536846756 3.671345894656876 2.4442821545952094 85 86 88
0.5846147581201782 3.7701492335452196 2.4554294190875985 130 132 133
0.6407454903772398 3.8773655538412504 2.4675983092119456 193 193 194
0.6878010974141802 3.9721669443883494 2.4781884395248186 204 204 204
0.7186756662216316 4.044130832333798 2.485908197126154 205 205 205
0.795876985809943 4.1838471232504935 2.502032999886148 206 206 206
-0.8353924257053911 5.571266643395324 2.504177418197543 199 197 198
-0.8632816834131969 5.5434918781801645 2.500145601339936 198 197 197
-0.8581311100862807 5.596070672693032 2.5046390395497853 198 197 195
-0.9091078057561983 5.511371987075672 2.494588765903119 197 196 194
-0.916677439385083 5.532762253121996 2.4957800472819907 196 195 194
-0.9290902690762137 5.542270190659959 2.495713457485118 195 194 193
-0.9405578410476685 5.55412069477093 2.4958942232193246 194 193 193
-0.9765831494984178 5.504720719943133 2.4896178359617736 193 192 192
-1.267385799666114 4.816454259065271 2.4160810376033965 193 192 192
-1.2241310880528031 4.962752598066205 2.4304893889891224 192 191 192
-1.2321223165593975 4.98072607673073 2.431382943711067 191 190 191
-1.208536766237342 5.078925114636278 2.4406952512729627 191 190 190
-1.1929603089391465 5.157479769779447 2.4479278524066492 190 189 190
-1.1656836450541848 5.266596034447215 2.4583458792419095 190 190 190
-1.131942488662228 5.393208717202169 2.470572145849 189 189 189
-1.0973236121625014 5.5231146608232455 2.483116430205364 190 190 190
-1.0583317806349006 5.665422057169186 2.4969286197541094 190 190 190
-1.0229393794290078 5.799516840856734 2.5098548144855446 190 190 190
-0.9992357442294857 5.904113666687425 2.5196803734521582 189 189 189
-0.8967582792483015 6.216638908275231 2.5511235889313366 190 190 190
-0.9016108208028686 6.248428924996486 2.5533155344292204 189 189 189
-0.9293949455096406 6.264407352299944 2.552747463875738 190 190 190
1.6073606479548475 2.42154954285602 2.430824032002876 206 206 204
1.6167872183226604 2.4513081653091624 2.4338437568787943 206 206 204
1.845203909935356 2.6989903105333135 2.4690147855439273 207 206 204
1.8087362941726666 2.6839366391493513 2.4653654004030408 186 185 184
1.7783240961273648 2.6747826698909716 2.462594916902391 122 122 124
1.7426755438663242 2.660246609210634 2.459041906001777 91 92 94
1.707911940405263 2.6464439604351675 2.4556070019699585 80 80 82
1.6977661886035367 2.657373967589491 2.4558052381005875 74 74 76
1.6943842283160704 2.675172635854006 2.4570075709156427 66 66 68
1.6650836173987564 2.666652376788309 2.4543623615654697 57 57 59
1.6510982890355754 2.673648087432436 2.4539877811947086 49 49 52
1.6207814772536502 2.663900274906178 2.451176014372343 44 43 49
1.6160105666815436 2.6802756693496397 2.4521711285488546 44 43 49
1.6153059972730115 2.7008880028537856 2.453778531374683 43 42 47
1.6813193231195935 2.79057960268029 2.4653968367164922 41 41 43
1.5280757589037515 2.674546907746403 2.4458252209802 40 40 42
1.4680172737422703 2.6331644733345727 2.4384833179021514 39 39 41
1.5565903818684403 2.7472070387417635 2.453566364741576 39 39 41
1.1617804084451329 2.35370922324205 2.395552825851896 43 42 45
1.100953621475285 2.309865117542409 2.387961895446033 45 44 49
1.0062314080419865 2.229801316611678 2.375194744132378 45 44 49
1.5205737033222593 2.7958597023590825 2.455060909301026 45 44 49
1.3168181060803086 2.6005971925132174 2.4257483656684897 45 44 49
1.2583460583317791 2.5592658753879487 2.418516756521305 46 45 50
1.158422870272258 2.473152003882714 2.4049158269119792 45 44 49
1.1558894929794734 2.4911877696703755 2.4061939929413345 38 37 42
1.1779597351088733 2.535839956205121 2.411255557400861 29 29 31
1.2231962884897518 2.6058150787022862 2.4199004829832136 23 23 25
1.2555986615120676 2.6622468222345326 2.4265991971499417 28 28 30
1.2715839365067858 2.701093525518258 2.4307874450371503 32 32 35
1.2614607146244623 2.7115799229750768 2.4309515804288817 38 37 42
1.231643875545596 2.7004634011293955 2.428063412962719 38 38 43
1.2826719765393348 2.778219157337933 2.437720561119468 37 38 42
1.3145681838319043 2.835294406843318 2.444437048884832 37 38 42
1.2921109138455804 2.8324473282187377 2.44270529903985 38 39 43
1.3234546015722861 2.8893414877303356 2.4493702668259965 38 39 43
1.3366536519880956 2.9263075131715013 2.4532210512000403 37 38 42
1.3050803862048903 2.9133415293114897 2.450066857095294 32 32 36
1.6226886750951333 3.2923622193499833 2.5017506907373774 28 28 30
1.5816776524553018 3.269763219848018 2.497191517431104 25 23 26
1.551634267452795 3.259346270677405 2.494344340868393 21 21 23
1.3815711269784887 3.089979337243338 2.4693657088696805 18 18 20
1.2251268448663701 2.93491946146864 2.446447112903127 16 16 18
1.2353636990341852 2.969077220353409 2.4498741967207813 15 14 16
0.9191065053650275 2.6293764409554923 2.401437033463914 15 13 16
0.825903505064023 2.543727182520313 2.3883232250971704 15 13 17
0.812321436574243 2.54926720560439 2.3878587886600324 13 11 17
0.8844553714072279 2.65396231752149 2.4010911275781233 12 9 16
1.0587665226605725 3.036213902902706 2.4434424849035095 12 11 17
1.1193580775405003 3.131426284013633 2.455141031773357 12 11 17
1.1676235507909007 3.2124675568528724 2.4648769894197495 14 13 19
1.1119478399443277 3.1692286815062776 2.457679436702372 15 14 19
1.0969456661034735 3.174618527435033 2.457107888441201 17 16 21
1.0548531484951271 3.1472455333362968 2.4520931121530785 21 20 25
1.1024092951236866 3.2283148294207953 2.4617838393345277 30 29 34
1.0805795783187362 3.2254582842515926 2.460093335876393 34 33 38
1.102341943257389 3.2757247017946707 2.4655849497565026 35 35 39
1.1226752644182074 3.3245143554744288 2.470862367598635 34 35 39
1.116775010458205 3.341331635496267 2.471817357795056 34 35 40
1.1284828102829008 3.3799060879618366 2.4756974323312537 37 38 42
1.17356932087597 3.459967053285478 2.4851419111785265 32 33 36
1.1574154762683417 3.46448709786271 2.4844234545265516 29 30 32
1.1512950392815087 3.4814670095662326 2.485376760963338 27 28 30
1.0655497703355696 3.3989920449389763 2.473016950183524 26 27 29
1.080698646446724 3.442401004414924 2.4775154274039597 25 26 28
1.16406080511027 3.5718571094541303 2.4934869250563994 30 29 35
1.1781604673139348 3.614688372012953 2.497868799396277 37 36 42
1.1530168437273254 3.6080351942877606 2.4956517163486684 47 46 51
1.1387767571949579 3.6151267464792856 2.4952677765921263 53 52 57
1.144127324277407 3.647181394267422 2.498198971016928 61 60 65
1.0777055240277007 3.5875486007548596 2.4889661620973538 67 67 71
0.8289768640812856 3.293378036371111 2.448703866342774 71 71 73
0.7792683405246681 3.2535325925560175 2.4421781295863005 71 70 74
0.720751856633284 3.2019659555444315 2.434121950804394 70 69 74
0.6624505342721958 3.1502632357204403 2.42606925075382 68 69 73
0.31760970343450445 2.725224375544884 2.3688686575708693 66 67 71
0.377486267969539 2.825744826245966 2.3809454273340998 64 65 69
0.4517879542554333 2.945793388861459 2.395555298792392 63 64 68
0.5483628205607534 3.0958862796654247 2.4140677371809325 62 63 67
0.6268124201651151 3.2230301622771096 2.429524801392868 62 61 66
0.8982378117050549 3.631873056202266 2.4805111553102823 59 58 63
1.081373808824438 3.901508341699169 2.5144134402076985 56 55 60
1.0664043227891382 3.9079652241210265 2.513929731612458 54 55 60
1.1430740415169178 4.037380726153699 2.52945000090768 53 54 59
0.8887288326985612 3.8790673168085776 2.499717087353913 40 41 46
0.7942256663955969 3.7753022544940062 2.4850620839243276 41 42 47
0.7638071056680271 3.7594572801762056 2.4817540835613676 42 43 48
0.7242650388389131 3.7307620168831237 2.4768038864228856 43 44 49
0.701077207827763 3.7245945138112977 2.4747567028613737 45 46 51
0.652260244010644 3.682471013892992 2.4681077831546863 47 48 53
0.4686622151370392 3.4508267456868422 2.437224133038048 49 49 54
0.48399435593640994 3.49766879155518 2.442010453264274 53 52 57
0.478682466804073 3.515596171084116 2.4430939349472314 58 57 61
0.49740660054571295 3.567668933914794 2.448527176394957 65 65 67
0.5132753659964693 3.6159747898036616 2.453466917350421 73 74 75
0.5400211059966964 3.6800833912871886 2.4604032217390595 100 102 102
0.5909983132182823 3.7792959152663688 2.471779310783928 158 160 160
0.6548716033848854 3.8976779285370204 2.485557366023491 200 200 200
0.7205933632833066 4.019485864834547 2.4997341524138648 205 205 205
0.7843143274194384 4.139178746209273 2.5136072356322865 205 205 205
0.8171116628341 4.214702806003138 2.521864938847277 206 206 206
-0.8279459899033919 5.589294393513493 2.5220896703251663 202 200 201
-0.8388317117226212 5.602939877965014 2.5224563483656484 201 199 200
-0.8640868913201754 5.58152642345562 2.5190469819195376 201 200 198
-0.918464397451356 5.4884257789358095 2.507933892658491 200 199 197
-0.919296908687893 5.526309856932313 2.5109191447239456 199 198 196
-0.9406586222349409 5.513656112836397 2.508473540809494 198 197 196
-0.9660601522231675 5.490771140243597 2.504936258532778 198 196 197
-1.187991407662049 5.015377974210626 2.451920843443925 196 194 195
-1.2199273773854635 4.973329640778189 2.4464079136307846 195 193 194
-1.2413610025158257 4.957375950920242 2.443692607585822 194 192 193
-1.2215694895846474 5.045842932812073 2.452118681426468 194 192 193
-1.145520403228995 5.278420899625484 2.475878320269857 193 192 192
-1.070443305582875 5.5104598199619685 2.499529627918234 191 191 191
-1.0556878435157566 5.589314550219569 2.506847024500161 191 191 191
-1.0263413138250357 5.706462860681349 2.518214945958195 191 191 191
-1.0023457685835213 5.81067074536504 2.5281859550530745 191 191 191
-0.9795353575481895 5.912619486072721 2.5378962924675705 191 191 191
-0.9040658770808956 6.153205962096578 2.56225998227726 191 191 191
1.5920135688625716 2.406384956116457 2.443107062156397 206 206 204
1.6011679304534363 2.4358242046856513 2.4461297729061333 206 206 204
1.618420781752215 2.473449122374134 2.4503705168540226 206 205 203
1.6427429580474704 2.518312516335646 2.4556820918327387 188 187 186
1.6876228710714687 2.5839868984417906 2.4640882070306422 121 121 123
1.6979042680669378 2.615281640865078 2.467338831614298 95 96 98
1.689836275531368 2.628230179444521 2.467846026994584 81 81 83
1.6848295535654376 2.644295574944167 2.4688154904424837 73 73 75
1.677075277827055 2.65761703718873 2.46937442163534 65 65 67
1.6500799813084321 2.6513849988344553 2.4670308651837396 55 55 57
1.6396122504575148 2.6619216504130807 2.4671782496232857 48 48 51
1.6252510223134569 2.66847708644863 2.466736307614153 44 43 49
1.6233417713897313 2.6878079952286855 2.468182620969047 44 43 48
1.608979803101964 2.694365291059866 2.467740780273345 42 41 46
1.618222996183379 2.725317847850903 2.4708929167232907 40 40 42
1.5476333763248664 2.69490755726208 2.463613996065297 38 38 40
1.4492418519914883 2.6135522296892058 2.4502910503936075 39 39 41
1.523576907882473 2.7126095332532616 2.4634216874025086 38 38 40
1.1255281163257718 2.3155928025772177 2.403987666285922 40 40 42
1.0654566268189067 2.2724201390210195 2.396383316078696 41 40 45
0.9774181246854838 2.1993067410640514 2.384436278384034 43 42 47
1.2340402964441113 2.512413215755269 2.427413046625377 44 43 48
1.2469196871948593 2.547052437952813 2.4311129996664076 44 43 48
1.1519233108363374 2.466181505395638 2.4180603877102658 41 40 45
1.1503844053451922 2.485264216576949 2.419511644649502 38 37 42
1.1842032000596312 2.542578336420521 2.4264840596695647 33 33 35
1.2252551079521516 2.608043846030884 2.4346128752489506 23 23 25
1.2699426322285525 2.677831233786576 2.443341259289436 30 30 32
1.2938109502762944 2.72532287767071 2.4488362675981894 31 31 34
1.2675766559172907 2.7182682038841284 2.4464773796489268 36 35 40
1.2411728350194915 2.7109190168553394 2.4440829526191634 38 38 42
1.2958924839395527 2.792773586621869 2.4544773143985306 37 38 42
1.3267466638151668 2.848745928003412 2.4611387621847314 37 38 42
1.5407288747570629 3.107979594096559 2.4968239402306533 37 38 42
1.578543955011196 3.1729813684817367 2.5046948709068277 38 39 43
1.326016172147264 2.914439345190276 2.4664453380122793 36 38 42
1.6191600948160807 3.2648915079698524 2.5149501928808475 30 33 36
1.6161778586950994 3.285049530834356 2.5163909908954576 26 27 29
1.5963837649643753 3.2863322156139265 2.5151497554539715 23 23 25
1.5513999064501713 3.2590803890727438 2.5098693149358002 19 19 21
1.3727308053551206 3.0799514719640904 2.4831163613068523 17 17 19
1.3515288188479182 3.078763429044924 2.481577953858343 15 15 17
1.2684562713908125 3.0068606419813397 2.4700672616389174 15 14 17
0.960786830282988 2.6771234074907917 2.422263773595719 15 13 16
0.8388971520983239 2.5586610092901645 2.4043176824908694 14 12 17
0.9242488860498104 2.678341931962475 2.4198788778467315 13 11 17
0.8872746065225242 2.6572234486871693 2.4156430912127496 12 9 16
1.0827583963819527 3.06472272711742 2.462159223725667 11 10 16
1.1048723006032242 3.114154205420716 2.4676931102284945 12 11 17
1.1561841093083278 3.1987818959335863 2.478081873403741 13 12 18
1.1409976157826907 3.2040957675349637 2.4774825912483904 14 13 19
1.0982221660605784 3.176154909735123 2.4722961229511853 16 15 21
1.0630410384082514 3.1571384455821634 2.4683536401679493 20 19 25
1.1246180547494533 3.255239908501105 2.4805389134442866 28 27 32
1.1011447995219223 3.2504744742633935 2.478554401665814 34 33 38
1.1080465756873803 3.2826866482216386 2.4816500446684686 34 35 39
1.1390767335756267 3.34459980342876 2.4888078352631666 34 35 39
1.1441965602816913 3.3750260472441003 2.4916367080544144 34 35 40
1.1566167057143981 3.4145922262639905 2.495707150765408 34 35 39
1.1224076742460476 3.396674918763822 2.4919203802169534 32 33 35
1.1865507445534555 3.5006504048002176 2.5047590539508304 29 30 32
1.1513071395402918 3.481481128264976 2.5007998638827393 26 27 29
1.0509817292938972 3.380786208574219 2.4857685986288907 24 25 27
1.0874691559294503 3.4508893838367474 2.493965198243523 24 25 27
1.1502253729382876 3.554449696637965 2.5066757279003387 26 26 30
1.169294060620875 3.6034947823241485 2.5119710633534282 31 30 35
1.1541348916115213 3.60945038970556 2.5114259622571966 39 38 45
1.1385775093285821 3.6148725518069527 2.510810292400535 48 47 53
0.8059255982207427 3.215893435664734 2.455662661478632 54 53 59
0.8200237924143081 3.257827861636696 2.460040288680509 62 61 66
0.823808978260707 3.2867420347866796 2.462655133003906 67 66 71
0.7776453138573431 3.251440783469134 2.456638175199 69 68 73
0.7029495954853633 3.1789529938013015 2.4456493333657736 70 69 74
0.6634809473183061 3.151598827117681 2.4407355326369142 68 69 73
0.425278002614762 2.8653497194680413 2.4012008905130173 65 66 70
0.39261535119717594 2.8455009834970655 2.3973617827418336 64 65 69
0.43881475690436966 2.9287930940900955 2.4072940540760723 63 64 68
0.5054357787115862 3.0394440140821057 2.420845480280226 62 63 67
0.5771841647319482 3.157554143098859 2.4353536991092746 62 62 66
0.6209471222363456 3.239361818694982 2.44499928237379 61 60 65
0.9030172589589318 3.6382208663287448 2.496698024481804 59 58 63
1.0595134053010324 3.872369723289296 2.5264294115139068 57 56 61
1.071617800463651 3.9149370543908715 2.5307230818165247 55 56 61
1.111115463841587 3.9944898140081966 2.5398948118308495 53 54 59
0.8993155590560948 3.8936198486530804 2.517270025866658 41 42 47
0.7722088047391475 3.744930365752997 2.4965046881226396 41 42 47
0.7570852820183649 3.7501519386396955 2.4959021619303745 41 42 47
0.7422202361956673 3.755700616668541 2.4953438799772156 43 44 49
0.6420991672279044 3.642390284388136 2.4792979238763264 44 45 50
0.5734929630747319 3.5723044771732053 2.4689189565234786 46 47 52
0.5071068776281513 3.504781695836535 2.4588999105637264 48 49 53
0.5283478377076485 3.560132521197706 2.464857072468814 52 53 56
0.5299587065566547 3.588060212872585 2.4672436513612848 61 62 64
0.49719556313911895 3.567368711986779 2.4633289971138996 71 73 74
0.5153387672993359 3.618910209539041 2.468764950406278 89 91 90
0.550700312533164 3.6953326174225642 2.47740023223949 120 122 121
0.6053785124473998 3.7999018008838514 2.48964378762829 182 184 183
0.6647671449573342 3.9119067361106854 2.50281387553346 203 203 203
0.725255436826409 4.026212334815537 2.5162463123809853 206 206 206
0.7880676700194684 4.144612810387298 2.5301706274463482 205 205 205
0.7536341533807347 4.122460863678571 2.526023327170091 206 206 206
-1.0759811993466843 4.768318025401162 2.4542854501408056 206 206 206
-1.088101951031315 4.775755046160746 2.45406771915784 206 204 205
-1.1137678491084204 4.75093063576858 2.4502986404774205 206 204 205
-0.8632056763855807 5.543674341208869 2.5319700933314646 204 202 203
-0.8806560811604647 5.541065926803226 2.530570950739886 204 203 201
-0.887822658281296 5.563566910910556 2.5319182825860804 203 202 200
-0.934973090793318 5.487701420318136 2.5225268716347347 202 201 199
-0.9151283490760953 5.576800936174614 2.5311407668590014 202 200 200
-0.9745359884392615 5.469715785765976 2.518370516061023 201 199 200
-1.064435641674668 5.285549164189497 2.4972423311125453 200 198 199
-1.190716460371654 5.008549172373396 2.466071489172887 200 198 199
-1.2059913482144802 5.008396918164918 2.4650205222815234 199 197 198
-1.0771688460549926 5.4932377578503875 2.5133102570202457 194 194 194
-1.1152221334512777 5.436206770644207 2.506073020049954 193 193 193
-1.191047942109833 5.28101962147913 2.4882645384516136 193 193 193
-0.9248372202237354 6.231669566975275 2.583874666479453 190 190 190
-0.9297368467910445 6.263493905878098 2.586136300053871 190 190 190
-1.7448192756655962 4.345012425502123 2.374296793438411 190 190 190
-1.7260138669163463 4.4341122832743896 2.3828400513813404 190 190 190
1.5947663896441144 2.4091040299624304 2.458049846243799 206 206 205
1.5772609997216582 2.412124869961254 2.4570913011081648 207 207 205
1.6057187844216707 2.4608158713969592 2.4630876552471355 208 207 206
1.6257445374824502 2.5013511273144364 2.4678265449772696 193 193 192
1.673484639511623 2.569833190709193 2.4767928956337757 129 129 130
1.6820808443107902 2.599389194146785 2.479833578281979 101 102 104
1.6904041829742513 2.6288015143427135 2.4828435242646396 84 84 86
1.6887780501811318 2.648286181852196 2.4843445248931912 74 74 76
1.6142797080349003 2.593928993173096 2.4747001483186644 64 64 66
1.5780940085837005 2.578136998722751 2.470894166954586 53 53 55
1.5654519278077352 2.5862140320795612 2.470690048766356 47 47 50
1.5479509707598869 2.589305700444951 2.4697376740944623 45 44 50
1.5681468933113196 2.631091371888388 2.4745918441928234 42 42 47
1.5884721000838953 2.6732225295010155 2.479483546051541 41 40 44
1.5540000738919793 2.658890867559936 2.475916797071608 40 40 42
1.5994620176994523 2.727350050191708 2.4847239574665276 39 39 41
1.529308500292998 2.6758285559372093 2.475614357757085 38 38 40
1.4363133443631382 2.600047229239457 2.4629190056471257 38 38 40
1.1807943597853015 2.353388221825945 2.424853964902872 38 38 40
1.1070042261674038 2.296115994399662 2.4150171294562424 40 40 42
1.0343551902165173 2.2396118422080766 2.405322675810204 40 39 44
0.8967166608398143 2.1138977324723682 2.3854106168872926 42 41 46
1.1997387952165708 2.475871013913024 2.436303226950351 44 43 48
1.1531178434633393 2.4467955974302735 2.4306769108845123 43 43 47
1.1454862858102444 2.459278066083396 2.431183503066866 39 38 43
1.1493773914279566 2.484179961470586 2.4335139739646063 35 34 38
1.1868110020060274 2.54539235763472 2.4411668026972038 27 27 29
1.2454792267945227 2.6299450117984704 2.452218288329802 22 22 24
1.2752609347713593 2.6836089026481686 2.4587177946166636 31 31 33
1.3120495204530558 2.7452043210692096 2.4663578006988756 34 34 37
1.2743889502518324 2.7257181015394982 2.462144114907431 36 35 40
1.2351129923036752 2.704268446424205 2.457656327310741 36 36 41
1.3241745745830307 2.823910282412118 2.4737116155181305 36 37 41
1.5368351826001376 3.080809865222485 2.509665384492261 37 37 41
1.553886325140851 3.122560531969759 2.514299524461171 38 38 43
1.590581546597218 3.1863653573388118 2.5221160170534627 38 39 43
1.6054858387748847 3.226217257277155 2.5264447146942195 34 36 40
1.6242474528655628 3.2705848657140013 2.531413630064327 29 33 35
1.6207701559658076 3.290205799205777 2.5327980992235375 25 27 29
1.61115827800133 3.302978276454265 2.533191971794086 20 21 23
1.5387518438532033 3.2447811133307822 2.5233740919492824 18 18 20
1.3652658927382597 3.0714836375060552 2.49704716940218 16 16 18
1.357537101900143 3.085599910011976 2.497682322598283 15 15 17
1.3456810839018267 3.095033203664546 2.497644772885995 14 14 16
0.9724781016994872 2.690515739443042 2.4383839729389885 14 13 16
0.8324415499756854 2.5512402085691757 2.417183493569206 14 12 16
0.9325014295740476 2.6878579646556133 2.435403720760911 13 11 16
1.006605346209997 2.9742285831703135 2.464230942154194 12 11 17
1.1213985576483338 3.1338572880310553 2.4853736782661078 12 11 17
1.1198617284193133 3.1553293627716275 2.4870453967614012 12 11 17
1.1105758747284051 3.1675800973593753 2.4874185808632023 14 13 19
1.108678623870011 3.1887467936912377 2.4890401294919777 17 16 22
1.0711778541869441 3.1669696398827574 2.4846477940546587 19 18 24
1.0455931158785892 3.1594287936981735 2.4822569302689304 25 24 30
1.1192730032614562 3.2725260831472376 2.4967083163347334 32 31 36
1.1279894386780596 3.3070272768748676 2.5001667485678456 33 33 38
1.1397567073445245 3.3454316097939287 2.504158995327506 34 35 39
1.1559731665617046 3.38949609039513 2.508927081917903 34 35 39
1.1616978414048456 3.4208559572485275 2.5119188542849447 32 33 37
1.1668379594606706 3.451637904199013 2.5148224156468504 31 32 34
1.166429369113087 3.4756737236345874 2.5167843046303084 30 31 33
1.1455581739935605 3.4743201779897186 2.5152311797613898 27 28 30
1.0228872688957058 3.3456771414067106 2.4961100556992037 24 25 27
1.0556939082365009 3.411046479443627 2.503787597894258 24 25 27
1.1237949169992574 3.521196405191697 2.5176097557374986 25 25 27
1.1440190576000808 3.5715875939778403 2.5231783874761247 23 23 27
0.7853537998677615 3.14233790948725 2.4628735867734526 29 29 34
0.7770363644343339 3.155379095717961 2.4633790827039945 39 38 46
0.781761530624544 3.1850776398864244 2.4661642908584605 47 46 53
0.7918274722200969 3.221748005894522 2.4698955014977884 53 53 58
0.7869679583044058 3.2394407111455186 2.4710248832339206 61 61 65
0.753685180794974 3.220572801155244 2.467164657175783 67 66 71
0.6652649488550797 3.1302391201909168 2.453580286253177 68 67 72
0.6293430427258189 3.1073195080600207 2.4492023712739557 66 67 71
0.4205817487141552 2.8592368605966745 2.4142478492094113 65 65 70
0.3227252260115052 2.7542308695250033 2.3987971209061536 64 65 69
0.36167443072441974 2.827711455934676 2.40757036670526 63 63 68
0.5029069865217095 3.0361182206128023 2.434577301617713 62 62 67
0.5564194474487028 3.1301581237801948 2.446058325006727 62 62 66
0.5938624737683245 3.203505709481486 2.454716564383778 61 60 65
0.6528333847491179 3.3058886701440247 2.4672652496877214 60 59 64
0.7550256062502083 3.4665184912259646 2.487620838131715 58 58 63
0.830211543858838 3.59206459138204 2.503206937183952 56 56 62
0.8637907670565017 3.662567571482876 2.5113628740890532 54 55 60
1.0490349824050094 3.9377272973267177 2.5469355638141997 53 53 59
1.147797838003639 4.097849109828404 2.5670123094214876 50 51 56
1.2246306618400529 4.229266179981873 2.583198218268169 47 48 53
1.2367088271501918 4.273411784685217 2.5876872925512133 44 45 50
1.192760933801784 4.241298255219349 2.581993990775234 43 44 49
0.8237793842204921 3.7897796868859785 2.5191330973299726 41 42 47
0.7500398991224257 3.7143487494435936 2.507796267349582 41 42 47
0.7312147450577342 3.7143408864575935 2.5064958305578213 42 43 48
0.6980699020703562 3.694375343333813 2.5025542471866453 44 44 50
0.6266512959317929 3.62085817634442 2.491536117627273 46 47 53
0.5602316219489751 3.553755944300001 2.481394279218067 47 47 54
0.5029810148305174 3.498990242438551 2.472906951477935 49 50 54
0.5199117338822694 3.5482507012716864 2.478154567051351 60 61 63
0.5008015178602119 3.5468535409336908 2.4767194180870296 70 71 72
0.52191077924276 3.60241736483594 2.4827774431837564 85 87 86
0.5165779691409766 3.6206727341162983 2.483920733153502 103 105 102
0.5718214080966908 3.7254931234506383 2.4964138669918405 147 149 146
0.6399721775980995 3.8494736126219897 2.511384593431273 198 199 196
0.6793890126083044 3.932931996367842 2.521016261192792 205 205 205
0.7409445645585631 4.048851064061118 2.534864156117164 206 206 206
0.8037455409497227 4.1673143364582845 2.549008694767432 205 205 205
0.7650432241018807 4.139038688377647 2.5439953407469615 206 206 206
-1.075368758793928 4.769762685112423 2.4691460259411118 207 207 207
-1.0884769518567092 4.7748650163392865 2.4686634277481745 208 206 207
-1.0945450144655506 4.796690236550479 2.4700515259936746 208 206 207
-1.1151623652514053 4.783838873294009 2.467563939967845 208 206 207
-0.8205191242537131 5.567336319496627 2.5527790769902925 208 206 207
-0.8400282630758453 5.560039069243112 2.550827873015331 207 206 206
-0.8583453698260612 5.555490815432547 2.5491865824780335 207 205 206
-0.8958987384931598 5.503844620685216 2.542317540365847 206 206 204
-0.913280619768543 5.501135548209163 2.5408931018090337 206 205 203
-0.9345913252708522 5.488640464637285 2.5383871419807886 205 204 203
-0.9585611868578514 5.469373983455945 2.535136927078977 204 203 203
-1.544131530913864 4.123057254795697 2.383234783302752 203 202 203
-1.5463821434845146 4.151842428729384 2.3854627231430667 202 201 202
-1.5656067483736507 4.1379045564006045 2.382981339497107 201 200 201
-1.5565357237957653 4.1955935166529255 2.388384138100677 201 200 200
-1.100268683040949 5.434088973739781 2.5224312080706426 198 198 198
-1.1238308782073054 5.414066172418577 2.519146519320854 197 197 197
-1.1501266884052694 5.386719257658452 2.51506667110733 197 197 197
-0.9390469358776432 6.19397872600822 2.5964795842727924 193 193 193
-0.9350698166260898 6.2492844611934615 2.6013333488493657 193 193 192
1.6172258384779745 2.472258996070098 2.4794670077221723 206 206 206
1.63207635738928 2.507667958708709 2.4834845195708675 201 201 201
1.659711150896165 2.5560446063225255 2.489488273358537 144 144 144
1.6585763151892952 2.5757825705649524 2.4910679071874564 105 105 106
1.5090952606662085 2.4461152688669383 2.4696894570512886 87 87 89
1.5738790673235308 2.532135179484826 2.4814616513329533 80 80 82
1.5899287273579834 2.5692313966236084 2.485705053936487 70 70 72
1.5706207678097799 2.5705319584236226 2.484460902750676 56 56 58
1.5531370760145977 2.57364151446034 2.483496696863467 49 48 54
1.5477954130128893 2.5891455039594966 2.484425523974808 44 45 51
1.5346896879071823 2.5967114006562944 2.484142813794372 42 43 44
1.5536730201260833 2.6373464585556037 2.488889342270507 41 41 43
1.5397460060450983 2.6441469341484884 2.4884847184313332 40 40 42
1.5283501250361544 2.653556450001174 2.4884768431066076 39 39 41
