ply
format ascii 1.0
element vertex 886
property float x
property float y
property float z
property float nx
property float ny
property float nz
property uchar diffuse_red
property uchar diffuse_green
property uchar diffuse_blue
property uchar class
property uchar detection
end_header
0.8528 2.2573 0.5678 0.897 -0.104 -0.430 27 25 31 0 0
1.6031 2.9852 0.3518 0.365 -0.867 -0.339 16 16 18 0 0
1.4081 2.4941 0.4365 0.994 0.111 0.005 34 33 37 0 0
0.8551 2.2590 0.5823 0.857 -0.035 -0.514 24 21 28 0 0
0.8324 2.2542 0.5879 0.963 -0.224 -0.150 27 25 32 0 0
1.6167 2.9965 0.3624 0.279 -0.958 -0.069 15 15 17 0 0
1.5995 2.9911 0.3668 0.279 -0.958 -0.069 16 16 18 0 0
1.5933 2.9784 0.3693 0.917 -0.282 -0.281 20 20 22 0 0
1.5899 2.9637 0.3712 0.943 -0.282 -0.178 23 23 25 0 0
1.5783 2.9546 0.3746 0.992 0.122 -0.028 25 25 27 0 0
1.4333 2.6132 0.4356 0.966 -0.246 0.078 33 33 35 0 0
1.4278 2.5837 0.4393 0.963 -0.258 0.075 35 35 37 0 0
1.4112 2.5773 0.4436 0.732 -0.661 0.167 35 35 37 0 0
1.4143 2.5098 0.4484 0.905 0.181 -0.386 34 34 36 0 0
1.4146 2.4933 0.4496 0.918 0.054 -0.393 35 34 38 0 0
1.3260 2.4964 0.4698 0.891 -0.072 0.449 37 36 41 0 0
1.2325 2.3375 0.5042 0.442 -0.832 0.334 30 30 32 0 0
0.8501 2.2645 0.5983 0.693 -0.031 -0.720 23 21 26 0 0
0.8259 2.2605 0.6042 0.893 -0.237 -0.382 25 22 29 0 0
0.8127 2.2507 0.6081 0.978 -0.207 -0.041 29 26 33 0 0
1.6203 2.9975 0.3762 0.553 -0.796 -0.248 15 15 17 0 0
1.6120 2.9861 0.3790 0.628 -0.663 -0.407 15 15 17 0 0
1.6067 2.9728 0.3813 0.746 -0.517 -0.420 19 19 21 0 0
1.5946 2.9641 0.3848 0.660 -0.672 -0.335 23 23 25 0 0
1.4166 2.5771 0.4571 0.829 -0.544 -0.128 34 34 36 0 0
1.1986 2.3267 0.5277 0.551 -0.644 0.531 40 40 42 0 0
1.1719 2.3088 0.5353 0.649 -0.598 0.471 44 44 46 0 0
0.8367 2.2577 0.6173 0.345 -0.704 -0.621 23 21 26 0 0
0.8137 2.2530 0.6230 0.520 -0.707 -0.479 26 24 29 0 0
1.6219 2.9829 0.3916 0.783 -0.332 -0.526 15 15 17 0 0
1.6196 2.9676 0.3934 0.797 -0.149 -0.585 19 19 21 0 0
1.5949 2.9673 0.3992 0.245 -0.832 -0.497 24 24 26 0 0
1.3674 2.9643 0.4526 0.714 0.661 -0.231 18 17 21 0 0
1.1883 2.3354 0.5442 0.773 -0.516 0.369 43 43 46 0 0
0.8877 2.2837 0.6186 0.693 0.306 0.653 19 19 20 0 0
0.8085 2.2586 0.6391 0.689 -0.551 -0.470 22 21 25 0 0
1.6367 3.0103 0.4007 0.784 -0.553 -0.282 16 16 18 0 0
1.6240 3.0020 0.4043 0.891 -0.297 -0.344 16 16 18 0 0
1.6174 2.9725 0.4082 0.911 0.169 -0.377 23 23 25 0 0
1.6054 2.9637 0.4117 0.489 -0.839 -0.238 25 25 27 0 0
1.3004 2.4385 0.5246 0.632 -0.579 -0.515 32 31 36 0 0
0.7942 2.2355 0.6596 0.902 -0.354 -0.248 29 28 33 0 0
1.5587 3.7048 0.3800 -0.148 -0.915 0.376 115 115 115 0 0
1.6244 2.9713 0.4213 0.920 0.222 -0.322 21 21 23 0 0
1.4295 2.6614 0.4915 0.855 -0.460 0.240 31 31 33 0 0
1.3984 2.5811 0.5051 0.403 -0.842 -0.359 33 33 35 0 0
1.3846 2.5728 0.5090 0.403 -0.842 -0.359 36 36 38 0 0
1.3771 2.4298 0.5219 0.473 -0.881 -0.018 39 38 43 0 0
1.3184 2.4475 0.5345 0.365 -0.746 -0.557 39 38 43 0 0
1.3056 2.4385 0.5382 0.365 -0.746 -0.557 34 33 38 0 0
0.7891 2.2410 0.6758 0.796 -0.472 -0.379 26 26 28 0 0
1.6305 3.0045 0.4320 0.943 -0.194 -0.271 15 15 17 0 0
1.5710 2.7253 0.4677 0.235 -0.964 0.127 26 25 30 0 0
1.3919 2.4405 0.5322 0.501 -0.843 0.197 37 36 41 0 0
1.1204 2.4315 0.5976 0.995 0.085 -0.053 38 37 42 0 0
1.1151 2.3683 0.6037 0.799 0.600 -0.040 43 42 47 0 0
0.6765 2.2177 0.7199 0.958 -0.102 0.269 39 39 41 0 0
1.5939 2.9818 0.4573 0.342 -0.933 -0.109 27 27 29 0 0
1.3858 2.5125 0.5429 0.805 0.148 0.575 34 33 38 0 0
1.1239 2.4325 0.6118 0.780 0.170 -0.603 39 38 43 0 0
1.1090 2.3747 0.6198 0.835 0.534 0.133 42 41 46 0 0
1.6069 3.0447 0.4642 0.905 0.340 0.256 15 15 17 0 0
1.6324 3.0102 0.4606 0.992 -0.076 -0.101 16 16 18 0 0
1.6126 2.9727 0.4682 0.353 -0.917 -0.187 26 26 28 0 0
1.4385 3.3222 0.4992 0.795 -0.132 -0.592 11 11 13 0 0
1.5564 2.9800 0.4961 0.024 -0.955 -0.295 29 29 31 0 0
1.4174 2.6817 0.5521 0.522 -0.817 0.244 22 22 24 0 0
1.4039 2.6401 0.5585 0.984 -0.030 0.174 27 27 29 0 0
1.1395 2.4132 0.6396 0.865 0.490 0.110 38 37 42 0 0
1.1543 2.3885 0.6379 0.866 0.480 0.138 38 37 42 0 0
0.5983 2.0808 0.7959 -0.257 -0.576 -0.776 153 153 155 0 0
1.6064 3.7434 0.4424 0.936 0.166 -0.312 166 165 163 0 0
1.6127 3.7201 0.4426 0.925 0.188 -0.331 117 116 115 0 0
1.5742 3.7317 0.4512 0.507 -0.772 0.385 56 58 57 0 0
1.5989 3.0572 0.4949 0.941 0.326 -0.092 15 15 17 0 0
1.6164 3.0282 0.4928 0.882 0.418 -0.219 16 16 18 0 0
1.6220 2.9733 0.4954 0.676 -0.654 -0.340 20 20 22 0 0
1.6182 3.7017 0.4580 0.967 -0.242 0.078 62 63 65 0 0
1.6143 3.6865 0.4600 0.967 -0.242 0.078 49 50 52 0 0
1.6280 2.9728 0.5088 0.762 -0.547 -0.348 19 19 21 0 0
1.3445 2.5164 0.6118 0.871 -0.000 -0.492 27 28 30 0 0
1.6086 3.7499 0.4722 0.907 0.368 -0.203 165 164 162 0 0
1.6230 3.7021 0.4721 0.989 0.011 -0.144 67 68 69 0 0
1.4478 3.3447 0.5413 0.854 0.415 -0.314 13 13 15 0 0
1.4684 3.3123 0.5385 0.905 -0.109 -0.410 12 12 14 0 0
1.6097 3.0570 0.5220 0.793 -0.135 -0.594 16 16 18 0 0
1.6401 3.0020 0.5184 0.988 0.147 -0.051 17 17 19 0 0
1.4008 2.6683 0.6018 0.718 -0.361 -0.596 21 21 23 0 0
1.3911 2.6075 0.6086 0.920 0.320 0.227 19 19 21 0 0
1.4010 2.5850 0.6077 0.811 -0.198 0.550 18 19 21 0 0
1.2837 2.5720 0.6377 0.901 0.344 -0.265 23 24 27 0 0
1.6246 3.7416 0.4843 0.972 -0.195 -0.130 165 164 162 0 0
1.6267 3.7033 0.4865 0.971 -0.043 -0.234 68 69 71 0 0
1.4522 3.3453 0.5555 0.835 0.460 -0.301 13 13 15 0 0
1.6369 3.0248 0.5324 0.932 0.291 -0.214 17 17 19 0 0
1.6408 3.0050 0.5328 0.992 0.115 -0.061 17 17 19 0 0
1.4470 2.7097 0.6022 0.917 -0.309 -0.252 18 18 20 0 0
1.3900 2.5782 0.6258 0.825 -0.201 0.528 14 15 19 0 0
1.2638 2.4870 0.6637 0.818 -0.307 -0.487 24 25 30 0 0
1.6266 3.7441 0.4990 0.933 0.131 -0.335 162 161 158 0 0
1.6301 3.7048 0.5009 0.872 -0.368 -0.323 72 71 73 0 0
1.6260 3.0357 0.5492 0.935 0.351 0.038 17 17 19 0 0
1.6349 3.0126 0.5486 0.929 0.225 0.292 17 17 19 0 0
1.6412 2.9913 0.5485 0.992 0.104 -0.069 16 16 18 0 0
1.6509 2.9508 0.5490 -0.008 -0.984 -0.178 18 18 20 0 0
1.3830 2.6354 0.6384 0.998 0.028 0.050 15 15 17 0 0
1.3888 2.6153 0.6384 0.889 0.429 -0.161 14 14 17 0 0
1.3658 2.5793 0.6467 0.211 -0.947 0.241 13 13 17 0 0
1.3437 2.5759 0.6524 0.211 -0.947 0.241 13 14 19 0 0
1.2753 2.5000 0.6749 0.818 -0.307 -0.487 19 20 24 0 0
1.2712 2.4858 0.6770 0.818 -0.307 -0.487 21 21 26 0 0
1.2299 2.4599 0.6891 0.064 -0.924 -0.376 26 24 31 0 0
1.0750 2.2491 0.7429 0.921 0.387 -0.053 21 21 23 0 0
1.0532 2.2116 0.7510 0.208 -0.947 0.245 15 15 17 0 0
1.6427 3.6991 0.5135 0.834 0.063 -0.548 72 70 72 0 0
1.6286 3.6918 0.5176 0.800 -0.474 -0.367 54 53 57 0 0
1.5908 3.7027 0.5263 0.596 -0.733 -0.329 40 39 44 0 0
1.6029 3.0723 0.5673 0.963 -0.245 0.110 15 15 17 0 0
1.6368 2.9977 0.5640 0.961 0.263 0.081 15 15 17 0 0
1.6373 2.9634 0.5663 0.814 -0.511 0.276 16 16 18 0 0
1.4487 2.7488 0.6288 0.995 -0.099 0.010 13 13 15 0 0
1.4035 2.6096 0.6500 0.851 0.353 -0.389 13 13 16 0 0
1.3617 2.5849 0.6622 0.348 -0.869 0.351 12 12 16 0 0
1.3426 2.5797 0.6674 0.329 -0.918 0.220 11 12 17 0 0
1.0550 2.2134 0.7655 0.250 -0.938 0.241 15 15 17 0 0
1.6239 3.6812 0.5349 0.909 -0.336 -0.245 45 44 49 0 0
1.7050 3.4749 0.5285 0.832 0.504 -0.233 51 51 53 0 0
1.6242 3.0612 0.5777 0.149 -0.975 -0.167 15 15 17 0 0
1.6196 3.0472 0.5798 0.602 -0.759 -0.247 16 16 18 0 0
1.3975 2.6164 0.6659 0.575 -0.093 -0.813 12 12 14 0 0
1.3384 2.6021 0.6819 0.789 -0.170 0.591 11 11 13 0 0
1.3320 2.5892 0.6844 0.665 -0.426 0.614 10 11 14 0 0
1.2704 2.5257 0.7044 0.754 -0.557 0.347 14 15 19 0 0
1.2763 2.5056 0.7043 0.799 -0.601 -0.039 13 14 18 0 0
1.6456 3.7234 0.5418 0.608 -0.754 -0.249 58 56 58 0 0
1.6349 3.7134 0.5452 0.529 -0.843 -0.093 55 53 58 0 0
1.6370 3.6934 0.5461 0.965 0.254 -0.069 53 52 57 0 0
1.6280 3.6821 0.5491 0.909 -0.336 -0.245 55 54 59 0 0
1.6250 3.0471 0.5933 0.602 -0.759 -0.247 16 16 18 0 0
1.6201 2.9650 0.6002 0.928 -0.222 0.299 16 16 18 0 0
1.4532 2.6855 0.6619 0.693 -0.713 0.107 12 12 14 0 0
1.0486 2.2226 0.7968 0.871 -0.261 -0.417 15 15 19 0 0
1.6650 3.7858 0.5481 0.943 0.244 -0.225 170 170 168 0 0
1.6523 3.7407 0.5544 0.886 -0.444 -0.136 70 70 70 0 0
1.6491 3.7248 0.5563 0.482 -0.868 0.118 51 51 53 0 0
1.6350 3.7175 0.5604 0.482 -0.868 0.118 48 47 53 0 0
1.6416 3.6940 0.5603 0.949 0.129 -0.287 47 46 52 0 0
1.6383 3.6783 0.5622 0.787 0.185 -0.588 52 51 56 0 0
1.6266 2.9812 0.6123 0.949 -0.086 0.305 13 13 15 0 0
1.0925 2.3171 0.7943 0.602 -0.692 0.399 16 16 18 0 0
1.0904 2.3018 0.7959 0.997 -0.042 0.058 17 17 19 0 0
1.6551 3.7426 0.5690 0.759 -0.648 0.066 69 69 68 0 0
1.6488 3.7292 0.5715 0.308 -0.950 0.049 54 54 55 0 0
1.6489 3.6741 0.5751 0.787 0.185 -0.588 45 45 47 0 0
1.6197 2.9723 0.6296 0.756 -0.566 0.329 13 13 15 0 0
1.6021 2.9501 0.6356 0.809 -0.503 0.303 25 25 27 0 0
1.1060 2.3127 0.8063 0.876 -0.460 0.146 15 15 17 0 0
1.0895 2.3052 0.8111 0.988 0.117 0.100 15 15 17 0 0
1.6314 3.8023 0.5866 0.872 0.459 -0.171 168 168 166 0 0
1.6543 3.7474 0.5843 0.997 0.079 -0.010 80 81 77 0 0
1.6541 3.7291 0.5855 0.670 -0.741 0.052 57 57 56 0 0
1.1192 2.3085 0.8183 0.783 -0.286 0.553 13 13 15 0 0
1.1196 2.2918 0.8193 0.675 -0.623 0.396 14 14 16 0 0
1.6370 3.8022 0.6007 0.975 0.198 -0.098 169 169 167 0 0
1.6426 3.7792 0.6007 0.952 0.221 -0.212 160 159 157 0 0
1.6518 3.7535 0.6000 0.998 0.028 -0.064 98 99 96 0 0
1.6470 3.7388 0.6022 0.859 -0.475 0.191 60 60 60 0 0
1.5074 3.3542 0.6638 -0.037 -0.970 -0.238 15 15 17 0 0
1.4773 2.7337 0.7122 0.776 -0.629 -0.033 12 12 14 0 0
1.4681 2.7227 0.7153 0.880 -0.464 -0.096 11 11 13 0 0
0.4737 1.9551 1.0253 -0.018 -0.946 -0.325 125 124 128 0 0
1.6716 3.7789 0.6086 0.673 -0.734 -0.095 169 168 166 0 0
1.6559 3.7729 0.6132 0.451 -0.892 0.006 162 161 159 0 0
1.5215 3.3479 0.6759 -0.109 -0.994 0.011 15 15 17 0 0
1.5845 2.8872 0.6891 0.976 -0.195 0.093 38 38 40 0 0
1.4953 2.7761 0.7197 0.595 -0.439 -0.673 12 12 14 0 0
1.4735 2.7731 0.7256 0.310 -0.671 -0.674 12 12 14 0 0
1.4773 2.7539 0.7259 0.375 -0.904 -0.206 12 12 14 0 0
1.4612 2.7471 0.7305 0.625 -0.775 -0.097 13 13 15 0 0
1.4698 2.7082 0.7308 0.949 -0.293 0.119 10 10 12 0 0
1.4750 2.6881 0.7307 0.970 -0.023 0.243 10 10 12 0 0
0.4498 1.9520 1.0476 -0.072 -0.967 -0.244 158 158 160 0 0
1.5251 3.3491 0.6903 -0.132 -0.981 0.144 16 16 18 0 0
1.6035 2.9120 0.6974 0.868 -0.496 -0.038 31 31 33 0 0
1.5971 2.8993 0.6999 0.725 -0.686 -0.066 36 36 38 0 0
1.5886 2.8880 0.7029 0.764 -0.639 -0.087 39 39 41 0 0
1.5832 2.8746 0.7051 0.890 -0.403 -0.211 39 39 41 0 0
1.5911 2.8525 0.7045 0.991 0.033 0.129 39 39 41 0 0
1.5064 2.7724 0.7320 0.595 -0.439 -0.673 12 12 14 0 0
1.4870 2.7510 0.7385 0.352 -0.882 -0.314 13 13 15 0 0
1.4658 2.7307 0.7454 0.585 -0.776 -0.236 14 14 16 0 0
1.4623 2.7162 0.7472 0.308 -0.829 -0.467 11 11 13 0 0
1.4554 2.7037 0.7498 0.696 -0.679 -0.233 11 11 13 0 0
0.4621 1.9490 1.0606 -0.033 -0.971 -0.235 153 153 155 0 0
1.6742 3.7300 0.6420 0.849 0.140 -0.510 73 73 74 0 0
1.5307 3.3489 0.7042 -0.093 -0.975 0.200 17 17 19 0 0
1.6059 2.9139 0.7116 0.804 -0.569 -0.174 23 23 25 0 0
1.5996 2.9011 0.7141 0.837 -0.543 -0.064 32 32 34 0 0
1.5965 2.8862 0.7158 0.812 -0.577 -0.091 39 39 41 0 0
1.5799 2.8633 0.7217 0.807 -0.551 -0.213 39 39 41 0 0
1.5826 2.7605 0.7274 0.911 0.241 0.334 15 15 17 0 0
0.8543 2.0299 0.9671 0.614 0.777 -0.135 15 16 20 0 0
1.5410 3.3453 0.7171 0.134 -0.985 0.110 17 17 19 0 0
1.5054 3.3530 0.7261 0.177 -0.983 -0.055 15 15 17 0 0
1.6009 2.8867 0.7296 0.712 -0.699 -0.058 34 34 36 0 0
1.5910 2.8763 0.7329 0.712 -0.699 -0.058 40 40 42 0 0
1.5810 2.8659 0.7362 0.594 -0.748 -0.295 39 39 41 0 0
1.5711 2.8555 0.7395 0.712 -0.699 -0.058 39 39 41 0 0
1.5711 2.8386 0.7405 0.928 -0.368 -0.064 38 38 41 0 0
1.5080 2.7611 0.7622 0.643 -0.618 -0.453 14 14 16 0 0
1.6793 3.7712 0.6691 0.944 0.013 -0.328 73 75 75 0 0
1.6425 3.7817 0.6784 0.998 0.044 -0.044 56 56 58 0 0
1.6461 3.7604 0.6787 0.991 -0.125 0.046 51 51 53 0 0
1.5441 3.3469 0.7315 0.391 -0.899 -0.197 17 17 19 0 0
1.5160 3.3493 0.7390 0.347 -0.927 -0.140 15 15 17 0 0
1.6025 2.8891 0.7439 0.520 -0.852 -0.065 24 24 26 0 0
1.5940 2.8778 0.7469 0.719 -0.694 -0.018 35 35 37 0 0
1.5845 2.8671 0.7501 0.616 -0.786 -0.045 39 39 41 0 0
1.4975 2.7375 0.7815 0.777 -0.478 -0.410 15 15 17 0 0
1.4909 2.7248 0.7840 0.798 -0.388 -0.461 14 14 16 0 0
1.4840 2.7124 0.7867 0.718 -0.400 -0.569 13 13 15 0 0
1.4706 2.6705 0.7928 0.823 -0.512 -0.246 11 11 13 0 0
0.8247 2.0335 1.0057 0.248 -0.881 0.404 12 11 16 0 0
1.6836 3.7905 0.6823 0.944 0.013 -0.328 154 153 153 0 0
1.6842 3.7715 0.6833 0.944 0.013 -0.328 69 72 71 0 0
1.6518 3.7786 0.6916 0.950 -0.063 -0.307 55 55 57 0 0
1.5386 3.3547 0.7480 0.494 -0.624 -0.605 18 18 20 0 0
1.5214 3.3492 0.7530 0.347 -0.927 -0.140 16 16 18 0 0
1.5448 2.9308 0.7720 0.895 -0.387 0.220 20 20 22 0 0
1.6058 2.8734 0.7590 0.667 -0.740 0.083 30 30 32 0 0
1.5045 2.7364 0.7947 0.966 -0.242 -0.089 19 19 21 0 0
1.4917 2.7276 0.7987 0.908 -0.404 0.111 16 16 18 0 0
1.4853 2.7149 0.8012 0.862 -0.456 0.222 15 15 17 0 0
1.4481 2.6709 0.8139 0.449 -0.878 -0.168 11 11 13 0 0
1.4066 2.6294 0.8277 0.389 -0.707 0.591 11 11 13 0 0
1.3752 2.6317 0.8360 0.131 -0.875 0.467 11 11 13 0 0
1.6524 3.8009 0.7057 0.025 -0.967 -0.254 72 75 73 0 0
1.5483 3.3515 0.7609 0.583 -0.457 -0.672 19 19 21 0 0
1.5390 3.3403 0.7641 0.572 -0.260 -0.778 16 16 18 0 0
1.5192 3.3367 0.7698 0.553 -0.815 -0.175 13 13 15 0 0
1.5303 3.3109 0.7683 0.694 0.030 -0.720 12 12 14 0 0
1.6011 2.9822 0.7687 0.042 -0.975 -0.217 12 12 14 0 0
1.5264 2.7763 0.8013 0.923 -0.307 -0.231 36 36 39 0 0
1.5175 2.7482 0.8054 0.950 -0.287 -0.127 32 32 33 0 0
1.5075 2.7378 0.8088 0.939 -0.302 -0.167 27 27 28 0 0
1.4942 2.7293 0.8129 0.867 -0.311 0.389 22 22 23 0 0
0.4019 1.9564 1.1564 -0.172 -0.985 0.007 168 168 170 0 0
1.5512 3.3354 0.7765 0.565 -0.276 -0.778 15 15 17 0 0
1.5291 3.3334 0.7827 0.682 -0.579 -0.447 13 13 15 0 0
1.5444 3.3047 0.7802 0.577 -0.253 -0.776 12 12 14 0 0
1.5284 2.7615 0.8167 0.845 -0.397 -0.358 38 37 41 0 0
1.5182 2.7511 0.8201 0.932 -0.259 -0.254 37 37 37 0 0
1.5104 2.7392 0.8229 0.939 -0.302 -0.167 33 33 33 0 0
1.4895 2.7356 0.8288 0.860 -0.430 0.273 30 30 30 0 0
1.4791 2.7253 0.8323 0.723 -0.463 0.513 26 26 27 0 0
1.3992 2.6403 0.8592 0.415 -0.588 0.694 15 15 17 0 0
1.7090 3.5454 0.7363 0.915 0.402 -0.022 45 45 47 0 0
1.7396 3.5040 0.7303 0.786 0.564 0.254 42 42 44 0 0
1.7874 3.3966 0.7234 -0.082 -0.647 -0.758 22 22 24 0 0
1.8404 3.3218 0.7132 0.837 0.452 -0.308 21 21 23 0 0
1.5579 3.3344 0.7902 0.679 -0.085 -0.729 17 17 19 0 0
1.5571 3.3172 0.7914 0.679 -0.085 -0.729 13 13 15 0 0
1.5207 3.3075 0.8020 0.797 -0.519 0.308 11 11 13 0 0
1.5031 2.7641 0.8385 0.985 -0.064 -0.159 39 39 41 0 0
1.4837 2.7426 0.8451 0.796 -0.560 0.232 36 36 37 0 0
1.8217 3.3748 0.7303 0.996 0.056 -0.072 30 30 32 0 0
1.8218 3.3571 0.7313 0.724 -0.423 -0.545 24 24 26 0 0
1.5687 3.3304 0.8029 0.815 0.046 -0.578 17 17 19 0 0
1.5683 3.3129 0.8040 0.810 -0.042 -0.584 14 14 16 0 0
1.5684 3.2950 0.8050 0.655 -0.345 -0.672 12 12 14 0 0
1.5179 2.8597 0.8440 0.902 0.247 0.354 32 31 36 0 0
1.4826 2.7635 0.8593 0.708 -0.474 -0.523 41 40 44 0 0
1.4648 2.7409 0.8655 0.537 -0.798 0.275 38 38 41 0 0
1.7817 3.3733 0.7566 -0.423 -0.579 -0.696 27 27 29 0 0
1.5754 3.3473 0.8155 0.790 -0.447 -0.420 21 21 23 0 0
1.6854 3.0075 0.8041 0.894 0.306 0.328 24 24 26 0 0
1.5140 2.8316 0.8618 0.994 -0.043 -0.097 39 39 41 0 0
1.4428 2.6401 0.8925 0.971 -0.094 0.221 36 35 40 0 0
1.4872 3.3428 0.8559 0.987 -0.097 0.126 11 11 13 0 0
1.5223 3.2999 0.8484 0.893 0.337 -0.300 11 11 13 0 0
1.6891 3.0085 0.8181 0.867 0.360 0.344 26 26 28 0 0
1.4459 2.6750 0.9048 0.757 -0.635 0.154 40 39 44 0 0
1.4514 2.6548 0.9044 0.888 -0.432 -0.154 41 40 45 0 0
1.2553 2.6219 0.9611 0.489 0.017 0.872 38 37 41 0 0
1.2182 2.3916 0.9844 -0.080 -0.991 0.109 34 35 38 0 0
1.1896 2.3911 0.9924 0.223 -0.936 0.274 33 34 39 0 0
0.4389 1.9528 1.2270 -0.170 -0.985 0.038 167 167 167 0 0
1.6916 3.8137 0.7880 0.423 -0.793 0.439 127 127 127 0 0
1.6916 2.9932 0.8332 0.903 0.347 0.255 26 26 28 0 0
1.5109 2.8404 0.8925 0.712 0.229 0.663 31 31 33 0 0
1.4410 2.6982 0.9200 0.985 -0.121 0.125 44 43 48 0 0
1.4360 2.6844 0.9222 0.994 0.042 -0.102 44 43 48 0 0
1.1941 2.3916 1.0064 -0.079 -0.978 -0.195 37 38 43 0 0
1.1709 2.3880 1.0132 -0.028 -0.975 -0.219 37 39 44 0 0
1.6888 3.8389 0.8031 0.919 0.305 -0.250 167 165 163 0 0
1.6820 3.8070 0.8067 0.947 -0.286 -0.145 57 57 58 0 0
1.7168 3.5777 0.8093 0.562 0.445 -0.697 27 27 30 0 0
1.4625 3.3861 0.8917 0.735 -0.535 0.416 14 14 16 0 0
1.4680 2.8544 0.9191 0.642 0.259 0.722 35 35 38 0 0
1.4896 2.8234 0.9146 0.666 0.322 0.672 32 31 34 0 0
1.5034 2.7976 0.9121 0.692 0.333 0.641 25 25 28 0 0
1.5170 2.7719 0.9097 0.669 0.337 0.662 30 30 34 0 0
1.0334 2.2829 1.0731 0.985 -0.004 0.170 27 28 31 0 0
1.0260 2.2702 1.0759 0.930 0.302 0.211 20 21 24 0 0
1.7189 3.7818 0.8132 0.878 0.460 -0.131 64 64 64 0 0
1.7545 3.5527 0.8154 0.810 0.582 0.072 31 31 33 0 0
1.8462 3.3757 0.7988 0.994 0.076 -0.078 21 21 23 0 0
1.5239 3.3101 0.8940 0.840 0.498 -0.214 12 12 14 0 0
1.6216 3.0830 0.8784 0.775 0.628 0.073 29 29 31 0 0
1.5047 2.7662 0.9286 0.660 0.297 0.690 27 27 29 0 0
1.4947 2.7556 0.9320 0.677 0.133 0.724 35 35 37 0 0
1.0578 2.1570 1.0884 0.881 0.275 0.385 10 11 15 0 0
1.4745 3.3852 0.9197 0.614 -0.430 -0.662 14 14 16 0 0
1.4837 3.3606 0.9184 0.859 0.328 -0.394 12 12 14 0 0
1.5414 3.1949 0.9107 0.961 -0.051 -0.273 29 29 31 0 0
1.4847 2.7653 0.9496 0.700 0.388 0.600 28 28 30 0 0
1.4651 2.7437 0.9563 0.637 -0.174 0.751 36 35 40 0 0
1.4543 2.7336 0.9599 0.651 -0.200 0.732 41 40 45 0 0
1.4621 2.7117 0.9588 -0.287 -0.873 -0.395 43 42 47 0 0
1.0366 2.3205 1.1013 0.888 0.059 -0.457 41 40 45 0 0
1.4833 3.3828 0.9331 0.473 -0.593 -0.651 15 15 17 0 0
1.4904 3.3596 0.9322 0.859 0.328 -0.394 14 14 16 0 0
1.5403 3.2171 0.9253 0.962 0.261 -0.078 17 17 19 0 0
1.5448 3.1962 0.9251 0.975 0.111 -0.192 29 28 33 0 0
1.5395 3.1823 0.9273 0.974 0.055 -0.221 30 29 34 0 0
1.4560 2.8209 0.9701 0.642 0.430 0.635 40 40 42 0 0
1.7894 3.4304 0.8578 0.715 0.338 0.612 40 40 42 0 0
1.5135 3.4011 0.9391 0.959 -0.271 0.084 20 20 22 0 0
1.5146 3.3822 0.9397 0.775 -0.629 0.057 18 18 20 0 0
1.5074 3.3694 0.9425 0.904 -0.420 0.081 16 16 18 0 0
1.5012 3.3557 0.9450 0.883 0.207 -0.422 14 14 16 0 0
1.5427 3.1838 0.9418 0.974 0.055 -0.221 29 29 32 0 0
1.0709 2.3245 1.1223 0.384 -0.775 -0.502 43 43 48 0 0
1.0607 2.3134 1.1258 0.674 -0.439 -0.594 43 43 47 0 0
1.5141 3.3864 0.9553 0.904 -0.420 0.081 20 20 22 0 0
1.5077 3.3730 0.9579 0.904 -0.420 0.081 17 17 19 0 0
1.5093 3.3538 0.9584 0.871 -0.090 -0.484 15 15 17 0 0
1.5480 3.1838 0.9557 0.987 0.063 -0.150 28 28 30 0 0
1.5472 3.1666 0.9568 0.919 0.232 -0.317 26 26 28 0 0
1.5059 3.4143 0.9720 0.973 0.185 0.139 21 21 23 0 0
1.5129 3.3912 0.9712 0.974 -0.161 0.159 20 20 22 0 0
1.5079 3.3767 0.9733 0.819 -0.571 0.047 17 17 19 0 0
1.5205 3.3496 0.9710 0.524 -0.852 0.001 15 15 17 0 0
1.5473 3.1703 0.9721 0.910 0.108 -0.400 26 26 28 0 0
1.7063 3.6325 0.9182 0.696 0.484 -0.530 25 25 29 0 0
1.5285 3.3657 0.9835 0.071 -0.962 0.263 18 18 20 0 0
1.5119 3.4035 1.0180 0.985 -0.053 0.162 20 20 22 0 0
1.5485 3.1628 1.0185 0.984 0.162 0.081 26 26 27 0 0
1.2529 2.7276 1.1270 0.804 -0.379 0.459 20 20 22 0 0
1.7247 3.8529 0.9493 0.964 0.245 -0.101 159 159 158 0 0
1.7310 3.8521 0.9633 0.997 0.022 -0.080 163 162 161 0 0
1.7293 3.8579 0.9794 0.989 0.051 -0.136 166 165 164 0 0
1.7330 3.8361 0.9792 0.975 0.124 -0.185 131 131 132 0 0
1.7411 3.7737 0.9796 0.975 0.124 -0.185 45 45 46 0 0
1.8505 3.3800 0.9642 0.846 0.252 0.469 35 35 37 0 0
1.7475 3.8474 0.9902 0.838 -0.262 -0.479 166 165 164 0 0
1.7443 3.8313 0.9918 0.867 -0.224 -0.445 135 136 137 0 0
1.7436 3.7759 0.9945 0.975 0.124 -0.185 44 43 47 0 0
1.7545 3.8460 1.0039 0.795 -0.264 -0.546 162 161 159 0 0
1.7585 3.7868 1.0052 0.885 0.007 -0.466 61 60 66 0 0
1.7624 3.8440 1.0174 0.833 -0.288 -0.472 152 150 149 0 0
1.7647 3.8048 1.0183 0.893 0.059 -0.445 69 69 72 0 0
1.7663 3.7849 1.0187 0.960 -0.187 -0.208 67 66 71 0 0
1.7511 3.7599 1.0244 0.992 -0.127 -0.005 52 51 56 0 0
1.2529 2.8345 1.2165 0.963 0.269 0.030 37 38 42 0 0
1.2726 2.7874 1.2124 0.958 0.272 0.087 59 57 62 0 0
1.7668 3.8447 1.0318 0.802 -0.538 -0.260 133 132 131 0 0
1.7601 3.8127 1.0352 0.912 -0.339 -0.231 62 61 64 0 0
1.7578 3.7959 1.0366 0.863 -0.506 -0.002 52 51 56 0 0
1.2738 2.7727 1.2285 0.979 0.184 0.092 58 57 62 0 0
1.7729 3.8628 1.0450 0.974 -0.088 -0.209 166 165 164 0 0
1.7715 3.8452 1.0461 0.974 -0.088 -0.209 124 122 121 0 0
1.7724 3.8258 1.0466 0.966 -0.099 -0.239 68 68 69 0 0
1.7641 3.8138 1.0497 0.873 -0.444 -0.201 54 53 56 0 0
1.7422 3.8128 1.0565 0.938 -0.136 -0.320 48 47 52 0 0
1.7407 3.7766 1.0585 0.914 -0.318 0.251 47 46 51 0 0
1.2539 2.8232 1.2483 0.997 -0.072 0.026 34 35 40 0 0
1.2692 2.7269 1.2475 0.965 -0.263 -0.009 45 43 48 0 0
1.7781 3.8817 1.0584 0.974 -0.199 -0.110 171 170 169 0 0
1.7782 3.8441 1.0599 0.970 0.037 -0.242 126 124 124 0 0
1.7790 3.8247 1.0604 0.970 0.037 -0.242 69 69 71 0 0
1.7700 3.8134 1.0637 0.765 -0.558 -0.320 55 55 57 0 0
1.7622 3.8010 1.0666 0.731 -0.626 -0.272 48 47 52 0 0
1.7487 3.7559 1.0726 0.977 0.003 0.215 47 46 49 0 0
1.7611 3.7275 1.0699 0.867 0.347 0.356 48 47 50 0 0
1.8838 3.3783 1.0457 0.514 0.619 -0.594 39 38 42 0 0
1.5683 3.0941 1.1554 0.777 0.615 0.132 27 27 29 0 0
1.7030 2.8815 1.1219 0.831 -0.525 -0.184 20 20 22 0 0
1.7826 3.8261 1.0751 0.970 0.037 -0.242 75 75 77 0 0
1.7760 3.8128 1.0777 0.797 -0.451 -0.402 57 57 59 0 0
1.7506 3.8146 1.0855 0.234 -0.908 -0.347 49 48 53 0 0
1.7376 3.7690 1.0914 0.799 0.291 -0.526 51 50 52 0 0
1.7471 3.7429 1.0895 0.957 0.290 -0.022 55 54 56 0 0
1.8817 3.3839 1.0615 0.903 0.119 0.414 39 38 43 0 0
1.8850 3.3636 1.0612 0.922 0.104 0.374 35 34 39 0 0
1.5607 3.1030 1.1730 0.808 0.557 0.192 29 29 31 0 0
1.7025 2.8854 1.1371 0.903 -0.349 -0.250 24 24 26 0 0
1.2651 2.7188 1.2806 0.865 -0.468 0.179 47 47 49 0 0
1.7823 3.8120 1.0915 0.847 -0.384 -0.368 60 60 62 0 0
1.7489 3.7642 1.1039 0.807 0.325 -0.493 48 47 52 0 0
1.7146 3.7730 1.1143 0.293 0.200 -0.935 54 54 57 0 0
1.5547 3.3068 1.1826 0.747 -0.071 -0.661 15 15 17 0 0
1.7784 3.8008 1.1090 0.779 -0.499 -0.380 48 47 53 0 0
1.7321 3.7633 1.1251 0.393 0.232 -0.890 38 39 43 0 0
1.2657 2.7424 1.3110 0.924 -0.145 0.354 56 56 58 0 0
1.2340 2.6924 1.3230 0.946 0.323 0.022 23 23 27 0 0
1.7661 3.7590 1.1303 0.659 0.167 -0.734 36 35 40 0 0
1.5499 3.0861 1.2239 0.905 0.414 0.094 29 29 31 0 0
1.7145 2.8367 1.1808 0.931 -0.361 -0.054 23 23 25 0 0
1.2634 2.7471 1.3274 0.965 -0.229 0.129 55 54 59 0 0
1.7587 3.9007 1.1434 0.801 0.527 -0.285 171 170 168 0 0
1.7805 3.7517 1.1418 0.661 0.153 -0.735 43 41 46 0 0
1.9034 3.3476 1.1172 0.837 0.255 -0.484 28 28 30 0 0
1.5540 3.0694 1.2388 0.937 0.319 0.146 26 26 28 0 0
1.7885 3.8055 1.1532 0.906 -0.393 0.159 66 64 69 0 0
1.5457 3.0786 1.2568 0.937 0.267 0.226 28 28 30 0 0
1.7126 2.8278 1.2121 0.950 -0.310 -0.032 23 23 25 0 0
1.7790 3.9117 1.1685 0.928 0.237 -0.286 170 170 169 0 0
1.7983 3.8394 1.1647 0.978 0.137 -0.156 75 74 77 0 0
1.8008 3.8186 1.1646 0.981 0.110 -0.159 60 60 63 0 0
1.7780 3.8183 1.1720 0.862 -0.499 0.090 53 52 57 0 0
1.7710 3.8053 1.1747 0.651 -0.731 0.206 49 47 52 0 0
1.5480 3.0631 1.2722 0.931 0.363 0.041 28 28 31 0 0
1.7799 3.8211 1.1872 0.791 -0.549 -0.269 46 47 52 0 0
1.7554 3.8034 1.1958 0.746 -0.663 0.065 45 43 47 0 0
1.7593 3.7816 1.1952 0.930 -0.336 0.150 46 45 49 0 0
1.1776 2.6560 1.4217 0.439 -0.762 -0.476 16 17 20 0 0
1.7899 3.9115 1.1969 0.967 0.129 -0.219 171 171 171 0 0
1.8022 3.8449 1.1951 0.953 0.045 -0.298 77 78 80 0 0
1.7916 3.8347 1.1989 0.832 -0.437 -0.342 59 62 63 0 0
1.7825 3.8234 1.2022 0.698 -0.596 -0.398 46 47 51 0 0
1.7583 3.7679 1.2119 0.966 0.175 -0.188 52 52 54 0 0
1.7644 3.6702 1.2132 0.173 -0.831 0.528 56 56 58 0 0
1.5581 3.2772 1.2933 -0.076 -0.981 -0.178 13 13 15 0 0
1.6982 2.7967 1.2635 0.882 -0.465 -0.076 26 24 27 0 0
1.1650 2.6321 1.4426 0.536 -0.642 -0.549 23 24 26 0 0
1.7801 3.9051 1.2163 0.877 0.474 -0.086 169 167 168 0 0
1.8067 3.8456 1.2096 0.985 0.099 -0.144 84 85 87 0 0
1.7946 3.8179 1.2144 0.672 -0.662 -0.333 47 48 52 0 0
1.9293 3.3653 1.1848 0.392 -0.041 -0.919 33 32 37 0 0
1.7004 2.7987 1.2779 0.882 -0.465 -0.076 26 24 27 0 0
1.1749 2.7514 1.4515 0.924 0.362 0.120 53 52 57 0 0
1.1619 2.6546 1.4588 0.950 -0.263 -0.168 22 23 25 0 0
1.1836 2.6244 1.4527 0.827 0.046 -0.560 20 21 23 0 0
1.8124 3.8453 1.2236 0.893 0.430 -0.136 96 97 98 0 0
1.7820 3.8137 1.2346 0.499 -0.783 -0.372 42 43 45 0 0
1.7027 2.8006 1.2924 0.882 -0.465 -0.076 23 21 24 0 0
1.6962 2.7879 1.2949 0.882 -0.465 -0.076 26 24 27 0 0
1.1743 2.7376 1.4682 0.982 -0.016 -0.186 52 52 54 0 0
1.1689 2.6885 1.4715 0.829 -0.393 -0.398 37 36 41 0 0
1.1516 2.6814 1.4774 0.504 -0.558 -0.659 29 29 33 0 0
1.1416 2.6699 1.4811 0.962 0.234 0.143 20 24 26 0 0
1.1925 2.6223 1.4658 0.827 0.046 -0.560 20 24 27 0 0
1.1679 2.6196 1.4740 0.573 -0.381 -0.726 32 35 39 0 0
1.7817 3.9126 1.2477 0.879 0.453 -0.148 171 170 169 0 0
1.8124 3.8496 1.2394 0.933 0.344 -0.109 105 105 106 0 0
1.5410 3.2828 1.3464 0.845 0.534 0.028 13 13 15 0 0
1.7050 2.8026 1.3069 0.882 -0.465 -0.076 19 17 20 0 0
1.6985 2.7898 1.3094 0.882 -0.465 -0.076 24 22 25 0 0
1.1777 2.7389 1.4831 0.949 -0.051 -0.310 53 53 55 0 0
1.1646 2.6769 1.4893 0.647 -0.360 -0.673 37 36 41 0 0
1.1760 2.6180 1.4873 0.939 0.344 0.015 34 35 40 0 0
1.8168 3.8504 1.2539 0.899 0.365 -0.242 109 110 111 0 0
1.8019 3.8249 1.2596 0.983 -0.140 -0.116 60 61 63 0 0
1.7007 2.7918 1.3239 0.882 -0.465 -0.076 22 20 23 0 0
1.1836 2.7212 1.4978 0.323 -0.855 -0.405 52 51 55 0 0
1.1745 2.7092 1.5011 0.391 -0.919 -0.056 52 51 56 0 0
1.1742 2.6224 1.5038 0.939 0.344 0.015 39 39 43 0 0
1.7855 3.9183 1.2784 0.812 0.468 -0.349 172 170 169 0 0
1.8024 3.8854 1.2737 0.812 0.468 -0.349 157 156 155 0 0
1.8298 3.8253 1.2663 0.907 0.324 -0.268 75 76 78 0 0
1.8212 3.8136 1.2695 0.992 0.031 -0.119 66 67 70 0 0
1.7614 3.7681 1.2907 0.839 -0.511 0.186 38 37 43 0 0
1.6940 2.7826 1.3417 0.844 -0.529 -0.088 23 22 24 0 0
1.2148 2.7231 1.5034 -0.024 -1.000 0.014 48 47 49 0 0
1.1884 2.6693 1.5137 0.631 -0.422 -0.651 44 43 49 0 0
1.1329 2.6850 1.5318 0.980 0.196 -0.040 40 40 45 0 0
1.1761 2.6245 1.5191 0.940 0.279 0.195 38 38 41 0 0
1.7921 3.9173 1.2923 0.779 0.482 -0.402 170 167 167 0 0
1.8163 3.8219 1.2868 0.980 -0.171 -0.107 60 59 64 0 0
1.9256 3.3701 1.2629 0.820 0.260 0.510 30 30 32 0 0
1.7025 2.7975 1.3537 0.895 -0.442 -0.054 17 16 21 0 0
1.6966 2.7844 1.3561 0.844 -0.529 -0.088 20 20 21 0 0
1.6892 2.7722 1.3589 0.844 -0.529 -0.088 23 23 25 0 0
1.1990 2.6142 1.5278 0.904 -0.202 0.378 31 32 36 0 0
1.7978 3.9360 1.3059 0.842 0.334 -0.424 172 171 169 0 0
1.7310 3.7824 1.3327 0.926 0.273 0.261 50 48 51 0 0
1.7380 3.7579 1.3309 0.929 0.184 0.322 47 47 48 0 0
1.7022 2.8011 1.3691 0.923 -0.365 -0.117 32 31 36 0 0
1.6984 2.7866 1.3708 0.865 -0.478 -0.152 16 16 17 0 0
1.6918 2.7739 1.3733 0.865 -0.478 -0.152 21 21 23 0 0
1.6876 2.7597 1.3751 0.762 -0.515 -0.394 25 25 27 0 0
1.1895 2.5885 1.5476 0.797 -0.101 -0.596 21 22 24 0 0
1.1882 2.5720 1.5486 0.781 0.052 -0.622 20 21 24 0 0
1.8187 3.9422 1.3148 0.739 -0.661 -0.131 173 172 170 0 0
1.8285 3.9150 1.3122 0.968 -0.138 -0.209 172 171 169 0 0
1.8263 3.8979 1.3134 0.968 -0.138 -0.209 168 165 165 0 0
1.8176 3.8296 1.3182 0.815 -0.418 -0.401 51 50 55 0 0
1.8043 3.8028 1.3234 0.851 -0.505 -0.141 44 43 48 0 0
1.7224 3.7935 1.3514 0.926 0.273 0.261 57 55 58 0 0
1.6999 2.7890 1.3855 0.889 -0.412 -0.198 18 18 19 0 0
1.6943 2.7757 1.3878 0.889 -0.412 -0.198 19 19 21 0 0
1.6944 2.7586 1.3882 0.857 -0.378 -0.350 28 28 30 0 0
1.1944 2.5716 1.5625 0.404 -0.802 -0.440 20 21 26 0 0
1.8296 3.9185 1.3278 0.978 0.000 -0.210 173 171 172 0 0
1.8297 3.8995 1.3283 0.978 0.000 -0.210 167 164 165 0 0
1.8279 3.8820 1.3293 0.920 0.302 -0.248 119 118 118 0 0
1.8279 3.8443 1.3303 0.885 -0.190 -0.425 62 63 65 0 0
1.8024 3.8086 1.3399 0.416 -0.823 -0.388 43 42 47 0 0
1.6415 2.7114 1.4228 0.247 -0.517 -0.820 14 13 18 0 0
1.1275 2.5966 1.6006 0.182 -0.965 -0.187 39 39 45 0 0
0.9887 2.6070 1.6475 -0.274 -0.959 -0.071 101 102 101 0 0
1.8292 3.9423 1.3434 0.984 0.175 -0.031 173 173 173 0 0
1.8092 3.8075 1.3536 0.399 -0.575 -0.714 40 39 44 0 0
1.1758 2.6236 1.5995 0.214 -0.977 -0.010 32 33 38 0 0
1.1307 2.5980 1.6156 0.307 -0.914 -0.266 47 48 53 0 0
1.8270 3.8916 1.3615 0.830 0.551 -0.087 156 154 155 0 0
1.8491 3.8545 1.3549 0.847 0.524 -0.092 94 94 96 0 0
1.2229 2.6337 1.5992 -0.318 -0.908 -0.274 57 57 59 0 0
1.2022 2.6287 1.6065 -0.124 -0.950 -0.285 50 49 53 0 0
1.1868 2.6204 1.6119 0.037 -0.968 -0.250 41 40 46 0 0
1.1622 2.6176 1.6205 0.360 -0.618 -0.699 40 39 45 0 0
1.1512 2.6066 1.6245 0.360 -0.618 -0.699 44 43 49 0 0
1.1443 2.5933 1.6272 0.241 -0.755 -0.610 50 49 55 0 0
1.8472 3.8605 1.3714 0.847 0.524 -0.092 97 98 99 0 0
1.1806 2.6100 1.6304 0.173 -0.465 -0.868 40 39 45 0 0
1.1684 2.5998 1.6349 0.195 -0.629 -0.752 47 46 51 0 0
1.1655 2.5841 1.6362 0.097 -0.953 -0.288 60 59 64 0 0
1.8248 3.9404 1.3934 0.981 0.136 -0.138 172 172 172 0 0
1.8277 3.9189 1.3929 0.981 0.136 -0.138 172 171 172 0 0
1.7045 2.7351 1.4621 0.562 -0.610 -0.559 61 59 61 0 0
1.6967 2.6894 1.4658 0.961 -0.113 -0.252 44 42 43 0 0
1.6449 2.6888 1.4838 -0.295 -0.781 -0.551 24 22 25 0 0
1.2015 2.6009 1.6395 0.100 -0.370 -0.923 46 45 50 0 0
1.1955 2.5871 1.6419 0.130 -0.904 -0.408 57 57 58 0 0
1.8216 3.9475 1.4106 0.947 0.233 -0.220 173 173 173 0 0
1.8248 3.9067 1.4103 0.820 0.511 -0.257 166 165 166 0 0
1.8924 3.7014 1.3912 0.325 -0.081 -0.942 40 40 41 0 0
1.7636 3.6740 1.4367 0.433 -0.901 -0.006 32 32 34 0 0
1.7138 2.7325 1.4743 0.562 -0.610 -0.559 97 95 97 0 0
1.7145 2.7151 1.4744 0.746 -0.662 -0.067 93 91 92 0 0
1.2266 2.5721 1.6475 0.024 -0.868 -0.496 76 76 78 0 0
1.8491 3.9481 1.4171 0.903 0.150 -0.402 174 174 174 0 0
1.8039 3.9476 1.4330 0.802 0.496 -0.333 172 171 171 0 0
1.6837 2.6876 1.5011 0.041 -0.539 -0.842 80 78 81 0 0
1.6562 2.6713 1.5111 0.657 0.258 -0.709 93 91 94 0 0
1.6420 2.6634 1.5162 0.560 -0.294 -0.774 93 91 94 0 0
1.5314 3.2670 1.5586 0.881 -0.387 0.274 12 12 14 0 0
1.6919 2.7026 1.5134 0.324 -0.802 -0.502 94 92 94 0 0
1.3215 2.5740 1.6462 -0.097 -0.709 -0.698 71 69 74 0 0
1.1438 2.5750 1.7086 -0.039 -0.999 0.038 49 46 53 0 0
1.0828 2.5930 1.7297 -0.118 -0.987 0.110 55 52 59 0 0
0.9647 2.5906 1.7713 -0.136 -0.956 -0.261 91 87 91 0 0
1.8654 3.9054 1.4445 0.879 0.111 -0.464 170 169 169 0 0
1.8705 3.8822 1.4432 0.853 0.247 -0.460 129 128 127 0 0
1.7762 2.7189 1.4987 0.559 -0.782 -0.276 95 93 96 0 0
1.7102 2.6436 1.5235 0.523 -0.631 0.574 82 82 84 0 0
1.3718 2.5815 1.6442 -0.022 -0.940 -0.342 65 63 68 0 0
0.9704 2.5906 1.7858 0.004 -0.971 -0.238 86 83 86 0 0
1.8782 3.8802 1.4566 0.872 0.329 -0.363 122 121 120 0 0
1.8644 3.8161 1.4627 0.982 -0.098 -0.163 47 46 49 0 0
1.8605 3.8005 1.4643 0.891 -0.453 -0.030 44 44 47 0 0
1.8544 3.7867 1.4667 0.917 -0.396 -0.050 45 44 49 0 0
1.6252 3.2623 1.5577 0.955 -0.112 -0.275 19 19 21 0 0
1.6820 2.6481 1.5487 0.495 -0.650 0.577 108 107 109 0 0
1.8624 3.8033 1.4797 0.891 -0.453 -0.030 42 42 45 0 0
1.7749 2.7265 1.5297 0.654 -0.748 0.113 94 92 95 0 0
1.7021 2.6723 1.5566 0.593 -0.612 0.523 105 105 107 0 0
1.8480 3.9524 1.4984 0.868 0.488 -0.091 173 173 173 0 0
1.8842 3.8841 1.4866 0.876 0.472 -0.105 154 152 153 0 0
1.9003 3.8519 1.4814 0.871 0.473 -0.134 93 94 96 0 0
1.5977 3.2897 1.5991 0.608 -0.646 0.462 20 20 22 0 0
1.8987 2.7659 1.5000 0.411 -0.860 0.302 77 74 75 0 0
1.7105 2.6872 1.5687 0.538 -0.732 0.419 99 99 101 0 0
0.9579 2.5898 1.8399 0.254 -0.951 -0.174 76 78 78 0 0
0.9532 2.5748 1.8418 -0.115 -0.980 -0.166 87 86 87 0 0
1.8845 3.8884 1.5026 0.868 0.488 -0.091 162 160 161 0 0
1.9032 3.8539 1.4964 0.868 0.488 -0.091 99 100 102 0 0
1.9125 2.7600 1.5103 0.666 -0.673 -0.324 105 101 102 0 0
1.7203 2.6842 1.5807 0.320 -0.388 -0.864 62 62 64 0 0
0.9630 2.5725 1.8549 -0.015 -0.993 -0.120 82 83 82 0 0
0.9330 2.5719 1.8657 -0.154 -0.973 -0.173 91 92 91 0 0
1.8718 3.9224 1.5228 0.933 0.357 -0.041 174 172 173 0 0
1.8823 3.8946 1.5194 0.933 0.357 -0.041 166 165 165 0 0
1.9317 2.9371 1.5159 0.057 -0.324 -0.944 18 18 20 0 0
1.9146 2.9319 1.5222 -0.092 -0.424 -0.901 12 12 14 0 0
1.8981 2.9263 1.5283 -0.061 -0.177 -0.982 12 12 14 0 0
0.9427 2.5696 1.8789 -0.068 -0.991 -0.112 88 89 88 0 0
0.8747 2.5725 1.9034 -0.367 -0.907 -0.208 128 128 128 0 0
1.8811 3.9001 1.5360 0.909 0.402 -0.110 167 166 165 0 0
1.8532 3.8853 1.5463 0.965 -0.207 0.159 84 84 87 0 0
0.9521 2.5675 1.8921 -0.068 -0.991 -0.112 83 84 83 0 0
0.8335 2.5810 1.9350 -0.371 -0.906 -0.205 154 155 155 0 0
1.8233 3.8573 1.5738 0.957 0.287 0.035 64 65 67 0 0
1.9124 3.7654 1.5426 0.822 -0.043 0.567 60 60 64 0 0
1.9048 3.7342 1.5457 0.766 -0.056 0.640 57 56 61 0 0
1.9243 2.8131 1.5509 0.368 -0.753 0.546 91 89 91 0 0
1.9076 2.8075 1.5571 0.405 -0.818 0.408 94 92 92 0 0
1.5574 2.6277 1.6872 0.411 -0.731 0.545 43 42 47 0 0
0.9410 2.5593 1.9129 -0.133 -0.978 -0.162 88 88 88 0 0
1.9187 3.7646 1.5563 0.915 0.088 0.393 42 42 45 0 0
1.9145 3.7494 1.5581 0.828 -0.200 0.524 45 44 49 0 0
1.9006 3.7419 1.5632 0.645 -0.228 0.729 48 47 52 0 0
0.9835 2.5561 1.9140 0.083 -0.995 -0.050 72 72 72 0 0
1.8584 3.9516 1.5924 0.827 0.135 -0.545 170 168 170 0 0
1.8686 3.9240 1.5890 0.894 0.133 -0.428 121 119 122 0 0
1.8729 3.8822 1.5878 0.876 0.262 -0.406 63 63 68 0 0
1.8998 3.7844 1.5791 0.839 -0.363 0.406 43 43 46 0 0
1.8675 3.9485 1.6054 0.827 0.135 -0.545 170 167 168 0 0
1.8717 3.9258 1.6041 0.883 0.303 -0.357 113 111 114 0 0
1.8771 3.9022 1.6023 0.902 0.287 -0.323 78 78 82 0 0
1.8591 3.8791 1.6092 0.913 -0.360 -0.189 54 53 58 0 0
1.8671 3.8535 1.6066 0.930 -0.326 -0.170 47 46 51 0 0
1.8560 3.8437 1.6108 0.825 -0.534 -0.187 44 43 48 0 0
1.9044 3.7850 1.5935 0.783 -0.301 -0.544 44 43 47 0 0
1.9004 3.7696 1.5952 0.902 -0.432 -0.028 47 45 48 0 0
1.8831 3.7649 1.6016 0.734 -0.678 -0.034 50 48 51 0 0
2.0676 3.2207 1.5393 0.517 -0.622 0.588 35 35 37 0 0
1.9988 2.8570 1.5687 0.611 -0.777 -0.153 87 86 83 0 0
1.8792 3.9241 1.6176 0.865 0.228 -0.448 119 118 120 0 0
1.8845 3.9006 1.6159 0.865 0.228 -0.448 81 81 85 0 0
1.8949 3.7972 1.6131 0.809 0.219 -0.545 42 40 44 0 0
1.9022 3.7725 1.6106 0.995 -0.101 0.006 41 39 42 0 0
0.8892 2.7093 1.9973 0.058 -0.935 0.350 46 47 51 0 0
1.8895 3.9200 1.6301 0.907 0.029 -0.421 140 139 141 0 0
1.8996 3.8166 1.6273 0.648 -0.263 -0.715 46 44 49 0 0
1.8913 3.8046 1.6305 0.678 0.060 -0.733 42 39 43 0 0
1.9719 2.8488 1.6092 0.786 -0.498 -0.366 40 40 40 0 0
0.9343 2.7044 1.9975 0.114 -0.960 -0.255 44 45 49 0 0
0.9142 2.6981 2.0050 0.276 -0.910 -0.309 45 46 50 0 0
0.9840 2.5865 1.9801 0.019 -0.948 0.316 52 52 55 0 0
1.9104 3.8121 1.6395 0.801 -0.275 -0.532 51 50 55 0 0
1.9062 3.7967 1.6412 0.827 -0.164 -0.538 45 44 48 0 0
1.9036 3.7800 1.6423 0.827 -0.164 -0.538 42 40 44 0 0
1.9470 3.7071 1.6266 0.095 0.097 -0.991 44 42 46 0 0
1.9920 2.8384 1.6171 0.512 0.019 -0.859 21 22 23 0 0
0.9574 2.7122 2.0056 -0.080 -0.002 -0.997 43 44 48 0 0
1.8771 3.9011 1.6675 0.251 -0.948 -0.197 81 81 83 0 0
1.9171 3.9103 1.6687 0.820 -0.571 -0.032 167 165 166 0 0
1.9080 3.8989 1.6722 0.793 -0.606 -0.068 116 116 116 0 0
1.8991 3.8873 1.6756 0.932 -0.349 -0.099 89 89 90 0 0
1.9931 2.9300 1.6466 0.903 0.367 -0.225 27 27 29 0 0
1.0928 2.6395 1.9887 -0.233 -0.119 -0.965 42 43 47 0 0
1.9969 2.9309 1.6605 0.354 0.436 -0.827 16 16 18 0 0
1.9671 2.7815 1.6727 0.285 -0.840 0.461 46 47 49 0 0
0.8925 2.5625 2.0818 -0.103 -0.949 0.297 111 111 109 0 0
2.0347 2.8908 1.6616 0.371 0.197 -0.907 14 15 17 0 0
0.8303 2.5828 2.1223 -0.095 -0.924 0.371 169 169 169 0 0
1.9773 3.7226 1.6954 0.870 0.146 0.471 40 39 44 0 0
2.0382 2.8241 1.6759 0.556 -0.762 0.332 47 47 51 0 0
2.0252 2.8162 1.6809 0.562 -0.764 0.316 46 45 50 0 0
1.9780 2.7979 1.6990 0.309 -0.858 0.410 36 37 42 0 0
1.9653 3.7556 1.7160 0.867 -0.056 0.495 40 39 44 0 0
1.9629 3.7388 1.7169 0.870 0.146 0.471 41 40 45 0 0
2.0512 2.9375 1.6857 0.599 -0.535 -0.596 29 29 31 0 0
2.0744 2.8700 1.6770 0.508 -0.856 -0.093 45 46 49 0 0
1.8826 3.8852 1.7637 0.807 -0.384 -0.449 49 48 53 0 0
2.0505 2.8565 1.7015 0.834 -0.524 -0.173 44 44 48 0 0
2.0242 2.8240 1.7117 0.706 -0.646 0.290 65 64 69 0 0
0.9523 2.5774 2.1263 0.016 -0.987 0.161 74 75 74 0 0
2.0605 2.8700 1.7129 0.859 -0.511 0.002 32 33 37 0 0
2.0529 2.8584 1.7159 0.815 -0.384 0.434 30 31 33 0 0
2.0654 2.8701 1.7262 0.515 -0.624 0.588 33 34 38 0 0
2.0454 2.8671 1.7340 0.576 -0.493 0.652 40 41 43 0 0
2.0107 2.8574 1.7476 0.567 -0.335 0.752 30 31 33 0 0
1.9092 3.8004 1.8025 0.855 0.517 -0.042 41 40 45 0 0
2.0357 3.2425 1.7531 0.092 0.369 -0.925 33 32 37 0 0
2.0719 2.8861 1.7390 0.508 -0.679 0.531 39 40 44 0 0
2.0361 2.8773 1.7530 0.485 -0.594 0.642 30 31 33 0 0
2.0015 2.8845 1.7665 0.567 -0.335 0.752 23 24 26 0 0
1.9902 2.8753 1.7709 0.567 -0.335 0.752 21 22 24 0 0
2.1280 2.9690 1.7323 0.946 -0.306 -0.109 47 46 51 0 0
1.8932 3.8034 1.8416 0.868 0.229 0.441 41 40 45 0 0
2.2387 2.9636 1.7190 0.809 -0.273 0.521 44 43 48 0 0
2.1892 2.9867 1.7540 0.377 -0.336 0.863 42 41 46 0 0
1.9181 3.9299 1.8814 0.224 -0.974 -0.024 76 77 79 0 0
1.9439 3.8509 1.8708 0.775 -0.120 -0.621 48 45 54 0 0
2.2391 3.0047 1.7493 0.565 -0.681 0.466 40 39 44 0 0
2.0147 3.9293 1.8592 0.445 -0.530 -0.722 178 178 178 0 0
1.9570 3.8444 1.8819 0.823 -0.325 -0.467 47 44 53 0 0
1.9221 3.8589 1.9124 -0.078 -0.965 -0.251 45 42 50 0 0
0.9429 2.6155 2.2996 0.367 -0.925 -0.095 63 64 67 0 0
0.9479 2.6160 2.3147 0.367 -0.925 -0.095 62 62 64 0 0
0.9301 2.6081 2.3218 0.367 -0.925 -0.095 67 68 70 0 0
2.0517 3.7124 1.9240 0.791 0.582 -0.189 65 63 69 0 0
1.6232 2.5635 2.1208 0.894 -0.398 0.207 60 59 64 0 0
0.9769 2.5687 2.4220 0.277 -0.910 -0.308 65 65 69 0 0
0.9828 2.5686 2.4366 0.279 -0.909 -0.309 62 61 66 0 0
1.9598 3.8916 2.0626 0.900 -0.434 0.042 77 77 79 0 0
2.0452 2.7445 2.0104 0.193 -0.062 -0.979 13 14 16 0 0
2.0383 2.6649 2.0121 0.594 -0.712 0.375 46 47 52 0 0
1.7078 2.4904 2.1483 0.492 -0.411 -0.768 68 68 70 0 0
2.0705 2.6970 2.0145 0.822 -0.529 0.209 43 44 48 0 0
2.0570 2.6893 2.0200 0.728 -0.643 0.240 45 46 50 0 0
1.9058 2.6721 2.0835 0.414 -0.539 0.734 47 48 52 0 0
1.7266 2.4821 2.1561 0.353 -0.690 -0.631 60 60 62 0 0
1.9569 3.9418 2.0979 0.739 0.474 -0.479 149 149 149 0 0
1.9904 3.8750 2.0826 0.775 0.473 -0.419 77 76 82 0 0
2.0833 2.7254 2.0249 0.833 -0.538 0.131 38 39 43 0 0
2.0754 2.7139 2.0281 0.833 -0.538 0.131 43 44 49 0 0
2.0472 2.6825 2.0395 0.760 -0.631 0.156 50 51 55 0 0
1.9676 3.9373 2.1099 0.757 -0.025 -0.653 158 158 158 0 0
1.9670 3.9185 2.1099 0.757 -0.025 -0.653 103 103 106 0 0
1.9990 3.8723 2.0955 0.807 0.484 -0.339 84 83 89 0 0
2.0814 2.7301 2.0412 0.764 -0.626 0.155 45 46 50 0 0
2.0721 2.7197 2.0450 0.764 -0.626 0.155 48 49 54 0 0
2.1300 2.7507 2.0363 0.301 -0.953 0.035 31 32 34 0 0
2.0939 2.7589 2.0519 0.784 -0.210 -0.585 38 39 41 0 0
2.0894 2.7451 2.0536 0.771 -0.477 -0.422 43 44 47 0 0
2.0798 2.7348 2.0575 0.788 -0.532 -0.309 47 48 52 0 0
2.0753 2.7209 2.0591 0.607 -0.731 -0.313 48 49 54 0 0
2.1485 2.7583 2.0440 0.367 -0.929 0.049 34 35 38 0 0
2.1063 2.7708 2.0623 0.625 -0.396 -0.673 41 42 45 0 0
2.1023 2.7566 2.0637 0.766 -0.333 -0.550 45 46 48 0 0
2.0870 2.7333 2.0698 0.684 -0.466 -0.561 48 49 53 0 0
2.0788 2.7221 2.0731 0.649 -0.688 -0.324 49 50 53 0 0
2.0581 2.7193 2.0820 0.535 -0.844 0.041 44 45 48 0 0
2.0468 2.7101 2.0866 0.595 -0.804 0.008 33 34 37 0 0
2.0416 2.6967 2.0886 0.666 -0.683 0.300 30 31 34 0 0
2.0267 2.6899 2.0948 0.976 -0.133 0.175 33 34 37 0 0
2.1197 2.7819 2.0722 0.755 -0.395 -0.524 42 43 47 0 0
2.1143 2.7688 2.0743 0.755 -0.395 -0.524 46 47 51 0 0
2.1067 2.7571 2.0773 0.888 -0.265 -0.376 50 51 54 0 0
2.0995 2.7451 2.0801 0.890 -0.270 -0.368 50 51 53 0 0
2.0950 2.7313 2.0818 0.825 -0.418 -0.379 48 49 51 0 0
2.0831 2.7226 2.0868 0.779 -0.615 -0.121 41 42 44 0 0
2.0705 2.7143 2.0920 0.581 -0.814 0.024 31 32 34 0 0
2.0438 2.6987 2.1032 0.734 -0.646 0.209 33 34 36 0 0
0.9677 2.4926 2.5618 0.476 -0.057 -0.878 151 151 151 0 0
2.0691 3.9268 2.1327 0.093 -0.763 -0.640 205 205 205 0 0
2.1709 3.5225 2.0806 0.744 0.639 -0.195 33 33 35 0 0
2.1323 2.8106 2.0828 0.447 -0.126 -0.886 38 38 41 0 0
2.1322 2.7937 2.0825 0.455 -0.426 -0.782 42 43 47 0 0
2.1248 2.7819 2.0855 0.588 -0.374 -0.717 47 48 52 0 0
2.1192 2.7689 2.0876 0.588 -0.374 -0.717 48 49 53 0 0
2.1127 2.7565 2.0902 0.712 -0.215 -0.669 49 50 53 0 0
2.1060 2.7442 2.0928 0.860 -0.248 -0.446 44 45 47 0 0
2.1002 2.7312 2.0951 0.830 -0.471 -0.299 35 36 38 0 0
2.0744 2.7151 2.1058 0.553 -0.833 0.040 31 32 34 0 0
0.8777 2.8024 2.6241 0.641 -0.079 -0.764 48 49 54 0 0
0.9840 2.4867 2.5718 0.432 -0.306 -0.848 160 160 160 0 0
2.0837 3.9188 2.1428 -0.026 -0.802 -0.597 206 206 206 0 0
2.1751 3.0587 2.0850 0.381 -0.146 -0.913 36 35 40 0 0
2.1429 2.8067 2.0936 0.536 -0.268 -0.801 43 43 48 0 0
2.1406 2.7914 2.0943 0.547 -0.296 -0.783 46 47 51 0 0
2.1070 2.7301 2.1076 0.721 -0.545 -0.428 26 27 29 0 0
0.9997 2.4812 2.5821 0.467 -0.208 -0.859 171 171 171 0 0
2.1798 3.0416 2.0983 0.605 -0.024 -0.796 43 42 47 0 0
2.1778 3.0257 2.0988 0.638 -0.050 -0.768 43 42 47 0 0
1.0157 2.4754 2.5921 0.467 -0.208 -0.859 179 179 181 0 0
2.0919 3.7306 2.1680 0.941 0.338 -0.018 69 71 75 0 0
2.1798 3.0978 2.1152 0.815 -0.121 0.566 48 47 52 0 0
2.1289 2.9785 2.1347 0.448 0.550 -0.705 44 43 48 0 0
1.0436 2.4808 2.5973 0.118 -0.950 -0.288 142 142 144 0 0
2.1504 3.0536 2.1427 0.748 -0.029 0.663 46 45 50 0 0
2.1515 2.9313 2.1394 0.685 0.689 -0.237 45 45 48 0 0
2.1846 2.8902 2.1238 0.644 0.662 -0.383 46 45 50 0 0
2.1226 3.0955 2.1717 0.714 -0.016 0.700 42 41 46 0 0
2.1069 2.8672 2.1887 0.376 -0.459 0.805 15 16 18 0 0
1.1150 2.5034 2.6177 0.354 -0.901 -0.251 92 94 93 0 0
2.1662 3.5931 2.1971 0.673 0.619 -0.405 53 54 59 0 0
2.0736 3.8063 2.2604 0.747 0.574 -0.336 93 93 93 0 0
2.0991 3.7658 2.2480 0.747 0.574 -0.336 83 83 83 0 0
2.1063 3.7408 2.2441 0.851 0.443 -0.281 77 77 79 0 0
2.1128 3.7164 2.2405 0.983 0.092 -0.158 71 70 76 0 0
1.2089 2.5268 2.6107 0.306 -0.882 0.360 70 70 72 0 0
1.1082 2.5316 2.6556 0.692 0.179 -0.700 97 98 100 0 0
1.1482 2.5120 2.6544 0.472 -0.795 0.382 118 118 118 0 0
1.1911 2.5260 2.6526 0.381 -0.773 0.507 97 97 97 0 0
2.1046 3.7490 2.4106 0.693 0.721 0.034 103 105 105 0 0
2.1981 2.8119 2.3337 0.878 -0.103 0.468 39 38 44 0 0
1.9738 2.6588 2.4320 -0.018 -0.080 -0.997 47 46 51 0 0
1.8932 2.6778 2.4700 0.640 0.200 0.742 49 48 53 0 0
2.2100 2.8584 2.3456 0.076 -0.598 0.798 44 43 48 0 0
2.2509 2.9356 2.3451 0.792 -0.253 0.556 48 47 52 0 0
2.2452 2.9226 2.3473 0.792 -0.253 0.556 47 46 51 0 0
1.4312 2.5586 2.7130 0.033 -0.757 0.653 51 50 56 0 0
2.1791 3.6060 2.4202 0.575 0.421 -0.702 63 64 68 0 0
2.2049 3.5476 2.4059 0.304 0.274 -0.912 56 57 61 0 0
2.2430 2.9279 2.3643 0.932 0.025 0.361 45 44 49 0 0
2.2290 2.9036 2.3699 0.952 0.238 -0.191 45 44 49 0 0
2.1142 2.7791 2.4188 -0.367 -0.930 0.011 39 40 44 0 0
2.0252 2.6350 2.4549 0.297 -0.817 0.494 37 37 40 0 0
1.3750 2.5781 2.7568 -0.131 -0.652 -0.747 55 54 59 0 0
1.3966 2.5475 2.7455 -0.169 -0.515 -0.840 65 65 66 0 0
2.1333 3.6295 2.4591 0.030 -0.252 -0.967 68 69 71 0 0
2.3298 3.1101 2.3464 0.828 -0.321 -0.460 37 37 40 0 0
1.1623 2.5647 2.8731 0.561 -0.540 0.627 160 160 160 0 0
1.1506 2.5535 2.8781 0.750 -0.117 0.651 197 197 197 0 0
2.1932 3.5102 2.4426 0.653 0.095 -0.751 54 54 57 0 0
2.1800 3.5025 2.4485 0.940 0.302 -0.160 50 50 53 0 0
2.1859 3.4793 2.4448 0.957 -0.069 -0.282 46 47 51 0 0
2.0968 2.6617 2.4539 0.568 0.053 -0.821 78 77 79 0 0
2.0806 2.6556 2.4613 0.546 -0.795 0.265 79 78 80 0 0
2.2083 3.4653 2.4500 0.465 -0.093 -0.880 50 51 55 0 0
2.2057 3.4307 2.4498 0.153 -0.562 -0.813 45 46 51 0 0
2.1969 3.4195 2.4535 -0.149 -0.614 -0.775 43 43 48 0 0
2.2749 3.0721 2.4023 0.952 0.171 0.253 36 36 36 0 0
2.2617 2.8909 2.4011 0.785 0.103 -0.611 43 42 47 0 0
1.1642 2.5702 2.9070 0.312 -0.918 0.245 95 97 96 0 0
1.1134 2.5818 2.9316 0.832 0.156 0.533 122 124 123 0 0
1.1233 2.5580 2.9259 0.761 0.412 0.500 174 176 175 0 0
1.1263 2.5596 2.9419 -0.267 -0.853 -0.448 132 134 133 0 0
1.1074 2.5525 2.9506 0.816 0.430 0.387 185 186 185 0 0
2.2486 2.9599 2.4418 -0.172 -0.803 -0.571 32 31 36 0 0
2.2686 2.9278 2.4309 0.828 -0.398 0.396 30 29 34 0 0
1.1811 2.5492 2.9328 -0.163 -0.835 -0.525 88 90 89 0 0
2.2644 2.9174 2.4482 0.987 0.123 0.103 28 28 30 0 0
2.2713 3.3766 2.4811 0.998 -0.039 -0.055 58 58 62 0 0
2.2430 3.3811 2.4949 0.945 0.253 -0.208 57 57 59 0 0
2.2482 3.3587 2.4914 0.945 0.253 -0.208 56 56 58 0 0
2.2520 2.9302 2.4705 0.932 0.128 0.339 29 29 31 0 0
2.2453 2.9178 2.4732 0.903 0.398 0.160 27 27 29 0 0
2.3110 2.7845 2.4357 0.968 -0.237 0.085 16 15 20 0 0
2.2733 2.7606 2.4527 0.471 -0.856 0.211 13 14 16 0 0
2.0167 2.6478 2.5708 0.325 -0.822 0.468 21 20 25 0 0
2.2461 3.4193 2.5114 0.949 -0.251 -0.189 58 57 62 0 0
2.2465 3.4007 2.5104 0.987 -0.134 -0.084 58 57 61 0 0
2.2516 3.3601 2.5061 0.897 -0.100 0.431 57 57 59 0 0
2.2497 3.3435 2.5062 0.897 -0.100 0.431 57 57 59 0 0
2.2474 3.3272 2.5066 0.906 -0.153 0.395 56 56 60 0 0
2.2615 3.2083 2.4944 0.679 0.257 -0.688 48 47 52 0 0
2.2476 3.1834 2.5000 0.281 0.283 -0.917 46 45 50 0 0
2.2328 2.9829 2.4980 -0.215 -0.284 -0.934 36 36 38 0 0
2.2462 2.9382 2.4895 0.951 0.216 0.221 35 34 38 0 0
2.2389 2.9262 2.4924 0.896 0.431 0.105 34 34 38 0 0
2.2772 2.7614 2.4665 0.494 -0.850 0.182 24 25 27 0 0
2.0239 2.6636 2.5841 0.748 0.024 0.664 35 35 38 0 0
2.0353 2.6389 2.5775 0.375 -0.679 -0.631 37 37 40 0 0
1.7893 2.5763 2.6931 -0.147 -0.755 -0.639 55 55 57 0 0
1.2545 2.5521 2.9497 0.127 -0.957 -0.259 71 70 73 0 0
2.2521 3.4736 2.5273 0.994 -0.008 -0.110 38 37 42 0 0
2.2709 3.3489 2.5124 0.865 -0.114 -0.488 55 55 57 0 0
2.2709 3.3308 2.5116 0.907 -0.382 -0.176 57 57 59 0 0
2.2663 3.3164 2.5131 0.931 -0.363 0.040 56 55 59 0 0
2.2756 3.1303 2.5000 0.459 0.015 -0.888 48 47 52 0 0
2.3082 2.8108 2.4694 0.773 -0.634 -0.011 39 39 43 0 0
2.2997 2.7999 2.4731 0.675 -0.737 -0.035 39 40 44 0 0
2.2927 2.7879 2.4759 0.660 -0.748 -0.075 37 38 41 0 0
1.7756 2.5712 2.7158 -0.143 -0.989 -0.026 59 59 61 0 0
1.2331 2.5501 2.9771 0.378 -0.911 -0.167 71 70 74 0 0
1.9714 4.1189 2.7103 0.200 -0.946 0.254 202 202 203 0 0
2.2873 3.1469 2.5271 0.968 0.083 -0.238 46 45 50 0 0
2.2892 3.0924 2.5236 0.547 -0.836 0.042 47 46 51 0 0
2.2668 3.0742 2.5336 0.528 -0.828 0.187 47 46 51 0 0
2.2549 3.0656 2.5390 0.707 -0.638 0.305 47 46 51 0 0
2.2988 2.8421 2.5069 0.637 -0.588 0.499 42 43 47 0 0
2.3109 2.8162 2.4998 0.797 -0.588 -0.138 43 44 48 0 0
1.8867 2.5587 2.6939 0.285 -0.853 0.438 42 42 44 0 0
2.2800 3.3723 2.5578 0.939 0.022 0.344 47 47 49 0 0
2.2805 3.3537 2.5566 0.948 -0.007 0.318 47 47 49 0 0
2.2939 3.1635 2.5407 0.962 0.186 0.200 35 34 39 0 0
2.2980 3.1426 2.5377 0.955 0.226 0.194 37 36 41 0 0
2.3018 2.8779 2.5229 0.983 0.045 0.176 47 46 51 0 0
2.2308 2.7746 2.5525 0.255 -0.946 -0.198 42 43 47 0 0
1.8799 2.5664 2.7138 0.205 -0.891 0.404 40 40 42 0 0
2.2890 3.2069 2.5613 0.354 -0.832 -0.428 32 34 38 0 0
2.2732 2.8853 2.5531 0.771 -0.385 0.507 40 40 43 0 0
2.0296 4.0673 2.7488 0.342 0.378 -0.861 85 87 89 0 0
2.0512 4.0731 2.7558 0.498 0.441 -0.747 96 100 99 0 0
2.2661 3.1971 2.6044 0.866 0.356 0.351 53 51 55 0 0
2.0747 4.0572 2.7606 0.578 0.501 -0.644 92 94 94 0 0
2.0947 4.0444 2.7673 0.635 0.542 -0.551 93 93 94 0 0
1.1803 2.5031 3.1574 0.164 -0.911 -0.378 82 84 83 0 0
1.1615 2.4959 3.1664 0.164 -0.911 -0.378 104 106 103 0 0
1.1936 2.4987 3.1680 -0.011 -0.960 -0.278 83 85 84 0 0
1.1729 2.4927 3.1781 0.098 -0.903 -0.418 102 104 101 0 0
2.1468 4.1368 2.8154 0.448 -0.054 -0.892 205 205 205 0 0
1.1998 2.4726 3.2335 0.622 0.684 -0.381 160 160 158 0 0
1.2164 2.4663 3.2422 0.636 0.676 -0.373 158 158 156 0 0
1.2475 2.7084 3.2762 0.408 0.764 -0.500 48 47 53 0 0
2.2335 4.0532 2.8869 0.448 -0.852 0.272 202 202 202 0 0
2.3126 3.7740 2.8451 0.863 0.434 -0.259 65 65 67 0 0
1.5102 2.5413 3.1824 -0.090 0.175 -0.980 47 48 53 0 0
2.2704 3.9169 2.9103 0.254 -0.379 -0.890 101 99 102 0 0
2.3641 3.8429 2.9577 0.849 0.514 -0.128 73 73 75 0 0
2.2526 2.5933 2.9279 0.956 -0.213 0.200 23 24 29 0 0
1.5950 2.5345 3.2745 0.686 -0.568 0.455 68 67 72 0 0
2.2370 4.0196 3.0555 0.741 0.655 -0.152 69 69 73 0 0
2.3420 3.7516 2.9799 0.935 0.318 -0.158 72 72 72 0 0
2.2637 2.5892 2.9377 0.887 -0.445 0.126 28 27 33 0 0
2.2604 2.5781 2.9547 0.892 -0.431 0.134 35 34 39 0 0
2.2528 2.5663 2.9579 0.834 -0.470 0.290 36 35 40 0 0
2.4472 3.4273 2.9330 -0.049 -0.273 -0.961 54 54 57 0 0
2.2408 2.5307 2.9938 -0.130 -0.925 -0.356 45 44 49 0 0
2.1905 2.5475 3.0222 -0.376 -0.615 -0.693 45 44 49 0 0
