ply
format ascii 1.0
element vertex 725
property float x
property float y
property float z
property uchar diffuse_red
property uchar diffuse_green
property uchar diffuse_blue
end_header
0.9070066623685236 3.3662610404483795 1.272963024246977 21 21 23
0.8405692574962198 3.349769205674541 1.2729682578163657 18 18 20
0.8270065698040798 3.359099711995716 1.2721095308285866 15 15 17
0.8056286032544409 3.3645271249691255 1.2713843514512737 13 13 15
0.8117762273315177 3.383571723644294 1.2701975901366147 12 12 14
0.7058569471568581 3.346726706835079 1.2709205041782257 12 12 14
0.7728910530133637 3.3961491098637895 1.2686953464618234 12 12 14
0.8189933760422836 3.4353322161184066 1.266813351927796 12 12 14
0.9066163611481592 3.4957013729928956 1.2641913883983464 12 13 15
0.9038105450888019 3.5105775211060055 1.2631371016857782 14 15 17
0.8767809397939488 3.513126221100087 1.2625123019296913 20 21 23
0.8306848118091541 3.5058360988995343 1.2622347534196499 27 28 30
0.7868090013732467 3.4995185317210393 1.2619284945259326 21 22 24
0.749228852140168 3.4962874756074083 1.2615185595677259 15 16 18
0.7345493889134658 3.5047745102437458 1.2606982646235292 14 15 17
0.700489530305149 3.5191788828000776 1.2591530348004232 15 16 18
0.8061656858867821 3.590565724681543 1.2560870391497851 17 18 20
0.7978360119130159 3.6024725346970086 1.2551414065880115 20 21 23
0.7917012019999681 3.615524865359321 1.2541549253587323 24 25 27
0.8178276169029168 3.6456676827561627 1.25255089475999 33 34 37
0.7686785920455814 3.6358978690750825 1.2523901837021703 36 37 41
0.7331395511927652 3.633213794122861 1.2519773580477684 37 38 42
0.7070790970827543 3.6354850734878186 1.251387558137614 37 38 42
0.7102538323936491 3.6534031280403596 1.2502273438984874 37 38 42
0.695618913676699 3.6617340504828775 1.2494183653995954 36 37 41
0.7000577493377735 3.6803699873426536 1.2482306882426037 36 37 41
0.6514918582229134 3.6701885133599625 1.2481076089373973 38 39 43
0.6858886896322396 3.705166542966348 1.2463145265020987 44 45 49
0.8473429091764937 3.8100158354029663 1.2419157909725649 49 50 54
0.9334868089587922 3.87408933280555 1.2390182409375086 47 48 52
0.9355141388186086 3.8920459659861026 1.23783621789015 43 43 47
1.0827593958806807 3.9906169472847806 1.2336249005706594 43 42 47
1.0791335334877226 4.005792195957694 1.2325366405159077 45 44 49
1.0584616412277308 4.011444187445072 1.2318080665475624 46 45 50
1.0523045929029897 4.0251781291019615 1.2307750576907437 52 50 53
1.0087813459084192 4.017858745590114 1.230542535700046 60 59 61
1.0032459046723576 4.031858926371221 1.229501898024802 75 77 76
1.01476258485773 4.055537048351918 1.2280912016843097 123 123 122
1.0421319922212506 4.088318344019614 1.2263293010712966 161 161 159
1.05590417319908 4.113463611799228 1.2248569915531355 169 169 167
1.0328655306637482 4.117562727750441 1.2241939747497863 170 170 168
0.8512681468304675 4.030243097685268 1.227068680662529 170 170 168
1.1872703233398256 1.9083980384541563 1.3905404235228982 168 168 170
1.2542072349961764 1.943029172197238 1.3894385896478292 168 168 170
1.2930680732936173 1.9694988612622133 1.3883717044860489 168 168 170
1.1968641823245776 1.9553920733185755 1.3875611799010659 167 167 169
1.1319852052035875 1.9504636283794552 1.3867067964447748 161 161 163
1.0759503037328866 1.9480205998698028 1.3858471413224096 106 106 108
1.0298736763268255 1.9484519461803642 1.384976459621543 121 121 123
0.9935433688445562 1.9517453013194848 1.3840917094412892 108 108 110
0.9686577726474591 1.9584800882580873 1.3831850228447085 80 80 81
0.9476615029814365 1.9663580850487095 1.3822726477413312 71 71 73
0.9116181439365272 1.969452292377086 1.381406507453862 64 64 66
0.8701310011217441 1.9707150990652207 1.380563854105157 57 57 59
0.8626987321372969 1.982665185548899 1.379625924432673 54 54 56
0.8431380198850928 1.9907312216052304 1.378727151821998 52 51 54
0.8209727143308819 1.9979075246643672 1.3778405224170187 48 48 52
0.8045555230997624 2.0068786284202993 1.3769384223745906 41 40 46
0.7707100304454555 2.0101454583265856 1.3761008452864545 35 32 39
0.7155381656383822 2.006339761721394 1.3753484260605509 18 17 23
0.6898428999225816 2.0120355341840206 1.3744966929301479 12 13 18
0.6651405093669682 2.0179835354523417 1.3736461666148228 13 14 19
0.6695933440901681 2.033543355155964 1.37268304827117 26 27 30
0.652346617508469 2.0418896718680957 1.3718077335093717 42 43 47
0.6533390430218324 2.0563152892523675 1.3708575344929996 44 45 49
0.6572220151062248 2.071737890972954 1.3698932167484652 43 43 48
0.6437775684417028 2.081310456836803 1.3690050492481232 41 40 45
0.6618085233048744 2.101593111867788 1.3679729525597277 35 35 39
0.6809980823840414 2.1223568173784204 1.366929730424234 25 26 30
0.6936076859451036 2.1409387977630745 1.365912755406159 22 24 28
0.700638309329835 2.1576501117151023 1.3649194333014183 15 14 20
0.7205687558185385 2.178901962534974 1.3638569786280315 13 10 17
0.7341782190784829 2.198029761150662 1.3628216306437906 20 18 22
0.7505174795747727 2.2181872294545597 1.3617670333395675 68 66 68
0.77325307547842 2.2406880253656305 1.3606719868796888 118 116 117
0.8228604436435528 2.2728564873036134 1.3594188854928813 146 144 144
0.8726443346634342 2.3052895883277116 1.3581512447585895 169 168 166
0.924799588684021 2.338778115072725 1.3568560779418652 169 167 168
0.9563482370308767 2.3650284495037583 1.3556703380944024 168 167 169
0.8931047688162485 2.3569685331730317 1.3550560340818372 167 167 169
0.9000179849968916 2.3743164036411843 1.3540178379273544 167 167 169
0.9309729456467744 2.4005342756866543 1.3528234316577894 168 168 170
1.2295184990223595 2.5877572862974296 1.3457097961822677 168 168 170
1.4092995881510153 2.671353883205418 1.343382560972582 168 168 170
1.3496942923308977 2.664633610511155 1.342744794631039 168 168 170
1.286759654671778 2.656437418467994 1.342145279924427 167 167 169
1.2222741873449317 2.6474289849353054 1.3415719568995097 157 157 159
1.160916397318591 2.63940423596257 1.3409897398037638 102 102 104
1.1025007717535578 2.6323085176864494 1.3403989083656698 81 81 83
1.0636859072926703 2.632648309139604 1.3396670301455564 75 75 79
1.0340796224107105 2.636465937657805 1.3388699221540479 69 68 75
0.997747174556539 2.6375449678892364 1.3381337708247916 55 54 61
0.9622538438456646 2.6388373855658203 1.337398624711639 28 27 34
0.9414304164973891 2.6458410228515588 1.3365480990211303 13 13 16
0.9206871642447298 2.6528168454966883 1.3357009050435962 10 10 12
0.9072414482359196 2.662659216006105 1.3347946035484621 10 10 12
0.9863514840820626 2.709758977916051 1.3330781836653876 10 10 12
0.9818029380317992 2.723315458635143 1.3320851035880856 9 10 12
0.9472722928616502 2.724680314702241 1.3313626813310138 9 10 12
0.90579889409246 2.7230957634420734 1.330711409750423 9 10 12
0.808194837077621 2.6983286751890647 1.330590886306955 11 11 13
0.822082442250775 2.719191057031738 1.3294441844266225 12 13 15
0.8199089652438185 2.7334708419021254 1.3284459398379547 13 14 16
0.7964772798680689 2.738912073026394 1.3276526440149523 16 17 19
0.8022933110260411 2.7565141857154307 1.3265773383279909 23 22 25
0.8262931117364568 2.7817977205741453 1.3253185932462255 28 28 30
0.719033188825782 2.751792836319755 1.3253732669026306 33 33 35
0.7416447906480831 2.776458389908976 1.3241306446004275 35 34 39
0.8129212400159495 2.8219586040214115 1.3223784914994487 36 35 40
0.8756578397037106 2.8641002794100503 1.3206957765439538 38 37 42
0.962560140992963 2.9168914244167157 1.318739668010115 38 37 42
0.9611733784816481 2.9319209630308274 1.3177054674216406 38 37 42
0.9983291828259642 2.9636807828214904 1.3162523313686971 38 37 42
1.0457654805355912 3.0000838800348264 1.314675316336725 38 37 42
1.0307673218018683 3.0093713850623414 1.3137779005296846 34 33 37
0.9813878856860758 3.003508690241189 1.3132693746238542 16 16 18
1.0432040808274097 3.0465656531604983 1.3115084064776898 14 14 16
1.0523330737413938 3.066520521189417 1.310335691757579 13 13 15
1.045852542753044 3.079578940314696 1.3093407508988173 11 12 14
0.8456982336522857 3.0059881865065217 1.3106241598488866 11 12 14
0.7979133952789296 3.109060658820294 1.3028324224692596 12 12 14
0.7777858561363642 3.115345281427783 1.3020428735688552 13 13 15
0.5219462555586463 3.0114626630647625 1.3043423846924553 13 13 15
0.5885076464990722 3.0578259316853984 1.302446163881066 15 15 17
0.588895841378364 3.073299230236951 1.3014146005294056 17 17 19
0.5901024656295766 3.08918109557521 1.3003705629338902 20 20 22
0.6395657763534122 3.1280144294729086 1.2986674461877379 22 22 24
0.7044490286719474 3.1744223703424668 1.2967375705061837 22 22 24
0.5483847248208529 3.1152535407324438 1.2978583344468009 20 20 22
0.4753197612295501 3.09541081019422 1.2978555402777137 19 19 21
0.4938595004008648 3.1195503020402344 1.296573845459807 20 21 23
0.5014609543373967 3.13847763818262 1.2954421993986813 22 22 24
0.914998638136501 3.3552029170450464 1.2884488805613132 22 22 24
0.8997362593557932 3.3638654714329235 1.287588588189952 19 20 22
0.8442635930649092 3.352737235421132 1.2873222039863403 17 17 19
0.8378073513578714 3.3655804255890023 1.2863421542229476 14 14 16
0.8231416450202951 3.3743529390469016 1.2854853807853408 12 12 14
0.864705553706359 3.4110467762992496 1.2837815729091946 11 11 13
0.7145326077415048 3.3522013244144175 1.2849882531760168 11 11 13
0.7612444559994158 3.391465903765257 1.2832059251225272 11 12 14
0.8621201869441262 3.4582039750216484 1.280568886852554 12 12 14
0.9484834171588343 3.518039617690224 1.278130064240902 12 13 15
0.9135512344533456 3.516701768975961 1.2775817274579617 16 17 19
0.8885699240897396 3.5203122709644834 1.2768830119471755 22 23 25
0.8397411677047708 3.5116440661187247 1.276572867476305 28 29 31
0.799103498508378 3.5070038430166965 1.2761419768871927 19 20 22
0.76557415944565 3.5058833604598187 1.2756046763961175 14 15 17
0.7465827262455784 3.512172035323456 1.2748356098559883 13 14 16
0.7198892991468155 3.5304691012688196 1.2731197725788976 15 16 18
0.7814422887142269 3.578801337945507 1.27099989012944 18 19 21
0.7872654434717379 3.598101107357961 1.269810758301659 23 24 26
0.7742562131052018 3.60750369606021 1.268941951151544 28 29 31
0.7921752912892408 3.6332666965197915 1.2675399390695625 34 35 38
0.7574266807184025 3.6311011323350364 1.2670505167015371 37 38 42
0.7193143898105026 3.6270161851992557 1.2666284864461896 37 38 42
0.708122059849041 3.637230207053433 1.265738402451772 37 38 42
0.6937292764139824 3.645696232456771 1.2649071879699751 37 38 41
0.6978211980555349 3.6641131204308826 1.263745693966702 34 35 39
0.700725647138241 3.6819243516464586 1.2626031623187604 31 32 35
0.6386252087038553 3.6643685355988405 1.2626471573986364 29 30 34
0.6840319399159369 3.7053462182414325 1.2607259943464415 33 34 39
0.8353277362459828 3.804644283581439 1.2568244191919125 39 40 45
0.9182344973382439 3.866925142120964 1.2541583171890731 41 42 47
0.9529636797257757 3.902935619154945 1.2523755235943574 41 41 46
1.0855008785267988 3.9934046482234886 1.2487239212015924 42 41 46
1.0658416139753986 3.999654295586242 1.2479452744714137 43 42 47
1.0582296714802222 4.01258183023951 1.246938450702488 47 46 50
1.0559344322976063 4.028484898384713 1.2458290178536024 56 54 56
1.0181240851084592 4.024388228893178 1.245413290373194 68 68 69
1.0054928282893987 4.0343963467258135 1.2445107415160777 88 90 89
1.020437945592534 4.060030087837873 1.2430630777652902 141 142 141
1.0364245324810153 4.086343673120849 1.2415888046018133 165 165 163
1.0467863348525788 4.109530897031629 1.2402216369106058 169 169 167
1.0410131645089513 4.12352197558844 1.2391770127575232 170 170 168
0.886145599397637 4.051596557879077 1.241175932702491 170 170 168
1.1799796739076691 1.9072159952685808 1.4046448538450793 168 168 170
1.3452091256832333 1.97114935546578 1.4036635051484234 168 168 170
1.3366838039867797 1.9835752718519233 1.4026678860007884 168 168 170
1.2327981019933456 1.9672190293753817 1.4016986182704425 168 168 170
1.1693487714741893 1.9627827021739246 1.400737125787382 166 166 168
1.120172208691025 1.9624951831076558 1.3997822732039171 162 162 163
1.0674615589370888 1.9609649584312299 1.3988401094634704 116 116 116
1.045240642960708 1.9686806120326175 1.397886638641242 105 105 105
1.0350396769350676 1.980068338499453 1.3969269087340428 118 118 119
1.0108593388612304 1.987069952736263 1.3959821390867593 95 95 97
0.9965914153021472 1.9971173004040794 1.3950310428378918 80 80 82
0.95660200721705 1.9990029905151836 1.3941135533579234 71 71 73
0.915494997914153 2.000407502631818 1.3932059444055722 61 60 63
0.8903869751088036 2.0067952058810823 1.3922836482336582 59 59 63
0.7955041803713909 1.9906835485691363 1.391476416934422 59 58 62
0.8431054555665783 2.0203005951494593 1.390448606656351 47 46 51
0.8024360430775658 2.0214169512418767 1.3895688373599837 51 51 53
0.764215809528152 2.023204268100749 1.3886929331999853 55 55 57
0.6879058123674802 2.012352538353412 1.3879035782845406 58 59 62
0.7031866359714002 2.0315088928339096 1.3869316447778839 51 52 55
0.6936327060975824 2.0424861212857084 1.386012042767364 50 51 53
0.6894028764700768 2.0552248846190797 1.3850806839114194 48 48 53
0.7027188973711576 2.0738597704777915 1.384104532167845 46 46 51
0.7000965023374678 2.0871776687838812 1.3831664766994038 40 40 45
0.7076884020687498 2.1039720622840328 1.382199412550123 32 33 37
0.6761194187104197 2.107442435419887 1.3813432584926653 19 22 25
0.686914784722227 2.1253555432160955 1.38036520714026 18 22 25
0.6969668543404112 2.1430693826393754 1.3793856926586439 18 22 25
0.7112357034397679 2.162300592430804 1.3783887355954563 13 13 17
0.7372915972286782 2.1857125043523262 1.3773470645195238 33 32 35
0.7495721575472261 2.204408863320947 1.3763463144532102 92 88 89
0.7715187497630377 2.226574806354874 1.3753061567394973 126 122 122
0.821325965039994 2.2587094728080106 1.3741545251459997 150 146 146
0.8720686125936835 2.2913792250598046 1.3729858182191226 169 167 166
0.9207808532633083 2.323528002937578 1.3718115608245784 168 168 168
0.9655649639851478 2.354462113529225 1.3706403223711194 168 168 168
1.0076874991996303 2.3846181469940717 1.3694681391604466 168 168 168
0.8959216102703309 2.359009074160981 1.3689584420281746 167 167 168
0.8738816735434425 2.365786538816794 1.368070978783912 168 168 170
1.2374223711670487 2.576226793380883 1.3612693994837564 168 168 170
1.2318931019161161 2.589725931568513 1.36026171200739 168 167 170
1.3995426662387325 2.668761384242437 1.3583234661655355 169 167 170
1.3213092002621396 2.6549327200615864 1.3576940879971335 169 167 170
1.2574016802336168 2.6463053901451277 1.357002372320773 165 163 166
1.1906200199736905 2.6363536109321135 1.356341855163557 128 126 129
1.1336967047790276 2.6299749322226944 1.3556388517349045 87 85 88
1.081159120321777 2.6251021714820473 1.3549225139397056 77 75 79
1.0410577781793897 2.6248973512624096 1.3541419012466736 71 70 76
1.018736556393801 2.631523460342744 1.3532589374781447 62 61 69
0.9702853474990829 2.627801881684321 1.352546938965925 43 42 48
0.9445778590382968 2.6329091474848276 1.3516979647799001 18 17 23
0.9244433577609705 2.640152341976041 1.3508172525781326 12 12 14
0.9027652060356633 2.6467220543190226 1.3499507777499962 10 10 12
0.8904207041681258 2.6569723884499976 1.3490242706112447 10 10 12
0.9954054111094714 2.7144807095422983 1.3472772194235616 10 10 12
0.997963568864832 2.7309337027224623 1.3462331731476527 10 10 12
0.9701312182855657 2.735052086512174 1.3454079103285186 10 10 12
0.9099763335247019 2.725871851919809 1.3448273066707082 11 11 13
0.8215658623508827 2.704877303130944 1.344473152134705 12 12 14
0.8365810397805115 2.726234531058431 1.343349520453376 14 14 16
0.8386986000172126 2.7423226299156735 1.3423210263039187 16 16 18
0.8429830860236575 2.7593405744722492 1.3412735819203088 21 21 23
0.6780852344318243 2.705617635701498 1.3415821398868708 28 26 31
0.8034822911699506 2.7732817559756864 1.3395636483163527 33 31 36
0.7062110275077652 2.7474377137538135 1.3393566632120402 34 33 38
0.742486118009819 2.777878861014025 1.338049696207564 36 35 40
0.8286066241460632 2.8297171438753708 1.3363062841846944 37 36 41
0.9127758833513084 2.881073230472224 1.3345563093913826 38 37 42
0.9521007681707802 2.91349475616917 1.3331779800869696 38 37 42
0.9762002307021491 2.9395131830859627 1.3319241337493635 37 38 43
1.0243970916891607 2.976099500166837 1.3304444136999245 37 38 42
1.0348386670581962 2.996440625631011 1.3292978051802464 37 38 40
1.013915180220812 3.0031133462294264 1.3284394233857955 28 28 30
1.0350262709352387 3.0282064097657577 1.327187959622884 14 14 16
1.053885311758961 3.0524076898989936 1.3259512276352798 13 13 15
1.0569155949841715 3.0696816704883574 1.3248619071612993 12 12 14
1.0642702383302298 3.08891470314872 1.3237278871937572 12 12 14
0.7913038193141899 3.107113889962371 1.317110662255576 12 12 14
0.7579600977060202 3.107235549278623 1.3164421673094688 13 13 15
0.5230819006896849 3.0130740664472477 1.3180553161517423 14 14 16
0.5754553667335935 3.052793445340467 1.3164498565430447 16 16 18
0.5960749016165804 3.0777770537795393 1.3151959397866555 18 18 20
0.6061731029286082 3.0978835384024674 1.3140581424683333 20 20 22
0.6737525256842711 3.1453678546882564 1.3122372033672067 22 22 24
0.7349067616775382 3.190076075516708 1.310473717752397 21 21 23
0.4378163609136372 3.078451661762453 1.3120166116731573 19 20 22
0.4805239405578339 3.1142000923169864 1.3104839212563015 20 21 23
0.9107470223576579 3.3381899686112915 1.3041015076112312 21 22 24
0.902857924819831 3.3504467609393256 1.3031297422153467 20 21 23
0.8401405205686236 3.3358652272681053 1.3028577653638282 17 18 20
0.8382378186096906 3.350930898114047 1.3018176746093557 14 15 17
0.8408895015362607 3.3682566106142997 1.3007174136173105 12 13 15
0.8349556197742465 3.381360990390368 1.2997279780109356 10 11 13
0.9123402144133319 3.4359040452917204 1.2976315798502753 10 11 13
0.7355868686877336 3.3638608220050434 1.298924284267014 10 11 13
0.7593475692248988 3.3916685010729744 1.2975446791786478 11 12 14
0.8822701291248869 3.4695201636470796 1.2947993420639272 11 12 14
0.9526818037678209 3.5213481162585225 1.2927454908475895 13 14 16
0.9365071728408529 3.5295366879553653 1.2918803057753305 17 18 20
0.91163196279474 3.5332468449373056 1.2911407732825537 24 25 27
0.8627602966080774 3.52459899822883 1.290748220347313 29 30 32
0.8227628936517599 3.520331159624705 1.2902400023519813 18 19 21
0.7956107327417277 3.5225455864917934 1.2895548925151878 14 15 17
0.7543062933229032 3.5173417892343743 1.2890830623099077 13 14 16
0.704074688440478 3.523386470598197 1.287685995845141 15 16 18
0.773510032240136 3.575827909656417 1.2855719887822614 20 21 23
0.7692694047517254 3.589820639223491 1.2845569824448408 27 28 30
0.770893833618695 3.60691461792607 1.283451794417246 30 31 33
0.7816885405050793 3.6288986143684405 1.282202870260986 35 36 38
0.7526627005129325 3.6297544133419835 1.2815710480113833 37 38 42
0.7147743459488964 3.6257758679286898 1.2810853531325734 37 38 42
0.6904008516795443 3.6289107822100193 1.2803940317611777 37 38 42
0.6842315054301045 3.6417683269746544 1.2794163559439078 36 37 39
0.6753697085264476 3.6531661552115287 1.2784824772702403 29 30 32
0.6889991104580497 3.676753319581896 1.2771830285885817 25 26 28
0.6230327087699139 3.6570599726142694 1.2771868211122204 21 22 24
0.6738388248763303 3.7009669874162254 1.2752716912098183 23 24 26
0.8197500453948883 3.7973137235265537 1.2717510795797033 33 34 37
0.9093927220283848 3.8632888351289063 1.2691368221646415 40 41 46
0.9613601647546117 3.908823484440178 1.2671363973748435 39 40 43
0.7720698867003517 3.8206469941143415 1.2692542368767095 40 41 45
1.1051366620107297 4.022820770533071 1.2623991126663348 44 45 49
1.0776103159549806 4.0246916850445675 1.2617294476426304 53 54 55
1.055487183226312 4.02950357492128 1.2609711176821747 64 64 62
1.0021969878352572 4.016677240000286 1.2607690710568882 81 81 79
1.007322564187962 4.036698691768912 1.2595384444763176 109 109 107
1.0228639386663299 4.062679856385792 1.258117577334935 155 155 153
1.0384863671725115 4.0887961238190424 1.2566893263650536 167 167 165
1.054189631063736 4.11504806411106 1.2552536493080564 170 170 169
1.0623672008299692 4.137068144184891 1.253950489713259 170 170 170
0.8881525032343434 4.054014580124872 1.2560260557819014 170 170 168
1.2778605773365386 1.9520613913246034 1.4179363852184323 168 168 170
1.3536181857150074 1.989656782192017 1.4170740828864918 168 168 170
1.2930498173344933 1.9863942791270544 1.4159964698294296 168 168 170
1.2528676483923928 1.9891236142610458 1.4149588396058843 168 168 170
1.1995704953557604 1.9877228027130596 1.4139136513520347 167 167 168
1.1494539149593557 1.9871268456648514 1.412883271907221 167 167 168
1.1123232778140446 1.9903819289448947 1.4118761021764306 155 155 156
1.1091347790580361 2.00406958744657 1.4109054028301258 127 127 128
1.0998283819009953 2.0158517607451274 1.409929782907364 121 121 123
1.098115782034761 2.030005584445842 1.4089598432439467 120 120 122
1.0215420068382985 2.0205053470514227 1.4079519661309008 114 114 116
0.9477062277230495 2.0116181829076196 1.4069620987240774 103 103 104
0.9141576723269658 2.0153640972476032 1.405999016097738 97 97 97
0.8667756192817312 2.014558878577226 1.4050408019108964 88 88 89
0.8067850478141535 2.0095234839556024 1.4040924361338853 97 97 98
0.7654221267431507 2.0103456533360324 1.403155373826907 100 100 99
0.727877643673572 2.01228416743421 1.4022261933330527 86 87 85
0.8517992339251925 2.0671896140287824 1.4012503687309505 65 67 66
0.8389761845159794 2.0773564158585804 1.400306217015011 58 59 60
0.7032924758270577 2.0466551650736586 1.3994348260995737 53 53 56
0.7001568553770957 2.0597786120424684 1.3985024627992744 49 48 53
0.6915960624804354 2.071085092009213 1.3975741269458253 46 45 51
0.693575356333965 2.0859390760138257 1.3966368137972627 36 35 39
0.6968257225503508 2.101249652461678 1.395696519830355 26 27 29
0.6889608130045921 2.1127936345146154 1.394767374519417 28 29 31
0.7042022544509855 2.1322601018398486 1.3938089523267727 23 25 27
0.7106279061794574 2.1487570424192697 1.3928581953370847 18 19 21
0.7120019328889954 2.163542301571227 1.3919124955826434 52 52 54
0.7547367919772743 2.192779422821514 1.390896554275848 116 115 116
0.7670449607299458 2.211521070170588 1.38992332365883 138 137 137
0.8217841386243359 2.2452845843806184 1.3888651037133095 158 156 157
0.8728203614536219 2.277955758674609 1.3877998837866494 169 167 168
0.919106560965539 2.3091414961474204 1.3867312385369988 168 167 168
0.972394786048433 2.3430239867093805 1.3856342036856804 168 168 169
1.0136156814210722 2.3727788568371775 1.3845518051776116 168 168 169
0.8972921039863072 2.3457083598459816 1.3838542006217882 167 167 168
0.8620902723831156 2.3477238554787223 1.3829699446954111 168 168 169
1.2524362907869264 2.582927848992963 1.37579069651718 168 168 170
1.3889066419641625 2.649946827002758 1.3742838733241973 168 167 169
1.370362995118283 2.6588137456689434 1.3733033440078772 168 166 169
1.301284718020168 2.648405419677058 1.3725153343101304 167 165 168
1.233190423743964 2.638133647450335 1.3717393214291014 157 155 158
1.1652196938699928 2.627672953563222 1.3709784044901558 100 98 101
1.1080915893952379 2.6211620987268587 1.3701884352610358 81 79 82
1.0633702591094183 2.6192688415232075 1.369358762765693 77 75 78
1.027796050843715 2.620792286025698 1.3684990076302048 70 68 74
0.9921944765406473 2.6221898929551544 1.3676469668664548 55 54 60
0.9588415483087739 2.6243572363252428 1.3667921599096564 30 29 34
0.9336157698695619 2.629632091247606 1.3659058900004954 13 12 17
0.9129880794358549 2.6366579375679073 1.3650022903037806 10 10 12
0.9010223360932105 2.647083718416262 1.3640593581962475 10 10 12
0.8850795229960858 2.6558874242892863 1.3631385092858936 10 10 12
0.997473415937604 2.7163886744521006 1.3615476192102274 10 10 12
0.9876665474849715 2.727839559315689 1.360583164411165 10 10 12
0.9756926154998734 2.7383906117911594 1.3596317963802367 11 11 13
0.8290238474324401 2.6938412176637687 1.3594391699445854 12 12 14
0.8370487835957179 2.712297277813745 1.3583933519859366 13 13 15
0.8470716047957355 2.7316279321095203 1.357332500697971 15 15 17
0.8388949956088623 2.7434702909275925 1.3563770258042276 20 20 22
0.669712611616136 2.6882326198912363 1.356408720026504 26 26 29
0.6472568131827814 2.6937653632034175 1.3555645654576765 33 31 36
0.6473810358607556 2.7087234008047187 1.3545807960590543 36 35 40
0.6637638121714662 2.73056752713319 1.3534899375477976 36 35 40
0.7779556575569868 2.7939914915087263 1.3517446817556598 36 35 40
0.9561661255107601 2.8851614767092713 1.3495360938449734 37 36 41
1.0242655332354265 2.929898142802305 1.348039398491497 38 37 42
0.9435225074859068 2.9109044737237078 1.3475685861572955 38 37 42
0.9951975124286717 2.948825054933323 1.3461708235941874 37 38 43
1.0239615889764868 2.9770239452472533 1.3449251591600306 38 39 43
1.0286668230860214 2.9948673479937535 1.3438488882316613 35 36 39
0.9909904597713245 2.99419190955035 1.3430892722785672 22 23 25
1.0369784846110652 3.030186696667112 1.3416971258782504 14 14 16
1.055783605174387 3.0543728486997415 1.340503522578641 13 13 15
1.0615040546670111 3.072846945840624 1.3394073285566366 12 12 14
1.070693964217281 3.0929102315030144 1.3382803857222971 11 12 14
0.792074848738391 3.092966446375894 1.3323298763344054 12 12 14
0.5274044058547924 2.985927415903647 1.3337395742213598 12 12 14
0.4817998992349304 2.979816304854565 1.333169201387342 14 14 16
0.5296399570230463 3.0172205007879165 1.3317236397956411 15 15 17
0.547823615171783 3.04091383398497 1.3305492714670946 17 17 19
0.5808631376069382 3.0717022390731987 1.3292240936704323 19 19 21
0.6299751887606115 3.1102507769643246 1.3277302166787488 21 21 23
0.7037476721597418 3.160738655966581 1.3259753378205232 21 21 23
0.507127351306824 3.08245949484823 1.3269408921523553 21 21 23
0.44136900173485016 3.0812461555291164 1.3256173710752843 19 20 22
0.9463888277010826 3.3404940477935243 1.3193001066771952 20 21 23
0.9140404261906234 3.340945727755761 1.3185798810938552 21 22 24
0.8330916111371887 3.3175989116705122 1.3183917484874903 19 20 22
0.8512161388316735 3.342437667944848 1.3171405821677231 16 17 19
0.8478813146966231 3.356823920229174 1.3161206903016582 13 14 16
0.8498241648086164 3.3738220546733464 1.3150412014397022 11 12 14
0.8449000082383578 3.3874463263462826 1.3140376365875546 10 11 13
0.7649803232498487 3.3637586256803247 1.3138939495001087 10 11 13
0.7830489427381606 3.388719162981539 1.3126335589288063 10 11 13
0.8118701057539388 3.4191674254533644 1.3112407761375755 10 11 13
0.9137399355039784 3.48654357261458 1.3089718910681798 12 13 15
0.9541416355585672 3.5232732866061354 1.3074120456454974 14 15 17
0.9487907705656726 3.536960184733621 1.30639524324043 16 17 19
0.9200875330094154 3.5387428110580608 1.3056650490444808 26 27 29
0.873589216410785 3.531322083374637 1.30516196267889 28 29 31
0.8297815062905962 3.5251149592224866 1.3046362720521456 19 20 22
0.800834650164608 3.52641624581214 1.3039326204671318 15 16 18
0.7653160130438408 3.5242161479128846 1.3033196036727028 13 14 16
0.6899397631388193 3.5171762326420075 1.3021750382693158 16 17 19
0.7379752165681706 3.5583851040659416 1.300482744539824 22 23 25
0.7291107123866014 3.5698732053782463 1.2995359491433804 29 30 32
0.7486957688528459 3.596374668417467 1.2982063074758137 32 33 35
0.7758909943879528 3.627014411688536 1.2967661935649526 36 37 40
0.7370840956336417 3.6226487849399467 1.2962258003170521 38 39 43
0.7025709579762336 3.6204385439781572 1.2956349136369048 38 39 43
0.6812888649203621 3.6252055038178685 1.2948663107062008 38 39 43
0.6675897519566818 3.6339897740355545 1.2939946326771266 36 37 40
0.6582690233864388 3.6451058378822916 1.2930626340335851 30 31 33
0.6698889512316009 3.667571081832502 1.2918291578981258 25 26 28
0.6235272175135524 3.6585125486419674 1.2914369932432723 21 22 24
0.668185927277622 3.6990682888583883 1.2897156981371205 21 22 24
0.6842809383672868 3.724148814144712 1.288405270468962 29 30 34
0.9019024711792585 3.860394974982276 1.284065278508868 38 39 44
1.005352505283426 3.93440852694037 1.2813924116437307 41 42 44
0.7690180663423112 3.8201704147080786 1.2838816584110404 50 51 54
1.0951964964641225 4.018551844303846 1.2777611233723554 61 62 66
1.0562431956702774 4.014005668564392 1.2772295118026182 71 72 73
1.0551971032787597 4.0306106518146105 1.276112154122635 80 80 78
1.0030962617786827 4.018448546479014 1.2758021626227654 89 89 87
1.0048958359375342 4.036592983653842 1.2746440217718882 101 101 99
1.0244995813151325 4.064881682071707 1.2731969182073763 146 146 144
1.0420747846995262 4.092119905966547 1.2717757922192723 165 165 163
1.0591909855740491 4.119193186075218 1.270355746715645 170 170 169
1.061179008191346 4.137672352193788 1.2691795540877362 170 170 170
0.8876312100240102 4.054975830369785 1.2709288713778792 170 170 168
1.2619687649953115 1.9631502219515116 1.4311862636311672 168 168 170
1.3547868005829489 2.0060325155675987 1.430507515928253 168 168 170
1.3467794331035667 2.0186411581029016 1.4295002421363763 168 168 170
1.305300169768809 2.021013901934613 1.4283960404867668 168 167 170
1.2605668299710353 2.0222569833454918 1.4272912091333088 167 167 170
1.2173987557754782 2.0238422555438507 1.4261998300145051 166 166 169
1.2639704943942256 2.0531884979867034 1.4253475349263232 166 166 169
1.2342143080142682 2.0588552555628197 1.4242962975980102 167 167 169
1.209144140792362 2.0659071446340382 1.4232617592876862 164 164 166
1.0871788260227782 2.042243966979675 1.4220174761432496 160 160 162
1.047610503316506 2.0443667486298134 1.4209733371555637 149 149 151
1.0106080989305424 2.04718579707413 1.4199424063913195 133 133 134
0.9338596068168536 2.037104811223777 1.4188450986300578 103 103 104
0.8749588931899691 2.032537724123401 1.4177958180856716 102 102 103
0.8446704259297495 2.0370822442367915 1.4168057459378456 99 99 100
0.8119033562360899 2.0407241650749333 1.4158179485738052 84 84 85
0.8805310093120453 2.077613183069709 1.4149773722414567 73 74 76
0.8539601178476938 2.083285971324704 1.4139986267174331 66 66 69
0.8220302011597697 2.0870980636368044 1.413018863386101 61 60 63
0.7794928938673673 2.087265294671027 1.4120345948330635 53 51 56
0.7431091500783604 2.08936399931061 1.4110648989812362 43 41 47
0.7007218721365159 2.0893185998078896 1.4100979600605135 37 36 39
0.7411470874742193 2.117277230542684 1.4091957087834115 32 32 34
0.7049197451046112 2.119213304872506 1.408240220559934 33 34 36
0.7062901416200095 2.1339484520241863 1.4073085492250266 38 38 40
0.7139989960826503 2.150895075811299 1.4063773814983398 89 88 90
0.7190487684162882 2.1669646669904554 1.4054426878850705 134 134 134
0.7863792832799202 2.204805509015567 1.4045102231120956 152 152 151
0.8320560622705037 2.235315346531439 1.4035614017505393 165 165 166
0.8741410021562618 2.2647447965073075 1.4026010015935237 169 169 170
0.9146451514594052 2.2937872670614023 1.4016297211604922 168 168 170
0.950555756834205 2.3213607136013614 1.4006493405992788 168 168 170
0.9906915352232067 2.3505988738955508 1.399656841621435 168 168 171
1.0125778203724285 2.3734333629934374 1.3986652752627466 168 168 171
0.9397469318008469 2.362088631545383 1.3977402033653794 168 168 171
1.360512551634383 2.60873050748241 1.3912486647366187 168 168 170
1.4265472095723895 2.649286420262701 1.3901091022701157 168 168 170
1.3727127014926603 2.644940053150976 1.3891613213302991 168 167 170
1.343933694583726 2.6499003162589716 1.3881786174104405 168 166 169
1.2727568639086198 2.638636967667064 1.3872860748300364 167 165 168
1.2033981383494217 2.627821331985799 1.3864058734671276 134 132 135
1.1432247521281904 2.6202946927088377 1.3855208958050511 90 88 91
1.0870914436910404 2.6141213132128542 1.3846399197295438 79 77 80
1.042285222641698 2.612151797312825 1.3837433828855994 73 71 74
1.00570702817285 2.613241350158674 1.3828351916323778 64 63 67
0.9685679110684899 2.613992106468218 1.3819363076942779 42 41 46
0.9442699745614631 2.619678128555892 1.3810087070354624 19 18 22
0.9253495780478322 2.627419047899239 1.3800698556380795 13 13 15
0.9209134733555245 2.640865960783624 1.3790895136003773 10 10 12
0.9067645912657862 2.65043524351792 1.3781403497062392 10 10 12
0.8937502099157731 2.660425303149969 1.3771896452158658 10 10 12
0.8708178517332467 2.666385275497289 1.3762753874666656 10 10 12
1.0182074136862935 2.741290056758854 1.3747524874794577 11 11 13
0.9851555119102486 2.7433191381440385 1.3738635811544886 12 12 14
0.881533529938894 2.716377188462256 1.3732533173903785 13 13 15
0.8380066157555714 2.7137528045416115 1.372428853143665 14 14 16
0.872937369284184 2.7433719808610446 1.3712923510996344 17 17 19
0.8519159095323835 2.7499374170565005 1.370382247911309 26 26 28
0.625990936735642 2.6710599871584533 1.3703677359903117 32 31 34
0.6163769719197586 2.6818834385573043 1.369440372792855 36 35 40
0.7708937050790537 2.761712893391931 1.3677587003376463 35 35 39
0.8280639758162763 2.8010313846882564 1.3664971756806221 34 35 39
0.9673808490990752 2.8754537179926567 1.3648210871831985 36 35 40
1.0416306974457261 2.922693960152336 1.3634326444295075 37 36 41
0.9702897338985697 2.9078883780685345 1.362767852006567 38 37 42
0.954593327714281 2.9167654575144 1.3618285172200566 38 37 42
1.014897554274158 2.9584460529704266 1.3604843263300606 37 38 43
1.0372889826689886 2.9839230399052745 1.3593316158468893 37 38 42
1.0295512817639343 2.9963695122723055 1.358341111344619 31 32 35
0.9678565499724227 2.985172744258562 1.357661186796222 15 15 17
1.0409098911158676 3.033038497817998 1.3562044846961607 13 13 15
1.0563268640312438 3.0557399491429837 1.3550735822841833 12 12 14
1.0899819140119553 3.0866174422107444 1.353825651161191 12 12 14
0.524025425794608 2.97034830579457 1.3484743037993656 12 12 14
0.5267870225659564 2.986718793284971 1.3474675867855523 12 12 14
0.5181339468296268 2.9978054807787897 1.346545006628889 14 14 16
0.5300550595397034 3.018496853064181 1.3454654824333065 16 16 18
0.5608528612641229 3.048118685449533 1.3442342365621927 18 18 20
0.6116746104025188 3.087324946825195 1.3428347798683453 20 20 22
0.5164372668187471 3.0575901029903387 1.3425989055720333 21 21 23
0.4888837655388638 3.059680318212141 1.3418318182361604 20 20 22
0.5120932238426956 3.085920899409483 1.3406479205322013 20 20 22
0.683204341347198 3.1987846902311756 1.3371869722575627 19 20 22
0.7394460868058483 3.2415871695521625 1.335676501914953 20 21 23
0.8422227932262871 3.3072317221778524 1.3337379807456975 21 22 24
0.8378234417921371 3.3210544353257396 1.332733918933044 19 20 22
0.8383386929860939 3.337286358124393 1.3316848570407904 15 16 18
0.8460633676361264 3.3570854216867243 1.3305676275516474 13 14 16
0.8385401244733723 3.3694097466871558 1.3295900133239262 10 11 13
0.7521789885192338 3.3426480935560154 1.3293629289389646 10 11 13
0.7718850411904026 3.368345111021298 1.3281343913734978 10 11 13
0.7315467570078791 3.3641379928244555 1.3274863304032636 10 11 13
0.8315618448891735 3.4302093487981704 1.3254567237400086 11 12 14
0.9133356046467527 3.487518947645741 1.3235823513512837 12 13 15
0.9537393538048367 3.524257235124266 1.322105806543144 13 14 16
0.9653922702332816 3.5465804325839345 1.3209134960800244 17 18 20
0.9185458945051839 3.5391439384607066 1.3203275756653683 30 31 33
0.873523206873148 3.532471003826894 1.3197334817815394 27 28 30
0.832378128767225 3.5276282046778604 1.3191085052448772 19 20 22
0.8105226716853833 3.532592379814201 1.3182839703755496 15 16 18
0.7606513681223015 3.522973154515834 1.3177714878908833 14 15 17
0.7515386347120168 3.5343709646728034 1.3168180561427831 14 15 17
0.7189565613156976 3.533496458435067 1.316129667008282 15 16 18
0.723398014841649 3.551919436292735 1.3150272461416679 25 26 28
0.7036264197433018 3.5576376476731664 1.3142011135044611 30 31 33
0.7344465011137764 3.590028465426194 1.312789407913941 35 36 38
0.763129233766441 3.6214343263211735 1.311393168231259 37 38 41
0.7123812377703329 3.610679537313322 1.310934841047879 38 39 43
0.6771371374403186 3.6080244048561005 1.3103019138147451 38 39 43
0.6693011952390822 3.6199542951660737 1.3093429230380267 38 39 43
0.6433665960904302 3.6221216275759796 1.3086078393711655 37 38 42
0.6788638088007841 3.6574288763191927 1.3071125499754452 33 34 37
0.5988906693212159 3.6302102409845576 1.3070615022606924 29 30 33
0.6275302501290467 3.6618778207786593 1.3056471703037273 28 29 33
0.6581313058958154 3.6947597429688805 1.3041983563965158 31 32 34
0.6812183191535368 3.7236643527506486 1.3028375469262565 40 41 44
0.9366241217854918 3.8807717468949887 1.2984138499557254 48 49 54
0.7316577914939457 3.7841896959202375 1.3000360152579296 55 56 58
0.762010405139349 3.8174955319474377 1.2985538112269714 65 66 69
1.0955658230196177 4.02002907006158 1.2929494680158102 66 67 71
1.059321776300231 4.016996703780321 1.2923183144560335 68 69 69
1.0552701407888754 4.0319219168432054 1.2912501542111396 70 70 68
1.0165340872097084 4.0272918162942535 1.2906663998859123 74 74 72
0.9928886928582206 4.031063376664558 1.289878852064909 85 85 83
1.0206863272453226 4.063988150853426 1.2883630896155924 123 123 121
1.052448755647221 4.099315115097771 1.286781052330043 162 162 160
1.0837282267466533 4.134523673874289 1.2851957025070448 169 169 169
1.0633565471240423 4.140210360312574 1.284357899071641 170 170 170
0.9400698924053557 4.0864802942688225 1.2850484294758548 170 170 168
0.9502539867195798 4.109507483783791 1.2837764993806702 171 171 169
1.255716513515797 1.9771127660115388 1.4444511107406428 169 169 171
1.437384997463539 2.047176737703544 1.444349762411603 168 168 170
1.4066257659457329 2.052984477662241 1.4432224683693442 168 168 170
1.3753712841051398 2.0585487346824163 1.44209884953089 167 167 170
1.3465323247686865 2.0647666868849575 1.4409918814290534 168 168 171
1.3142802456461833 2.069838500706316 1.439875794439445 168 167 170
1.3425794982356098 2.093752529101481 1.4390180589782433 168 168 170
1.3238421301885182 2.102990079503461 1.437962208238328 168 168 170
1.1539652087418724 2.064362343862581 1.4363155155039162 167 167 169
1.1411841532243168 2.075125484487844 1.4353063137451987 166 166 169
1.111495919907725 2.080450965053176 1.4342364077842258 164 164 167
1.0341939528891688 2.0703665152701465 1.4330017959250896 125 125 127
0.9702504311624601 2.0643436518143696 1.431830349633905 100 99 102
0.9315637164005373 2.0663260138896655 1.4307572176943164 105 103 107
0.8820581445352976 2.0646462968136663 1.4296570633547447 91 90 94
0.8370013687151366 2.0642687509992195 1.4285812138602654 81 81 84
0.9243616613883959 2.107553321319826 1.4279112189289926 77 75 78
0.8929168665579038 2.111652763491866 1.4268778225820558 72 70 73
0.8686276454929479 2.1180491115356226 1.425870406653843 64 62 66
0.840764264072744 2.1231729825379153 1.4248581216055842 54 52 56
0.8059383452356716 2.125859023979899 1.423833697195354 50 48 51
0.839105410368735 2.151549435107936 1.422979786387219 57 56 57
0.7090224467676989 2.121585021243592 1.4217437879322758 79 78 79
0.7181979197305216 2.1390116334348184 1.420839206472022 120 120 121
0.7513774489804927 2.1647814529666496 1.4199804570879584 148 148 149
0.7958348256138582 2.1946073236064025 1.4191344228664602 159 158 159
0.8356903127335972 2.2230079443273434 1.4182683165015482 167 167 167
0.8845953158351862 2.254749182458995 1.417406844380311 168 168 169
0.9168608026165136 2.2808185223271025 1.4165063750794178 168 168 170
0.950237678420641 2.3074193431760692 1.4155986244464869 168 168 170
0.9781249713701352 2.332204932848717 1.4146743813739735 168 168 170
1.0194211747743953 2.3619170212754144 1.413758519445414 168 167 171
1.039875901562965 2.384293919525434 1.4128087715947275 168 168 171
1.3815920778670998 2.6176851966045507 1.4060378076130513 168 168 170
1.3961259175673515 2.638974358926909 1.4050139178707655 168 168 170
1.3530261765416731 2.638612765911491 1.4039848266254475 168 167 170
1.3176636530192147 2.6410405806703987 1.4029640224229674 169 167 170
1.2462032515507562 2.6296129197428395 1.4019590577831937 155 154 157
1.1746959522603246 2.617918528195451 1.400970222921804 103 102 105
1.1107157543715287 2.6088686129707233 1.3999939306082088 83 80 84
1.0653074734556023 2.606772417673474 1.399020807059274 75 72 74
1.020054854997039 2.604584780231149 1.3980574071692375 69 66 69
0.9868746809029549 2.606955339235584 1.3970936048900229 58 55 62
0.9460641839159669 2.606228487954147 1.396144074018831 29 27 34
0.9223997192073533 2.612120355457141 1.3951845879682065 16 15 19
0.9134409022940461 2.6237623046776157 1.3942118097604337 12 11 13
0.9145030247902131 2.6393748289405776 1.393226588532192 10 10 12
0.9110328537234667 2.6531994746884715 1.392246480671169 10 10 12
0.878444176344767 2.6553387750202004 1.3913121006077371 11 11 13
0.7870039240454221 2.633631433103672 1.39048499372656 11 11 13
1.0012334590050962 2.73548995372761 1.3891195957653453 12 12 14
0.9437356944512869 2.727529137233297 1.388231070227909 13 13 15
0.9157384418058121 2.7314380343636664 1.387294204831418 15 15 17
0.8970472079671947 2.7390845571229505 1.3863425249835248 17 17 19
0.876263037988334 2.745814516171728 1.3853990969734185 21 21 23
0.6463242764093658 2.6657052347121883 1.384972262096943 29 29 31
0.6019406371722076 2.662075305398692 1.3841234942494016 34 35 37
0.7618252354536088 2.7438310079976196 1.3827329510788833 34 34 38
0.7995341843058617 2.774825278005756 1.3816464455938648 33 34 38
0.8964575229729344 2.831008981378291 1.3803745599617987 34 35 39
1.1716689833075846 2.9632776019333296 1.378528824686257 36 36 40
1.117851360181569 2.956307621305431 1.377665997096106 37 36 41
0.9839531867701093 2.9148417731896075 1.3770817302593072 38 37 42
1.0130940455975814 2.9430413911255138 1.3759669871973266 38 37 42
1.008980380237785 2.9569983959677666 1.3749625926388314 36 39 42
0.9421605539294826 2.9437298205760434 1.3741901808156278 33 36 38
0.9497254734536491 2.9626670687027605 1.3731484314594666 24 27 28
0.9768861803143062 2.990239576552299 1.3720259477486905 12 14 16
1.0062683088202689 3.018915884310356 1.3708862233452002 12 12 14
1.0739192928224779 3.0646439810408523 1.3695766633887312 12 12 14
1.0949492913715333 3.0899572598419187 1.3684507866453093 11 12 14
0.5084939704296985 2.94920976828202 1.363244983872578 12 12 14
0.563125752003359 2.9894775807702008 1.36197113065093 12 12 14
0.571141231264412 3.0083645113639172 1.3609436429731125 13 13 15
0.5717595143205969 3.0238579614629044 1.35995529497796 14 14 16
0.561273282694967 3.034180014973976 1.359030700976088 16 16 18
0.5769508970868858 3.05676882986885 1.3579505694741856 19 19 21
0.5688756064898829 3.0682361147917034 1.357010679559408 21 21 23
0.5348155812573869 3.067382643165844 1.356234198148157 20 20 22
0.5171200483359608 3.074197019168804 1.3553607283538236 19 19 21
0.5167686292665443 3.08924519607225 1.3543775384105938 19 20 22
0.5980306664784185 3.1434599528564924 1.3528507190710597 19 20 22
0.7475634541688996 3.2309055622421736 1.3508388694880136 20 21 23
0.8770413585104164 3.3092715920683786 1.3489253197389055 21 22 24
0.8446596894593441 3.3095629642078865 1.3481156775533651 21 22 24
0.8519043912669855 3.329071304210803 1.347029121114665 18 19 21
0.8580704184721046 3.348101419297416 1.3459471957301072 14 15 17
0.8634994598968893 3.3668148999514935 1.3448677800080941 11 12 14
0.8392184506277534 3.370901121244155 1.3440101819685881 10 11 13
0.7538510092879307 3.344623237262086 1.3436273902712164 10 11 13
0.772362820846282 3.3697343297016595 1.342453113331312 10 11 13
0.736025035576791 3.3675242832815253 1.3417088679941123 10 11 13
0.8766313506433789 3.4539941905542952 1.3395422231460177 12 13 15
0.9340323499364112 3.499127842097037 1.338020854881557 13 14 16
0.9639153252492529 3.5305935272887354 1.3367127048868461 14 15 17
0.9610519118045713 3.545567249970712 1.3356729932905302 21 22 24
0.9154479392866341 3.538751047680529 1.3350007862158157 31 32 34
0.8704409769330168 3.53207554970323 1.3343340454931927 28 29 31
0.8391456656434164 3.5322869071284013 1.333556114750563 18 19 21
0.8173380909666756 3.5372888175546287 1.3326996134158011 15 16 18
0.776577651073916 3.5324002253664757 1.3320208436992491 14 15 17
0.7749291379211698 3.5477154877972126 1.3309886802587163 14 15 17
0.735955457658132 3.5435478983650937 1.3303068474454043 17 18 20
0.7379279653566593 3.560714200228359 1.3292432263810814 27 28 29
0.7129595455584581 3.5637257374764624 1.3284384443861024 33 34 37
0.7502439553035782 3.599559680225921 1.3270281259294243 34 36 39
0.6707542483514406 3.573605452662088 1.326767908589465 36 38 40
0.686214317755035 3.5979231249465893 1.325570493624235 38 39 43
0.6656494460288565 3.6030608685632117 1.32473554215839 38 39 43
0.6629190704777175 3.617709051872641 1.3237201632306237 39 40 44
0.6604277345913698 3.632496031844762 1.322701632445919 38 39 43
0.6811043472767937 3.6598283849502486 1.321436358810343 35 36 40
0.6875633612239584 3.6795467254662038 1.3203170147460432 31 32 36
0.6301259058491135 3.6644772597988897 1.319890359781205 32 33 37
0.6645025736747818 3.699438095052245 1.318465580852692 36 37 40
0.6828644328642914 3.725766104313315 1.3172088273568656 41 42 46
0.9420887506973215 3.8850246954724668 1.3132246519473654 46 47 52
0.7222737065259166 3.7802048974813207 1.3146454395863867 48 49 52
0.7567595563537288 3.815794963124713 1.3131825742694097 49 50 54
1.093326055725137 4.0200513278351915 1.3081728012085414 50 51 55
1.0609483654525391 4.0191759782364285 1.307438819926984 55 56 57
1.058067754706969 4.034764718452489 1.3063588562251318 61 59 58
1.016414805309345 4.028491559555231 1.3057479637857012 67 66 65
0.989212593102855 4.030247706379455 1.3049699382758868 79 77 76
1.0177395628237074 4.0635861667613975 1.3035073822674932 109 110 107
1.0494803479081682 4.0989021237031835 1.3019952344356953 158 158 156
1.0815133143280544 4.134543383522608 1.300469153248312 168 167 167
1.0655351490457605 4.142749929174344 1.2995474570781562 171 170 170
0.936981672251435 4.085969304567202 1.300085584249308 171 171 169
0.9465385300717282 4.108630935769801 1.2988512658083011 171 171 169
1.3961537350067217 2.035661305112213 1.4586612361367797 169 169 171
1.403781331984008 2.05313030506707 1.457738153075586 168 168 170
1.475582977658884 2.090380487434607 1.4572114801803 168 168 170
1.4711517579200413 2.1043260059229656 1.4562014865654556 168 168 170
1.4526600946000932 2.1139001406866225 1.4551070372992079 168 168 170
1.4342522084209315 2.1234530079623055 1.454016127646289 168 168 170
1.412133853663561 2.131790933940702 1.4529068683890305 168 168 170
1.2257974135131378 2.088094043915557 1.4508740752825133 168 168 170
1.2760699027266185 2.1190565018720102 1.4501920503789387 167 167 169
1.2114035974230137 2.1134270913860664 1.4488746609707666 166 166 168
1.1357282104564246 2.1040390832720797 1.447512699655425 162 162 162
1.0675492789931447 2.0968227894274145 1.4462059660668385 118 118 118
1.027801399066707 2.0986329526625003 1.4450579892829924 89 87 90
0.9585567781170683 2.0906623032141707 1.4437720030006516 117 115 117
0.933104610637062 2.0968725466924347 1.4427127475498367 115 113 114
0.9191821197633168 2.106824221789127 1.4417126796798732 104 102 103
0.8588666637142565 2.1013049837405173 1.4405011627951685 99 97 98
0.9872583082099433 2.158724235052797 1.440149134143513 100 98 98
0.9232666507214574 2.1519087076731624 1.4389253777616369 98 96 96
0.931295273790044 2.169238005774804 1.4380216703394413 107 105 106
0.9478260026797922 2.189506037090606 1.4371500721119723 127 125 126
0.7657963238295775 2.1419659426605397 1.4354757180549136 148 146 147
0.7821721066666283 2.161974546869967 1.4346167465442823 162 161 162
0.8101566415532835 2.1860725840153776 1.43379668206789 167 167 169
0.8524397669310197 2.2152585692086415 1.4330212691901258 167 167 169
0.8890147344279027 2.242624549422137 1.432214479472512 168 168 170
0.9294665442396634 2.271504374654748 1.4314111758494843 168 168 170
0.963051090628272 2.298127991578962 1.4305744000552418 168 168 170
1.0076360858716242 2.32879647503556 1.429763600543671 168 168 170
