ply
format ascii 1.0
element vertex 884
property float x
property float y
property float z
property float nx
property float ny
property float nz
property uchar diffuse_red
property uchar diffuse_green
property uchar diffuse_blue
property uchar class
property uchar detection
end_header
1.3568 2.4415 0.5547 0.595 -0.561 -0.576 39 39 41 0 0
1.3578 2.3930 0.5594 0.318 -0.262 -0.911 38 38 40 0 0
1.1280 2.3817 0.6199 0.869 0.474 0.143 42 42 44 0 0
1.6169 3.6638 0.3794 0.651 -0.678 -0.341 70 72 72 0 0
1.6075 3.6531 0.3829 0.651 -0.678 -0.341 69 71 71 0 0
1.4541 2.7255 0.5156 0.351 -0.862 -0.365 31 31 33 0 0
1.4452 2.6819 0.5223 0.632 -0.769 0.096 30 30 32 0 0
1.3313 2.5569 0.5643 0.921 -0.240 -0.307 34 34 36 0 0
1.3356 2.5058 0.5684 0.949 -0.048 0.312 37 37 39 0 0
1.3342 2.4905 0.5702 0.949 -0.048 0.312 37 37 39 0 0
1.3782 2.4481 0.5631 0.433 -0.897 0.087 37 37 39 0 0
0.6900 2.2660 0.7601 0.878 0.473 -0.071 21 21 24 0 0
1.6285 3.6773 0.3902 0.802 -0.241 -0.547 94 96 93 0 0
1.6255 3.6615 0.3926 0.785 -0.265 -0.560 59 61 63 0 0
1.6129 3.6533 0.3967 0.643 -0.672 -0.368 64 65 66 0 0
1.6008 3.6446 0.4007 0.120 -0.934 -0.338 53 55 55 0 0
1.6499 2.9970 0.4521 0.895 -0.165 -0.415 15 15 17 0 0
1.4487 2.7326 0.5309 0.367 -0.887 -0.280 28 28 30 0 0
1.4560 2.6950 0.5327 0.819 -0.571 -0.045 29 29 31 0 0
1.3973 2.6339 0.5542 0.514 -0.740 0.434 31 31 33 0 0
1.3057 2.5434 0.5871 0.158 -0.983 0.097 34 34 36 0 0
1.3506 2.4841 0.5812 0.899 0.183 0.398 34 34 36 0 0
1.3629 2.4446 0.5819 0.740 -0.542 -0.397 37 37 39 0 0
1.1685 2.3013 0.6469 0.895 0.440 -0.074 33 33 35 0 0
1.6356 3.6761 0.4037 0.821 -0.554 0.136 63 65 64 0 0
1.6141 3.6387 0.4131 0.729 -0.594 0.340 57 58 59 0 0
1.4834 2.7139 0.5383 0.656 -0.574 0.491 26 26 28 0 0
1.4156 2.6260 0.5648 0.720 -0.691 0.065 30 30 32 0 0
1.3653 2.5757 0.5830 0.446 -0.848 -0.286 31 31 33 0 0
1.2769 2.5480 0.6089 0.486 -0.850 0.203 33 33 35 0 0
1.6390 3.6780 0.4179 0.683 -0.559 0.470 55 57 56 0 0
1.5857 3.6655 0.4332 0.787 0.192 -0.587 50 51 51 0 0
1.4048 3.3520 0.5115 -0.359 -0.921 -0.150 11 11 13 0 0
1.2796 2.5499 0.6228 0.411 -0.845 0.341 31 31 33 0 0
1.6348 3.6859 0.4335 0.815 -0.406 0.413 60 62 61 0 0
1.5919 3.6651 0.4469 0.800 -0.083 -0.594 48 49 48 0 0
1.3555 2.5561 0.6168 0.513 -0.779 0.360 26 26 28 0 0
1.6315 3.6930 0.4490 0.889 -0.305 0.343 68 69 67 0 0
1.6194 3.6843 0.4530 0.686 -0.597 0.416 52 53 51 0 0
1.6023 3.6614 0.4598 0.695 -0.305 -0.651 46 46 47 0 0
1.4086 2.7233 0.6014 0.769 -0.361 -0.528 20 20 22 0 0
1.3997 2.7124 0.6048 0.651 -0.662 -0.371 21 21 23 0 0
1.3672 2.5525 0.6288 0.584 -0.724 0.367 21 21 23 0 0
1.3469 2.5324 0.6361 0.612 -0.683 0.398 23 23 25 0 0
1.3529 2.5126 0.6364 0.843 -0.442 0.306 24 24 26 0 0
1.5858 3.6972 0.4762 0.905 -0.424 0.017 45 45 45 0 0
1.4818 3.3264 0.5393 0.648 0.233 -0.725 13 13 15 0 0
1.6656 2.9886 0.5219 0.999 -0.015 -0.035 16 16 18 0 0
1.3386 2.6226 0.6445 0.875 0.386 0.292 15 15 17 0 0
1.3496 2.5831 0.6453 0.637 -0.739 0.222 15 15 17 0 0
1.1096 2.2228 0.7440 0.959 0.273 0.071 21 21 23 0 0
1.5669 3.7721 0.4896 0.446 -0.894 0.042 135 134 132 0 0
1.5565 3.7619 0.4934 0.966 -0.118 -0.231 71 72 71 0 0
1.5822 3.7046 0.4918 0.901 -0.417 0.122 42 43 44 0 0
1.4659 3.3422 0.5573 0.675 0.191 -0.713 14 14 16 0 0
1.6575 3.0150 0.5363 0.957 0.137 0.255 17 17 19 0 0
1.6662 2.9921 0.5361 0.999 -0.015 -0.035 17 17 19 0 0
1.6613 2.9787 0.5387 0.952 0.180 -0.246 16 16 18 0 0
1.6746 2.9526 0.5375 0.649 -0.704 -0.288 16 16 18 0 0
1.3502 2.6518 0.6535 -0.024 -0.743 -0.669 15 15 17 0 0
1.3354 2.6281 0.6597 0.938 0.265 0.224 14 14 16 0 0
1.3488 2.5871 0.6599 0.603 -0.764 0.229 14 14 16 0 0
1.3614 2.5631 0.6588 0.249 -0.967 0.045 14 14 16 0 0
1.3494 2.5378 0.6644 0.778 -0.461 0.427 16 16 18 0 0
1.1981 2.2884 0.7287 0.334 -0.799 -0.501 25 25 27 0 0
1.1191 2.2049 0.7579 0.994 0.042 0.101 19 19 21 0 0
1.5829 3.7086 0.5067 0.871 -0.432 0.234 41 42 44 0 0
1.6625 2.9817 0.5527 0.936 0.212 -0.280 15 15 17 0 0
1.6594 2.9504 0.5565 0.523 -0.849 0.070 17 17 19 0 0
1.4615 2.7004 0.6335 0.664 -0.583 -0.468 17 17 19 0 0
1.4570 2.6540 0.6391 0.935 -0.218 -0.279 14 14 16 0 0
1.4542 2.6394 0.6412 0.935 -0.218 -0.279 13 13 15 0 0
1.3703 2.6429 0.6637 -0.012 -0.742 -0.670 12 12 14 0 0
1.3336 2.5999 0.6776 0.959 0.171 0.225 13 13 15 0 0
1.3598 2.5675 0.6735 0.867 -0.194 0.459 13 13 15 0 0
1.3076 2.5178 0.6923 0.655 -0.374 0.656 15 15 17 0 0
1.6565 3.6912 0.5036 0.776 -0.122 -0.618 74 74 75 0 0
1.5883 3.7089 0.5206 0.977 -0.210 0.023 43 42 47 0 0
1.6776 2.9583 0.5654 0.885 -0.321 0.337 15 15 17 0 0
1.6616 2.9527 0.5703 0.814 -0.413 0.408 15 15 17 0 0
1.5759 2.9951 0.5898 0.842 -0.537 -0.051 21 21 23 0 0
1.5425 2.9843 0.6000 0.559 -0.753 -0.347 33 33 35 0 0
1.4774 2.7433 0.6400 0.923 -0.350 -0.158 13 13 15 0 0
1.4691 2.6500 0.6508 0.792 -0.250 -0.558 13 13 15 0 0
1.3331 2.6202 0.6908 0.876 0.428 -0.222 12 12 14 0 0
1.3404 2.5993 0.6907 0.980 0.188 -0.068 12 12 14 0 0
1.3505 2.5768 0.6900 0.885 -0.155 0.439 12 12 14 0 0
1.2766 2.4748 0.7196 0.425 -0.074 -0.902 15 15 17 0 0
1.3199 2.3690 0.7175 0.823 -0.568 0.029 17 17 19 0 0
1.2633 2.3858 0.7314 0.824 -0.563 -0.054 18 18 20 0 0
1.6678 3.7050 0.5146 0.822 -0.071 -0.566 67 67 69 0 0
1.6627 3.6907 0.5173 0.846 -0.289 -0.449 65 64 67 0 0
1.4977 3.3848 0.5905 0.854 0.222 -0.471 20 20 22 0 0
1.6418 3.0039 0.5858 0.821 0.256 0.510 15 15 17 0 0
1.6712 2.9666 0.5811 0.826 -0.273 0.493 14 14 16 0 0
1.5709 3.0025 0.6054 0.730 -0.683 0.001 16 16 18 0 0
1.5618 2.9918 0.6088 0.516 -0.857 -0.018 27 27 29 0 0
1.5425 2.9881 0.6145 0.368 -0.919 -0.141 33 33 35 0 0
1.2796 2.3957 0.7408 0.677 -0.708 0.200 16 16 18 0 0
1.2551 2.3779 0.7492 0.714 -0.698 0.058 17 17 19 0 0
1.2502 2.3646 0.7517 0.824 -0.563 -0.054 19 19 21 0 0
1.1896 2.3190 0.7725 0.872 -0.342 0.350 18 18 20 0 0
1.6759 3.7214 0.5262 0.898 -0.398 -0.187 97 97 98 0 0
1.6214 3.7100 0.5423 0.907 0.310 -0.285 57 57 60 0 0
1.6300 3.6848 0.5422 0.907 0.310 -0.285 59 59 60 0 0
1.5731 3.0049 0.6194 0.730 -0.683 0.001 13 13 15 0 0
1.5608 2.9964 0.6236 0.439 -0.894 -0.092 20 20 22 0 0
1.2617 2.4257 0.7578 0.938 0.127 0.324 14 14 16 0 0
1.2769 2.4007 0.7559 0.713 -0.701 0.006 14 14 16 0 0
1.2639 2.3921 0.7602 0.783 -0.618 -0.065 15 15 17 0 0
1.4853 3.4024 0.6230 -0.104 -0.941 -0.323 19 19 21 0 0
1.5505 2.9904 0.6418 0.618 -0.786 0.013 25 25 27 0 0
1.2686 2.3928 0.7737 0.759 -0.619 -0.200 14 14 16 0 0
1.1147 2.2873 0.8258 0.587 -0.724 0.363 14 14 16 0 0
1.6051 3.7876 0.5708 0.400 -0.729 -0.555 82 82 82 0 0
1.6043 3.7697 0.5726 0.766 -0.235 -0.598 60 60 62 0 0
1.6311 3.7113 0.5703 0.826 0.289 -0.484 48 47 52 0 0
1.4972 3.3979 0.6355 -0.173 -0.965 -0.198 18 18 20 0 0
1.5634 3.0024 0.6521 0.819 -0.571 0.058 15 15 17 0 0
1.5552 2.9911 0.6554 0.819 -0.571 0.058 22 22 24 0 0
1.5061 2.8558 0.6811 0.888 -0.044 -0.459 16 16 18 0 0
1.4859 2.7029 0.7003 0.931 0.364 -0.038 12 12 14 0 0
1.2119 2.4453 0.7996 0.919 0.297 0.260 13 13 15 0 0
1.2541 2.4046 0.7914 0.819 0.256 -0.514 14 14 16 0 0
1.2606 2.3686 0.7928 0.895 -0.315 -0.314 14 14 16 0 0
1.6158 3.7836 0.5837 0.400 -0.729 -0.555 95 95 96 0 0
1.6145 3.7661 0.5856 0.736 -0.218 -0.641 63 63 65 0 0
1.6486 3.6836 0.5833 0.886 0.225 -0.405 46 45 50 0 0
1.4873 3.3916 0.6542 0.078 -0.905 -0.418 19 19 21 0 0
1.4838 3.3763 0.6565 0.716 -0.263 -0.647 16 16 18 0 0
1.4758 3.3644 0.6598 0.424 -0.595 -0.683 14 14 16 0 0
1.5564 2.9942 0.6697 0.929 -0.341 0.145 17 17 19 0 0
1.5497 2.8807 0.6815 0.715 -0.195 -0.671 35 34 39 0 0
1.5128 2.8551 0.6941 0.888 -0.044 -0.459 18 18 20 0 0
1.4824 2.7419 0.7126 0.898 -0.316 -0.305 12 12 14 0 0
1.1140 2.2622 0.8581 0.782 0.517 -0.348 13 13 15 0 0
1.6344 3.7917 0.5932 0.651 -0.732 -0.201 163 163 162 0 0
1.6188 3.7858 0.5982 0.607 -0.773 -0.184 119 119 119 0 0
1.5201 3.3895 0.6605 -0.102 -0.983 -0.153 18 18 20 0 0
1.4885 3.3950 0.6689 0.913 -0.101 -0.394 18 18 20 0 0
1.4874 3.3780 0.6707 0.913 -0.101 -0.394 17 17 19 0 0
1.4782 3.3669 0.6743 0.666 -0.519 -0.535 15 15 17 0 0
1.5450 2.9889 0.6883 0.981 -0.066 0.182 20 20 22 0 0
1.5461 2.9712 0.6895 0.861 -0.509 -0.011 28 28 30 0 0
1.5608 2.8770 0.6935 0.854 -0.203 -0.480 39 38 43 0 0
1.4875 2.7422 0.7259 0.321 -0.595 -0.736 14 14 16 0 0
1.4784 2.7316 0.7294 0.751 -0.400 -0.525 13 14 16 0 0
1.4813 2.6802 0.7331 0.997 0.045 0.059 10 11 13 0 0
1.6283 3.8013 0.6097 0.924 -0.379 0.056 163 163 161 0 0
1.6151 3.7934 0.6141 0.989 -0.148 -0.011 128 128 128 0 0
1.5180 3.3953 0.6759 -0.091 -0.995 0.050 18 18 20 0 0
1.5417 2.9612 0.7066 0.492 -0.806 -0.330 31 31 33 0 0
1.5592 2.8651 0.7099 0.814 -0.546 -0.198 40 40 43 0 0
1.5552 2.8511 0.7122 0.775 -0.601 -0.196 37 37 39 0 0
1.5561 2.8338 0.7134 0.919 -0.309 0.244 31 31 33 0 0
1.5178 2.8426 0.7235 0.951 0.164 0.264 24 24 26 0 0
1.5025 2.7362 0.7370 0.528 -0.642 -0.556 15 15 17 0 0
1.4865 2.7300 0.7421 0.713 -0.389 -0.583 15 16 18 0 0
1.4810 2.7170 0.7448 0.815 -0.060 -0.576 13 14 16 0 0
1.6341 3.8013 0.6236 0.594 -0.681 0.428 161 161 159 0 0
1.5391 2.9837 0.7203 0.963 0.137 0.234 17 17 19 0 0
1.5463 2.9619 0.7201 0.877 -0.477 0.055 22 22 24 0 0
1.5609 2.8678 0.7240 0.701 -0.711 -0.054 42 41 44 0 0
1.5529 2.8564 0.7272 0.748 -0.663 0.014 40 40 42 0 0
1.5233 2.7429 0.7453 0.511 -0.738 -0.442 15 15 17 0 0
1.5410 2.8180 0.7487 0.941 0.052 0.335 33 32 36 0 0
1.5434 2.7500 0.7537 0.939 -0.341 0.050 17 17 19 0 0
1.4812 2.6912 0.7765 0.365 -0.765 -0.530 12 12 14 0 0
1.4733 2.6797 0.7798 0.722 -0.538 -0.434 10 11 13 0 0
1.4432 2.6494 0.7909 0.695 -0.351 -0.628 10 11 13 0 0
1.7053 3.7527 0.6382 0.954 0.004 -0.299 123 123 121 0 0
1.7036 3.7357 0.6402 0.968 -0.193 -0.162 68 69 69 0 0
1.6979 3.7219 0.6429 0.908 -0.418 0.027 71 72 74 0 0
1.5096 3.3607 0.7273 0.198 -0.961 0.192 17 17 19 0 0
1.5360 2.9597 0.7532 0.883 0.157 0.443 17 17 19 0 0
1.5409 2.8385 0.7619 0.895 -0.423 -0.139 40 40 43 0 0
1.5131 2.7403 0.7781 0.882 -0.373 0.288 19 19 22 0 0
1.5069 2.7278 0.7809 0.882 -0.373 0.288 18 16 20 0 0
1.4797 2.6958 0.7914 0.662 -0.714 -0.228 13 13 15 0 0
1.4701 2.6689 0.7964 0.976 -0.112 -0.184 10 11 13 0 0
1.4565 2.6447 0.8024 0.620 -0.656 -0.431 10 11 13 0 0
1.4525 2.6308 0.8047 0.735 -0.546 -0.402 10 11 13 0 0
1.7147 3.7497 0.6512 0.838 -0.535 0.108 107 108 106 0 0
1.7067 3.7378 0.6545 0.838 -0.535 0.108 65 66 67 0 0
1.6987 3.7259 0.6578 0.838 -0.535 0.108 57 58 60 0 0
1.5030 3.3698 0.7439 -0.041 -0.997 -0.061 17 17 19 0 0
1.5007 2.7355 0.7969 0.878 -0.246 0.410 22 21 26 0 0
1.4885 2.7103 0.8025 0.902 -0.429 0.051 17 17 19 0 0
1.4724 2.6875 0.8090 0.883 -0.465 0.058 16 16 18 0 0
1.4654 2.6756 0.8121 0.899 -0.430 0.082 15 15 17 0 0
1.4644 2.6597 0.8137 0.736 -0.622 -0.269 12 13 15 0 0
1.4624 2.6445 0.8155 0.821 -0.571 -0.005 12 13 15 0 0
1.4628 2.6279 0.8167 0.966 -0.258 -0.034 11 12 14 0 0
1.7129 3.7558 0.6667 0.997 -0.021 0.071 104 103 102 0 0
1.7084 3.7410 0.6692 0.843 -0.498 0.201 62 62 63 0 0
1.7005 3.7290 0.6725 0.843 -0.498 0.201 51 52 54 0 0
1.8306 3.3396 0.6664 0.762 0.466 -0.450 34 34 36 0 0
1.5281 3.3912 0.7502 0.973 0.043 -0.227 19 19 21 0 0
1.5209 3.3787 0.7534 0.388 -0.569 -0.725 20 20 22 0 0
1.5109 3.3682 0.7571 0.315 -0.545 -0.777 18 18 20 0 0
1.5359 2.9336 0.7853 0.547 -0.810 -0.213 21 21 23 0 0
1.4954 2.7426 0.8127 0.929 -0.137 0.344 31 30 35 0 0
1.4961 2.7256 0.8139 0.967 -0.253 0.019 28 28 31 0 0
1.4652 2.6793 0.8267 0.868 -0.496 0.029 20 21 23 0 0
1.4560 2.6686 0.8302 0.699 -0.716 -0.002 15 16 18 0 0
1.2917 2.6224 0.8818 0.779 0.395 0.486 10 11 13 0 0
1.7052 3.7482 0.6850 0.830 -0.520 0.201 64 64 64 0 0
1.8391 3.3374 0.6790 0.782 0.478 -0.400 30 30 32 0 0
1.5359 3.3719 0.7649 0.165 -0.579 -0.799 20 20 22 0 0
1.6195 3.1012 0.7623 0.473 0.343 -0.811 17 17 19 0 0
1.5403 2.9175 0.8003 0.743 -0.669 -0.001 20 20 22 0 0
1.5313 2.9067 0.8038 0.458 -0.875 -0.158 28 27 31 0 0
1.4710 2.6957 0.8385 0.900 -0.418 0.124 24 24 26 0 0
1.4611 2.6855 0.8422 0.908 -0.243 0.342 22 23 25 0 0
1.7041 3.7537 0.7003 0.828 -0.542 0.142 69 70 68 0 0
1.6917 3.7453 0.7046 0.517 -0.848 0.118 51 54 52 0 0
1.5537 3.3629 0.7758 0.197 -0.549 -0.812 20 20 22 0 0
1.5149 3.3560 0.7878 0.384 -0.624 -0.681 15 15 17 0 0
1.6201 3.1220 0.7755 0.746 0.603 -0.281 17 17 19 0 0
1.5383 2.9227 0.8155 0.642 -0.728 0.240 21 21 23 0 0
1.5303 2.9112 0.8187 0.418 -0.883 0.215 24 24 26 0 0
1.5291 2.8952 0.8204 0.512 -0.854 -0.098 23 23 26 0 0
1.4959 2.7331 0.8431 0.961 -0.248 -0.122 40 39 44 0 0
1.4891 2.7043 0.8474 0.989 -0.147 -0.029 36 36 39 0 0
1.4708 2.6995 0.8532 0.900 -0.418 0.124 33 33 35 0 0
1.7045 3.7580 0.7154 0.789 -0.607 0.098 71 72 70 0 0
1.5463 3.3727 0.7926 0.867 -0.401 0.295 19 19 21 0 0
1.5616 3.2027 0.8015 0.792 0.609 -0.037 13 13 15 0 0
1.5910 3.1642 0.7958 0.792 0.609 -0.037 17 17 19 0 0
1.4957 2.7038 0.8604 0.930 -0.026 -0.367 40 40 44 0 0
1.4700 2.7037 0.8680 0.912 -0.406 0.056 38 38 40 0 0
1.4546 2.6969 0.8730 0.888 -0.253 0.385 36 36 38 0 0
1.3829 2.6429 0.8985 0.558 0.162 0.814 33 31 34 0 0
1.7187 3.7696 0.7258 0.766 -0.583 -0.272 152 152 153 0 0
1.7107 3.7576 0.7291 0.766 -0.583 -0.272 78 79 80 0 0
1.8125 3.3882 0.7276 0.019 -0.568 -0.823 27 27 29 0 0
1.7980 3.3817 0.7325 -0.058 -0.530 -0.846 23 23 25 0 0
1.5438 3.3788 0.8083 0.867 -0.401 0.295 19 19 21 0 0
1.4993 3.3402 0.8245 0.908 -0.290 0.304 11 11 13 0 0
1.5713 3.1824 0.8154 0.895 0.302 0.328 16 16 18 0 0
1.5180 2.9103 0.8525 0.737 -0.218 0.639 26 26 28 0 0
1.5060 2.8845 0.8581 0.935 -0.045 0.351 25 25 27 0 0
1.5046 2.8686 0.8597 0.935 -0.045 0.351 21 20 25 0 0
1.4179 2.7909 0.8916 0.930 -0.351 -0.107 44 43 48 0 0
1.4615 2.7127 0.8847 0.774 -0.389 0.500 42 41 45 0 0
1.4527 2.7018 0.8882 0.751 -0.473 0.461 40 39 43 0 0
1.3334 2.6774 0.9255 0.558 0.162 0.814 39 37 41 0 0
1.2559 2.5426 0.9591 0.438 0.000 0.899 34 33 38 0 0
1.2067 2.5225 0.9753 0.457 -0.211 0.864 35 34 38 0 0
1.2017 2.4925 0.9791 -0.330 -0.643 -0.691 32 32 36 0 0
1.2162 2.3861 0.9831 0.196 -0.780 0.594 35 35 37 0 0
1.1840 2.3884 0.9925 0.090 -0.925 0.370 34 34 36 0 0
1.7166 3.7574 0.7428 0.797 -0.478 -0.370 81 81 83 0 0
1.5255 3.3609 0.8305 0.971 -0.207 0.119 16 16 18 0 0
1.5022 3.3602 0.8375 0.454 -0.854 0.253 14 14 16 0 0
1.5847 3.1595 0.8284 0.846 0.451 0.285 19 19 21 0 0
1.4904 2.8987 0.8767 0.797 -0.054 0.602 28 28 30 0 0
1.4880 2.8835 0.8786 0.797 -0.054 0.602 27 26 30 0 0
1.4008 2.7889 0.9119 0.612 -0.746 -0.261 45 44 49 0 0
1.3996 2.7728 0.9135 0.898 -0.154 0.413 44 43 48 0 0
1.4510 2.7065 0.9033 0.471 -0.749 0.466 43 42 47 0 0
1.2457 2.6686 0.9675 0.650 0.186 0.736 43 41 46 0 0
1.7261 3.7359 0.7571 0.652 -0.733 -0.196 67 67 70 0 0
1.5098 3.3588 0.8508 0.766 -0.622 0.163 14 14 16 0 0
1.4994 3.3486 0.8547 0.853 -0.496 0.161 12 12 14 0 0
1.4137 2.7007 0.9299 0.643 -0.726 0.243 46 45 50 0 0
1.3981 2.6940 0.9351 0.526 -0.775 0.351 45 44 49 0 0
1.5193 3.3561 0.8637 0.943 -0.224 0.247 15 15 17 0 0
1.5152 3.3413 0.8660 0.943 -0.224 0.247 13 13 15 0 0
1.5427 3.3034 0.8606 0.532 -0.844 -0.075 11 11 13 0 0
1.3763 2.7114 0.9554 0.146 -0.849 0.508 46 45 50 0 0
1.6325 3.0685 0.8663 0.788 0.583 0.196 26 26 28 0 0
1.6872 2.9959 0.8551 0.899 0.247 0.361 27 27 29 0 0
1.4658 2.7915 0.9374 0.721 0.439 0.536 27 26 31 0 0
1.4707 2.7716 0.9374 0.780 0.356 0.514 35 34 39 0 0
1.0524 2.1839 1.1081 0.682 0.270 0.680 20 21 25 0 0
1.5489 3.3072 0.8892 0.955 0.200 0.218 12 12 14 0 0
1.6117 3.0872 0.8863 0.781 0.617 0.097 25 25 27 0 0
1.6797 3.0051 0.8716 0.870 0.487 0.076 28 28 30 0 0
1.6514 2.9739 0.8825 0.331 -0.870 0.366 20 20 22 0 0
1.4513 2.7879 0.9572 0.703 0.415 0.577 29 28 33 0 0
1.4508 2.7715 0.9586 0.732 0.245 0.636 30 29 34 0 0
1.6931 3.7813 0.8260 0.790 0.461 -0.404 51 51 53 0 0
1.7389 3.5793 0.8267 0.802 0.559 0.210 48 46 51 0 0
1.5257 3.3820 0.9063 0.945 -0.308 0.114 18 18 20 0 0
1.5238 3.3655 0.9081 0.927 -0.352 0.132 17 17 19 0 0
1.5540 3.2194 0.9095 0.025 -0.967 0.253 11 11 13 0 0
1.4200 2.7114 0.9875 0.334 -0.645 -0.687 43 42 47 0 0
1.1316 2.3407 1.1028 0.016 -0.604 -0.797 40 39 43 0 0
1.1152 2.3337 1.1083 0.123 -0.403 -0.907 42 41 45 0 0
1.1155 2.3172 1.1094 0.222 -0.422 -0.879 43 42 46 0 0
1.7172 3.6010 0.8472 0.784 0.583 0.214 50 48 53 0 0
1.5293 3.3658 0.9219 0.913 -0.388 0.129 17 17 19 0 0
1.5543 3.2233 0.9244 0.025 -0.967 0.253 11 11 13 0 0
1.6656 2.9888 0.9070 0.711 -0.314 0.629 24 24 26 0 0
1.3309 2.7381 1.0281 -0.229 -0.908 -0.352 40 39 44 0 0
1.1183 2.3028 1.1248 0.961 -0.274 -0.023 37 36 41 0 0
1.1128 2.2735 1.1286 0.956 -0.172 0.239 42 41 46 0 0
1.7303 3.7789 0.8460 0.938 0.047 -0.343 71 71 71 0 0
1.7219 3.7672 0.8494 0.736 -0.578 -0.351 56 56 58 0 0
1.5290 3.3702 0.9372 0.913 -0.388 0.129 18 18 20 0 0
1.5606 3.2936 0.9329 0.830 -0.324 0.454 11 11 13 0 0
1.5235 3.1968 0.9512 0.856 0.272 -0.439 24 24 26 0 0
1.5550 3.1569 0.9443 0.734 0.653 -0.187 23 23 25 0 0
1.2808 2.7059 1.0611 0.526 -0.714 -0.462 30 29 34 0 0
1.1066 2.2964 1.1441 0.736 -0.083 0.672 29 28 32 0 0
1.7277 3.7671 0.8632 0.758 -0.449 -0.473 59 60 62 0 0
1.8210 3.4028 0.8597 0.957 0.232 -0.173 36 36 38 0 0
1.5415 3.3652 0.9492 0.974 -0.168 0.151 18 18 20 0 0
1.5509 3.3048 0.9505 0.794 -0.586 0.163 11 11 13 0 0
1.5313 3.1778 0.9655 0.840 0.183 -0.510 26 26 28 0 0
1.6780 2.9880 0.9332 0.766 -0.557 0.321 32 32 34 0 0
1.2669 2.7014 1.0811 0.846 -0.193 -0.497 30 30 33 0 0
1.8261 3.4031 0.8732 0.827 0.562 -0.009 26 26 28 0 0
1.5413 3.3697 0.9645 0.998 -0.051 0.023 19 19 21 0 0
1.5508 3.3091 0.9657 0.896 -0.443 0.026 12 12 14 0 0
1.1528 2.6909 1.1328 0.249 -0.668 0.702 33 33 35 0 0
1.7082 3.6629 0.9077 0.453 0.256 -0.854 30 29 34 0 0
1.7041 3.6477 0.9100 0.391 0.143 -0.909 29 28 32 0 0
1.5553 3.3100 0.9797 0.698 -0.694 0.176 13 13 15 0 0
1.7468 3.7469 0.9054 0.907 -0.398 0.135 71 71 70 0 0
1.7609 3.6070 0.9104 0.393 0.184 -0.901 30 30 34 0 0
1.8097 3.3891 0.9097 -0.361 -0.918 0.165 24 24 26 0 0
1.5538 3.3154 0.9954 0.671 -0.711 0.210 13 13 15 0 0
1.2695 2.6939 1.1269 0.748 -0.322 0.580 19 19 22 0 0
1.1186 2.7191 1.1728 0.329 -0.712 0.620 27 27 28 0 0
1.7503 3.7673 0.9186 0.940 -0.275 0.201 57 58 62 0 0
1.7455 3.7527 0.9211 0.934 -0.283 0.218 61 60 64 0 0
1.7838 3.3957 0.9327 -0.417 -0.635 -0.650 25 25 27 0 0
1.5534 3.3199 1.0107 0.574 -0.798 0.185 14 14 16 0 0
1.2320 2.8747 1.1421 0.848 0.217 0.484 35 35 37 0 0
1.2604 2.7201 1.1434 0.964 -0.190 0.185 21 21 23 0 0
1.0978 2.7356 1.1940 0.362 -0.873 0.326 16 16 16 0 0
1.7698 3.7745 0.9275 0.991 0.133 -0.026 60 60 65 0 0
1.7532 3.7696 0.9331 0.962 -0.236 0.140 52 53 57 0 0
1.7434 3.7590 0.9369 0.781 -0.560 0.277 48 47 53 0 0
1.5425 3.3321 1.0289 0.995 0.014 0.098 15 15 17 0 0
1.2633 2.7220 1.1578 0.512 -0.779 0.361 20 20 22 0 0
1.0955 2.7407 1.2100 0.362 -0.873 0.326 15 15 15 0 0
1.7512 3.7759 0.9490 0.990 -0.022 -0.142 51 52 54 0 0
1.5424 3.3544 1.0431 0.955 -0.255 0.149 18 18 20 0 0
1.5322 3.3082 1.0493 0.967 0.141 0.210 11 11 13 0 0
1.2155 2.8757 1.1786 0.853 0.504 0.135 30 29 34 0 0
1.2645 2.7419 1.1716 0.855 -0.001 0.518 34 34 36 0 0
1.2636 2.7086 1.1741 0.530 -0.731 0.430 19 19 21 0 0
1.2368 2.7083 1.1826 0.169 -0.956 0.242 16 16 18 0 0
1.1735 2.7305 1.2015 -0.271 -0.956 0.114 12 12 15 0 0
0.9245 2.6756 1.2847 0.190 -0.961 0.200 170 170 168 0 0
1.7393 3.8278 0.9652 0.955 -0.159 -0.250 117 119 117 0 0
1.7370 3.8110 0.9670 0.955 -0.159 -0.250 66 68 68 0 0
1.2162 2.8618 1.1950 0.850 0.516 0.100 36 37 42 0 0
1.2591 2.7150 1.1905 0.589 -0.682 0.434 20 20 22 0 0
1.0966 2.7474 1.2407 -0.267 -0.929 -0.255 14 14 16 0 0
1.0495 2.7419 1.2562 0.717 -0.207 -0.665 31 30 35 0 0
1.7632 3.8314 0.9730 0.871 0.266 -0.414 165 165 163 0 0
1.7486 3.8249 0.9781 0.749 -0.495 -0.440 127 129 126 0 0
1.7615 3.7768 0.9770 0.556 -0.759 -0.338 53 54 56 0 0
1.7464 3.7706 0.9822 0.439 -0.823 -0.360 46 48 47 0 0
1.2115 2.8686 1.2118 0.885 0.465 0.035 29 30 34 0 0
1.0619 2.7208 1.2694 0.262 -0.669 -0.696 39 39 44 0 0
1.7608 3.8382 0.9891 0.783 -0.324 -0.531 162 163 160 0 0
1.7519 3.8081 0.9938 0.731 -0.411 -0.544 77 78 78 0 0
1.7814 3.7651 0.9869 0.841 -0.240 -0.485 58 59 60 0 0
1.7540 3.7691 0.9956 0.434 -0.800 -0.415 47 49 46 0 0
1.7834 3.4893 1.0033 0.780 0.515 0.355 28 28 30 0 0
1.7016 2.8715 1.0682 0.811 -0.585 -0.029 23 24 26 0 0
1.2024 2.8609 1.2309 0.872 0.486 0.057 33 34 37 0 0
1.2451 2.7652 1.2229 0.973 -0.177 0.147 55 54 58 0 0
1.7689 3.8362 1.0023 0.783 -0.324 -0.531 155 156 154 0 0
1.7620 3.8045 1.0065 0.833 -0.396 -0.386 79 80 79 0 0
1.7484 3.7970 1.0114 0.623 -0.755 -0.205 71 73 72 0 0
1.7646 3.7650 1.0080 0.547 -0.783 -0.297 59 60 58 0 0
1.7031 3.7969 1.0262 0.691 -0.466 -0.553 49 50 48 0 0
1.7038 2.8739 1.0823 0.811 -0.585 -0.029 24 25 27 0 0
1.2014 2.8654 1.2466 0.920 0.392 -0.003 23 26 27 0 0
1.2386 2.7219 1.2433 0.757 -0.479 0.446 29 29 30 0 0
1.7754 3.8356 1.0160 0.787 -0.561 -0.257 137 138 136 0 0
1.7723 3.8194 1.0180 0.906 -0.346 -0.243 73 75 73 0 0
1.7674 3.8048 1.0204 0.906 -0.346 -0.243 69 71 69 0 0
1.7630 3.7897 1.0228 0.848 -0.526 0.061 63 65 64 0 0
1.7212 3.7681 1.0378 0.822 -0.534 0.198 55 55 55 0 0
1.8571 3.3693 1.0172 -0.057 -0.850 -0.524 28 28 30 0 0
1.7073 2.8753 1.0960 0.602 -0.790 -0.113 25 26 28 0 0
1.2444 2.7731 1.2538 0.994 0.110 -0.030 58 58 60 0 0
1.2472 2.7202 1.2561 0.904 -0.301 0.303 33 33 34 0 0
0.8676 2.7276 1.3801 -0.371 -0.877 -0.307 170 170 168 0 0
1.7886 3.8294 1.0278 0.969 0.177 -0.171 123 124 122 0 0
1.7936 3.8299 1.0418 0.938 0.316 -0.142 123 124 121 0 0
1.7998 3.7874 1.0422 0.976 -0.218 -0.014 56 57 59 0 0
1.7158 2.8772 1.1231 0.880 -0.455 -0.134 26 27 29 0 0
1.8627 3.3779 1.0605 0.527 -0.111 -0.843 34 34 38 0 0
1.1830 2.8751 1.3153 0.241 -0.968 -0.063 14 14 16 0 0
1.2653 2.6861 1.2988 0.949 0.168 -0.267 29 31 30 0 0
1.2713 2.6655 1.2980 0.873 0.034 -0.487 18 21 21 0 0
1.1141 2.6769 1.3495 0.139 -0.935 -0.326 25 26 28 0 0
1.8206 3.8731 1.0618 0.481 -0.291 -0.827 170 170 168 0 0
1.5410 3.3760 1.1833 0.862 -0.478 -0.167 19 19 21 0 0
1.7037 2.8428 1.1591 0.791 -0.594 -0.149 25 26 28 0 0
1.2159 2.8406 1.3221 0.996 0.006 0.091 17 17 19 0 0
1.2752 2.6668 1.3121 0.965 0.263 -0.010 25 27 26 0 0
1.2749 2.6501 1.3131 0.960 -0.121 -0.255 31 35 34 0 0
1.5213 3.3769 1.2056 0.437 -0.607 -0.664 19 19 21 0 0
1.5063 3.3518 1.2120 0.879 0.138 -0.457 16 16 18 0 0
1.7074 2.8441 1.1728 0.860 -0.510 0.004 24 25 27 0 0
1.2731 2.6549 1.3290 0.998 -0.065 -0.017 28 30 29 0 0
1.7774 3.8250 1.1106 0.878 -0.406 -0.256 66 68 72 0 0
1.2248 2.7908 1.3533 0.973 0.031 0.227 40 40 41 0 0
1.1263 2.6804 1.3926 0.239 -0.873 -0.425 14 15 17 0 0
0.8491 2.2831 1.5077 -0.020 -0.507 -0.862 173 171 172 0 0
1.7820 3.8259 1.1248 0.878 -0.406 -0.256 73 75 78 0 0
1.6137 2.8310 1.2353 -0.137 -0.736 -0.663 19 19 21 0 0
1.2216 2.7794 1.3708 0.987 -0.098 0.127 44 44 44 0 0
1.1338 2.6625 1.4068 0.298 -0.902 -0.313 17 18 20 0 0
1.7755 3.9117 1.1383 0.824 0.479 -0.302 170 170 168 0 0
1.7939 3.8772 1.1339 0.824 0.479 -0.302 169 169 167 0 0
1.7977 3.8364 1.1348 0.895 -0.446 0.001 110 111 113 0 0
1.7848 3.8283 1.1396 0.765 -0.641 0.066 77 79 83 0 0
1.7155 2.8333 1.2157 0.968 -0.203 -0.150 24 24 26 0 0
1.2219 2.7829 1.3862 0.994 0.043 -0.102 36 36 39 0 0
1.2169 2.7689 1.3887 0.915 -0.391 -0.101 46 46 46 0 0
1.1445 2.6597 1.4191 0.615 -0.621 -0.485 16 17 19 0 0
1.8092 3.8881 1.1440 0.969 0.181 -0.166 170 170 168 0 0
1.2144 2.7742 1.4050 0.892 -0.374 -0.252 40 40 42 0 0
1.2480 2.6511 1.3999 0.694 -0.503 -0.514 29 30 32 0 0
1.1502 2.6598 1.4329 0.573 -0.747 -0.339 17 18 20 0 0
0.8506 2.6489 1.5358 -0.364 -0.863 -0.351 173 172 170 0 0
1.8142 3.8697 1.1591 0.626 -0.771 0.112 168 167 165 0 0
1.7926 3.8502 1.1675 0.684 -0.700 0.205 77 79 82 0 0
1.7834 3.8391 1.1712 0.783 -0.609 0.126 64 66 70 0 0
1.7741 3.8279 1.1749 0.783 -0.609 0.126 49 55 58 0 0
1.5393 3.2771 1.2836 0.499 -0.857 -0.126 12 12 14 0 0
1.5308 3.2654 1.2872 0.786 0.611 -0.096 11 11 13 0 0
1.2188 2.7752 1.4192 0.892 -0.374 -0.252 37 37 38 0 0
1.1508 2.6461 1.4491 0.862 -0.492 -0.125 23 23 25 0 0
1.1304 2.6244 1.4573 0.293 -0.657 -0.694 57 56 58 0 0
1.8229 3.8484 1.1730 0.964 0.145 -0.224 144 145 145 0 0
1.7996 3.8492 1.1810 0.662 -0.750 -0.006 81 82 84 0 0
1.7423 3.8214 1.2021 0.188 -0.980 0.070 46 46 51 0 0
1.7213 3.8200 1.2095 0.101 -0.995 -0.019 47 46 52 0 0
1.9205 3.2272 1.1705 0.642 0.322 -0.696 25 26 28 0 0
1.5413 3.2978 1.2977 0.977 -0.167 0.133 15 15 17 0 0
1.5292 3.2708 1.3032 0.850 0.521 0.082 11 11 13 0 0
1.2161 2.7635 1.4366 0.914 -0.392 -0.104 41 41 42 0 0
1.2555 2.6538 1.4285 0.812 0.145 -0.566 49 49 51 0 0
1.1498 2.6334 1.4659 0.929 0.348 -0.126 28 28 30 0 0
1.8270 3.8686 1.1864 0.965 0.030 -0.261 168 167 165 0 0
1.8002 3.8534 1.1965 0.608 -0.783 -0.133 90 91 92 0 0
1.7890 3.8440 1.2008 0.608 -0.783 -0.133 67 70 72 0 0
1.7957 3.8195 1.1997 0.708 -0.691 -0.145 51 54 57 0 0
1.9340 3.2211 1.1812 0.643 0.274 -0.716 27 28 30 0 0
1.5376 3.2868 1.3153 0.757 -0.623 0.198 12 12 14 0 0
1.2187 2.7656 1.4513 0.868 -0.495 -0.031 35 35 37 0 0
1.2237 2.7282 1.4514 0.924 0.369 0.101 47 47 49 0 0
1.2416 2.7000 1.4466 0.881 0.391 -0.265 52 52 54 0 0
1.2591 2.6552 1.4428 0.881 0.228 -0.414 50 50 52 0 0
1.2451 2.6468 1.4480 0.602 -0.245 -0.760 44 44 47 0 0
1.8309 3.8702 1.2009 0.965 0.030 -0.261 170 169 167 0 0
1.8292 3.8339 1.2032 0.934 -0.207 -0.292 110 111 110 0 0
1.8196 3.8232 1.2071 0.749 -0.577 -0.326 71 74 75 0 0
1.5449 3.2857 1.3286 0.845 -0.517 0.140 13 13 15 0 0
1.5514 3.2631 1.3274 0.919 0.321 0.231 12 12 14 0 0
1.1876 2.7716 1.4777 0.890 0.353 0.288 39 39 40 0 0
1.2404 2.6534 1.4650 0.398 -0.828 -0.395 47 47 50 0 0
1.2236 2.6468 1.4712 0.577 -0.675 -0.460 42 41 46 0 0
1.1792 2.5890 1.4894 0.510 -0.831 -0.222 48 46 51 0 0
1.8369 3.8511 1.2156 0.934 -0.207 -0.292 166 165 163 0 0
1.8339 3.8348 1.2174 0.934 -0.207 -0.292 119 119 119 0 0
1.8254 3.8230 1.2209 0.749 -0.577 -0.326 75 76 78 0 0
1.8596 3.4643 1.2259 0.810 0.218 0.544 30 30 32 0 0
1.5588 3.2620 1.3406 0.904 0.406 0.134 13 13 15 0 0
1.2140 2.7588 1.4849 0.557 -0.828 -0.068 35 35 35 0 0
1.2286 2.6473 1.4851 0.587 -0.783 -0.208 46 45 50 0 0
1.1803 2.5919 1.5046 0.658 -0.753 -0.028 41 39 44 0 0
1.1705 2.5809 1.5085 0.685 -0.726 0.063 28 28 33 0 0
1.1154 2.5968 1.5270 0.624 -0.757 0.193 33 33 37 0 0
1.8371 3.8746 1.2303 0.944 0.092 -0.316 172 171 169 0 0
1.8425 3.8323 1.2303 0.923 0.170 -0.346 131 131 131 0 0
1.8400 3.8156 1.2320 0.897 -0.182 -0.402 79 80 82 0 0
1.8103 3.8217 1.2421 0.738 -0.627 -0.251 63 64 68 0 0
1.1472 2.5815 1.5324 0.743 -0.653 -0.151 23 25 27 0 0
1.8418 3.8755 1.2445 0.944 0.092 -0.316 173 172 170 0 0
1.8153 3.8223 1.2562 0.825 -0.554 -0.107 72 73 77 0 0
1.6334 2.7511 1.3691 0.578 -0.122 -0.807 16 16 18 0 0
1.2246 2.7425 1.5136 -0.159 -0.907 -0.389 33 32 36 0 0
1.2278 2.6381 1.5172 0.074 -0.981 0.177 44 43 48 0 0
1.2133 2.6300 1.5227 0.243 -0.827 0.507 41 40 45 0 0
1.2036 2.6020 1.5274 0.679 -0.699 0.223 26 26 30 0 0
1.8522 3.8337 1.2585 0.946 0.235 -0.225 108 108 106 0 0
1.8187 3.8431 1.2700 0.988 0.005 -0.152 78 79 81 0 0
1.8165 3.8261 1.2715 0.832 -0.554 0.034 76 75 80 0 0
1.9358 3.3640 1.2499 0.911 0.409 -0.044 29 29 31 0 0
1.7128 2.7689 1.3554 0.950 -0.282 -0.133 23 23 25 0 0
1.2723 2.6315 1.5175 0.113 -0.931 -0.346 47 47 50 0 0
1.8214 3.8646 1.2840 0.991 -0.088 -0.097 91 91 91 0 0
1.8200 3.8468 1.2853 0.997 -0.066 -0.041 71 71 72 0 0
1.7106 2.7741 1.3711 0.954 -0.201 -0.220 20 20 22 0 0
1.7040 2.7619 1.3740 0.757 -0.576 -0.307 26 24 27 0 0
1.3042 2.7343 1.5173 -0.190 -0.835 -0.517 15 16 18 0 0
1.2748 2.7357 1.5277 -0.225 -0.832 -0.507 21 21 23 0 0
0.8710 2.6177 1.6765 -0.271 -0.959 -0.079 174 174 172 0 0
1.8229 3.8681 1.2993 0.990 -0.135 0.033 83 83 84 0 0
1.7522 3.7949 1.3277 0.322 -0.860 0.395 51 50 55 0 0
1.7477 3.7797 1.3299 0.610 -0.497 0.617 51 51 54 0 0
1.8929 3.2647 1.3001 -0.241 -0.961 -0.134 29 29 31 0 0
1.7130 2.7596 1.3860 0.896 -0.283 -0.343 23 21 24 0 0
1.3190 2.7287 1.5280 -0.190 -0.808 -0.558 16 17 18 0 0
1.2936 2.7276 1.5371 -0.194 -0.775 -0.601 23 23 24 0 0
1.2724 2.7238 1.5449 -0.175 -0.674 -0.718 28 28 30 0 0
1.0709 2.5903 1.6226 -0.131 -0.974 -0.185 69 70 68 0 0
1.0380 2.5926 1.6342 -0.097 -0.967 -0.237 88 89 86 0 0
1.0115 2.5910 1.6437 -0.190 -0.941 -0.280 89 93 89 0 0
0.8482 2.6172 1.7010 -0.229 -0.961 -0.155 173 173 171 0 0
1.7909 3.9000 1.3254 0.432 -0.704 -0.563 85 86 84 0 0
1.7676 3.8436 1.3361 0.744 -0.529 -0.409 47 47 52 0 0
1.7229 3.8049 1.3538 0.090 -0.990 0.105 59 58 62 0 0
1.0768 2.5903 1.6364 -0.091 -0.983 -0.159 76 76 77 0 0
1.0202 2.5895 1.6567 -0.161 -0.931 -0.327 78 81 78 0 0
0.8802 2.6023 1.7064 -0.224 -0.877 -0.426 174 174 172 0 0
1.8736 3.8916 1.3120 0.345 -0.926 0.153 172 172 170 0 0
1.8346 3.9059 1.3255 0.996 0.042 -0.080 169 169 167 0 0
1.8355 3.8861 1.3260 0.996 0.042 -0.080 153 154 153 0 0
1.8253 3.8758 1.3301 0.980 0.105 -0.169 92 94 93 0 0
1.6605 2.7018 1.4375 0.937 -0.109 -0.333 18 17 22 0 0
1.6101 2.7182 1.4550 0.941 0.097 -0.324 14 14 17 0 0
1.1909 2.6108 1.6104 0.220 -0.821 -0.527 44 44 48 0 0
1.1695 2.6067 1.6183 0.223 -0.717 -0.661 43 42 47 0 0
1.1542 2.5989 1.6241 0.107 -0.738 -0.666 45 44 48 0 0
1.0347 2.5846 1.6678 -0.129 -0.942 -0.310 77 77 77 0 0
1.0045 2.5852 1.6786 -0.139 -0.903 -0.407 76 76 75 0 0
1.8397 3.9064 1.3396 0.978 -0.172 -0.119 170 170 168 0 0
1.8365 3.8901 1.3414 0.996 0.042 -0.080 160 161 160 0 0
1.8274 3.8788 1.3452 0.973 0.128 -0.191 112 114 113 0 0
1.7882 3.8171 1.3619 0.137 -0.846 -0.515 41 40 45 0 0
1.7406 3.7998 1.3798 -0.095 -0.963 -0.251 48 48 50 0 0
1.7897 3.6291 1.3688 0.037 -0.687 0.725 30 30 32 0 0
1.8914 3.2434 1.3475 -0.233 -0.969 0.085 21 21 23 0 0
1.8921 3.2253 1.3479 0.935 -0.241 -0.260 17 17 19 0 0
1.7149 2.7529 1.4310 0.886 -0.422 -0.195 18 18 20 0 0
1.7134 2.7372 1.4321 0.903 -0.425 -0.065 20 20 22 0 0
1.7102 2.7227 1.4339 0.643 -0.631 -0.435 20 20 22 0 0
1.6861 2.7054 1.4433 0.889 -0.371 -0.270 21 21 23 0 0
1.1866 2.6001 1.6283 0.096 -0.605 -0.790 41 41 42 0 0
1.1727 2.5915 1.6336 0.061 -0.633 -0.772 47 47 48 0 0
1.0714 2.5837 1.6706 -0.058 -0.996 -0.073 76 76 74 0 0
1.0461 2.5815 1.6799 -0.086 -0.954 -0.287 73 72 73 0 0
1.8420 3.9093 1.3547 0.978 -0.172 -0.119 172 172 170 0 0
1.8393 3.8926 1.3564 0.978 -0.172 -0.119 166 167 166 0 0
1.8366 3.8759 1.3580 0.978 -0.172 -0.119 128 130 129 0 0
1.7604 3.7319 1.3913 0.107 -0.289 -0.951 23 23 25 0 0
1.7155 2.7396 1.4464 0.903 -0.425 -0.065 26 26 28 0 0
1.7127 2.7248 1.4480 0.718 -0.695 -0.036 21 21 23 0 0
1.6709 2.7024 1.4641 0.874 -0.340 -0.347 19 18 23 0 0
1.6538 2.6970 1.4705 0.516 -0.681 -0.519 17 16 21 0 0
1.6390 2.6900 1.4761 0.406 -0.636 -0.656 16 15 20 0 0
1.2042 2.5931 1.6380 0.026 -0.627 -0.778 49 49 49 0 0
1.1873 2.5863 1.6444 0.056 -0.764 -0.643 65 65 65 0 0
1.0377 2.5730 1.6993 -0.105 -0.897 -0.428 80 77 76 0 0
1.8663 3.9125 1.3618 0.714 -0.696 -0.076 173 173 171 0 0
1.8444 3.9122 1.3698 0.978 -0.172 -0.119 172 172 170 0 0
1.8389 3.8788 1.3731 0.978 -0.172 -0.119 140 141 140 0 0
1.8370 3.8615 1.3744 0.980 -0.120 -0.159 82 83 84 0 0
1.8163 3.8033 1.3842 0.319 -0.662 -0.678 43 43 48 0 0
1.8220 3.6307 1.3887 0.732 0.567 -0.377 19 19 21 0 0
1.7288 2.7345 1.4569 0.702 -0.378 -0.604 83 82 84 0 0
1.7347 2.7139 1.4556 0.692 -0.716 -0.093 76 75 77 0 0
1.6826 2.7319 1.4739 0.496 -0.555 -0.668 68 67 69 0 0
1.6610 2.6961 1.4831 0.716 -0.697 -0.027 52 50 54 0 0
1.6535 2.6843 1.4863 0.406 -0.819 -0.405 43 41 46 0 0
1.6332 2.6642 1.4945 0.495 -0.698 -0.517 50 48 52 0 0
1.2521 2.5848 1.6367 -0.006 -0.875 -0.484 51 51 51 0 0
1.2291 2.5817 1.6451 0.062 -0.887 -0.458 67 67 67 0 0
1.2075 2.5778 1.6532 0.041 -0.971 -0.237 78 78 78 0 0
1.0502 2.5692 1.7109 0.073 -0.939 -0.336 77 73 74 0 0
1.8698 3.9145 1.3765 0.714 -0.696 -0.076 173 173 171 0 0
1.8494 3.8938 1.3847 0.685 -0.728 -0.032 170 169 169 0 0
1.8413 3.8817 1.3881 0.978 -0.172 -0.119 152 151 152 0 0
1.8397 3.8641 1.3893 0.980 -0.120 -0.159 89 89 90 0 0
1.8378 3.8467 1.3907 0.980 -0.120 -0.159 76 77 79 0 0
1.8300 3.7966 1.3954 0.250 -0.666 -0.703 45 46 51 0 0
1.5310 3.2750 1.5245 0.856 -0.439 0.273 14 14 16 0 0
1.7656 2.7970 1.4562 0.241 -0.775 -0.584 41 39 40 0 0
1.6780 2.7053 1.4918 0.364 -0.714 -0.598 94 92 95 0 0
1.6617 2.6993 1.4980 0.632 -0.773 -0.063 93 91 94 0 0
1.6471 2.6922 1.5036 0.979 0.194 0.055 95 93 96 0 0
1.6440 2.6776 1.5053 0.972 0.085 0.218 96 94 97 0 0
1.6398 2.6636 1.5073 0.992 -0.009 0.127 97 95 97 0 0
1.6394 2.6473 1.5081 0.978 0.024 0.208 95 93 94 0 0
1.0446 2.5761 1.7288 0.476 -0.871 -0.122 70 68 69 0 0
1.8732 3.9164 1.3911 0.714 -0.696 -0.076 173 173 171 0 0
1.8443 3.8840 1.4029 0.980 -0.120 -0.159 154 153 154 0 0
1.8424 3.8666 1.4043 0.980 -0.120 -0.159 92 92 94 0 0
1.8405 3.8492 1.4056 0.980 -0.120 -0.159 84 85 87 0 0
1.8570 3.7977 1.4014 0.645 -0.610 -0.461 67 68 70 0 0
1.8493 3.7853 1.4047 0.818 -0.219 -0.533 53 54 57 0 0
1.8461 3.7692 1.4065 0.818 -0.219 -0.533 49 49 53 0 0
1.7858 3.6693 1.4323 0.112 -0.332 -0.937 36 36 38 0 0
1.5511 3.2826 1.5327 0.452 -0.884 -0.116 16 16 18 0 0
1.5252 3.2834 1.5422 0.791 -0.606 -0.090 14 14 16 0 0
1.7200 2.7312 1.4906 0.789 -0.087 -0.608 95 93 95 0 0
1.7246 2.7115 1.4896 0.918 -0.019 -0.396 93 91 94 0 0
1.6796 2.6913 1.5069 0.591 -0.668 0.451 80 78 81 0 0
1.6418 2.6827 1.5211 0.971 0.223 -0.087 95 93 96 0 0
1.1291 2.5809 1.7136 -0.088 -0.996 -0.004 46 45 51 0 0
1.0972 2.5829 1.7253 -0.053 -0.999 0.007 51 51 54 0 0
0.8704 2.5777 1.8090 -0.397 -0.861 -0.317 173 173 173 0 0
1.8714 3.9229 1.4076 0.819 -0.573 -0.022 174 174 172 0 0
1.8471 3.8865 1.4179 0.980 -0.120 -0.159 138 138 138 0 0
1.8451 3.8692 1.4192 0.955 -0.276 -0.113 79 79 81 0 0
1.8393 3.7609 1.4252 0.875 -0.436 0.210 59 58 63 0 0
1.9440 3.3303 1.4018 0.969 -0.247 -0.020 34 34 36 0 0
1.5511 3.2868 1.5485 0.115 -0.919 -0.377 16 16 18 0 0
1.5365 3.2794 1.5542 0.576 -0.709 -0.407 15 15 17 0 0
1.7472 2.7502 1.4950 0.333 -0.709 -0.622 100 98 99 0 0
1.6901 2.7214 1.5171 0.623 -0.775 0.106 98 96 99 0 0
1.7006 2.6978 1.5141 0.781 -0.446 -0.436 94 92 95 0 0
1.1619 2.5991 1.7168 0.066 -0.870 0.488 42 43 47 0 0
1.8482 3.8904 1.4334 0.828 -0.560 -0.028 115 117 116 0 0
1.8401 3.8783 1.4368 0.828 -0.560 -0.028 74 76 75 0 0
1.5392 3.2818 1.5691 0.475 -0.864 -0.165 16 16 18 0 0
1.5518 3.2366 1.5660 0.815 0.575 -0.074 11 11 13 0 0
1.6997 2.7188 1.5289 0.995 -0.031 -0.091 95 92 93 0 0
1.6758 2.6679 1.5395 0.796 -0.554 -0.245 87 85 88 0 0
1.6743 2.6523 1.5406 0.515 -0.766 0.384 98 96 99 0 0
1.8575 3.9065 1.4455 0.829 -0.559 -0.012 162 163 162 0 0
1.8521 3.8920 1.4480 0.982 -0.183 -0.054 101 103 102 0 0
1.9320 3.3660 1.4358 0.212 -0.450 -0.867 25 25 27 0 0
1.9342 3.3465 1.4356 0.432 -0.426 -0.795 27 27 29 0 0
1.9050 3.2805 1.4487 0.928 -0.185 -0.324 30 30 32 0 0
1.5879 3.2865 1.5668 0.601 -0.767 0.226 19 19 21 0 0
1.6824 2.6673 1.5523 0.868 -0.377 -0.323 116 115 118 0 0
1.8501 3.9177 1.4640 0.996 0.073 -0.056 163 164 162 0 0
1.8543 3.8951 1.4632 0.986 0.114 -0.121 103 105 104 0 0
1.8372 3.8146 1.4722 0.635 -0.718 0.286 46 47 51 0 0
1.8150 3.7954 1.4811 0.354 -0.722 0.594 51 50 56 0 0
1.9609 3.3301 1.4417 0.468 -0.830 -0.304 26 26 28 0 0
1.9116 3.2798 1.4618 0.841 -0.276 -0.464 31 31 33 0 0
1.5894 3.2897 1.5821 0.566 -0.770 0.297 20 20 22 0 0
1.5703 3.2856 1.5894 0.369 -0.896 0.249 18 18 20 0 0
1.5555 2.5864 1.6177 0.279 -0.784 -0.554 33 33 35 0 0
1.8687 3.9067 1.4735 0.951 0.305 -0.048 166 166 165 0 0
1.8241 3.8304 1.4927 0.320 -0.909 0.266 44 44 49 0 0
1.5798 3.3190 1.6007 0.905 -0.381 0.188 21 21 23 0 0
1.5911 3.2927 1.5973 0.402 -0.895 0.193 21 21 23 0 0
1.6927 2.7014 1.5778 0.862 -0.281 -0.422 90 91 92 0 0
1.6888 2.6872 1.5797 0.777 -0.160 -0.609 73 73 76 0 0
0.8367 2.5629 1.9041 -0.363 -0.910 -0.202 176 175 174 0 0
1.9112 2.7573 1.5088 0.525 -0.679 -0.514 99 97 98 0 0
1.7100 2.7103 1.5863 0.352 -0.194 -0.916 77 78 80 0 0
0.8655 2.5501 1.9101 -0.363 -0.910 -0.202 170 170 169 0 0
1.8753 3.9301 1.5025 0.986 -0.089 -0.138 174 174 172 0 0
1.8812 3.8868 1.5015 0.892 0.424 -0.157 155 155 153 0 0
1.8538 3.8720 1.5124 0.778 -0.530 -0.337 75 76 78 0 0
1.8465 3.8592 1.5156 0.778 -0.530 -0.337 64 65 68 0 0
1.9095 2.9132 1.5198 -0.032 -0.789 -0.614 13 13 15 0 0
1.8477 2.9062 1.5435 0.155 0.198 -0.968 12 12 14 0 0
1.9109 3.9234 1.5053 0.442 -0.897 0.001 175 175 173 0 0
1.8857 3.9069 1.5154 0.657 -0.753 0.017 172 172 170 0 0
1.8785 3.8940 1.5185 0.978 -0.071 -0.195 160 160 159 0 0
1.8759 3.8771 1.5199 0.936 -0.339 -0.090 99 100 100 0 0
1.8655 3.8479 1.5247 0.958 -0.281 -0.061 69 70 72 0 0
1.9029 3.7975 1.5120 0.282 -0.828 -0.485 59 60 62 0 0
1.8654 2.7633 1.5561 0.568 -0.758 0.321 105 103 106 0 0
1.8522 2.7556 1.5613 0.568 -0.758 0.321 106 106 108 0 0
0.8882 2.7012 1.9300 0.524 -0.417 0.742 48 49 53 0 0
0.9657 2.5171 1.9058 -0.269 -0.952 -0.144 96 96 96 0 0
0.8554 2.5458 1.9470 -0.343 -0.922 -0.180 173 173 171 0 0
1.8876 3.9102 1.5307 0.769 -0.625 -0.136 174 173 172 0 0
1.8828 3.8952 1.5329 0.943 0.120 -0.311 164 162 162 0 0
1.8793 3.8792 1.5347 0.983 -0.159 0.096 105 107 104 0 0
1.8688 3.8690 1.5390 0.975 -0.176 0.135 85 89 86 0 0
1.9064 3.7618 1.5276 0.950 -0.001 -0.312 63 62 67 0 0
1.9046 3.7445 1.5288 0.866 -0.305 -0.397 59 58 62 0 0
0.8791 2.7279 1.9493 0.696 -0.404 0.594 48 49 53 0 0
0.8692 2.7162 1.9535 0.631 -0.322 0.706 47 48 52 0 0
0.8408 2.5403 1.9692 -0.228 -0.956 -0.184 176 176 176 0 0
1.8871 3.9156 1.5468 0.936 -0.048 -0.349 171 171 169 0 0
1.8906 3.8935 1.5461 0.852 0.337 -0.401 150 151 149 0 0
1.8786 3.8846 1.5509 0.987 -0.131 0.089 88 90 89 0 0
1.8671 3.8184 1.5571 0.970 -0.114 0.216 69 68 73 0 0
1.8922 3.7784 1.5486 0.973 0.123 0.193 65 64 69 0 0
1.8819 3.7682 1.5528 0.883 0.044 0.468 63 62 67 0 0
1.8818 3.7495 1.5534 0.894 0.182 0.409 60 60 62 0 0
0.8974 2.7562 1.9582 0.983 -0.183 -0.011 48 49 53 0 0
0.8772 2.7328 1.9666 0.550 -0.701 0.454 48 49 53 0 0
1.8924 3.9159 1.5610 0.936 -0.048 -0.349 169 169 167 0 0
1.8779 3.8902 1.5672 0.987 -0.131 0.089 78 82 82 0 0
1.8755 3.8731 1.5686 0.987 -0.131 0.089 63 69 71 0 0
1.8846 3.8085 1.5668 0.791 -0.556 0.255 51 49 54 0 0
1.8871 3.7875 1.5663 0.926 -0.218 0.309 50 48 53 0 0
1.8833 3.7719 1.5682 0.899 -0.234 0.370 49 48 53 0 0
2.0205 3.4028 1.5249 0.735 0.619 -0.277 34 34 36 0 0
1.9932 2.8525 1.5498 0.322 -0.643 -0.695 83 79 80 0 0
1.9788 2.8460 1.5555 0.481 -0.866 -0.136 86 83 83 0 0
1.9741 2.8326 1.5577 0.826 -0.303 -0.476 89 87 86 0 0
0.8528 2.7867 1.9912 0.338 -0.284 -0.897 48 49 53 0 0
0.8571 2.7485 1.9906 0.160 -0.921 0.355 48 49 53 0 0
0.9794 2.5371 1.9489 0.640 -0.698 0.321 68 73 70 0 0
1.8992 3.9150 1.5745 0.807 -0.524 -0.271 166 167 164 0 0
1.9050 3.8909 1.5729 0.942 0.213 -0.259 111 113 111 0 0
1.9107 3.8670 1.5713 0.943 0.251 -0.217 73 78 79 0 0
1.8785 3.8755 1.5835 0.938 0.227 -0.261 63 70 72 0 0
1.8717 3.7675 1.5888 0.775 -0.206 0.598 50 49 52 0 0
1.8895 2.7954 1.6064 0.660 0.032 -0.750 31 30 36 0 0
0.8582 2.7873 2.0059 -0.276 -0.855 -0.438 48 49 53 0 0
0.8265 2.7884 2.0181 -0.265 -0.926 -0.270 47 48 52 0 0
0.8586 2.7515 2.0066 -0.232 -0.683 -0.693 46 47 51 0 0
0.8195 2.7569 2.0216 0.502 0.280 -0.818 46 47 51 0 0
1.9085 3.8929 1.5876 0.946 0.214 -0.245 110 112 111 0 0
1.9117 3.8711 1.5869 0.964 0.224 -0.146 78 83 83 0 0
1.8696 3.8499 1.6038 0.838 -0.364 -0.406 49 50 53 0 0
1.8726 3.8094 1.6036 0.748 -0.650 -0.136 46 46 51 0 0
2.0324 3.3665 1.5522 0.938 0.344 0.044 30 31 33 0 0
2.0732 3.2285 1.5396 0.358 -0.771 0.527 34 33 38 0 0
1.9141 2.7323 1.6135 0.456 0.125 -0.881 17 16 22 0 0
0.9094 2.7249 2.0042 -0.328 -0.687 -0.648 45 46 50 0 0
1.9083 3.9171 1.6032 0.958 0.183 -0.219 168 168 167 0 0
1.9149 3.8923 1.6013 0.897 0.394 -0.198 124 124 124 0 0
1.9143 3.8738 1.6019 0.964 0.195 -0.179 85 88 89 0 0
1.8698 3.8165 1.6206 0.944 -0.294 0.149 44 44 49 0 0
2.0418 3.3634 1.5640 0.211 -0.551 -0.807 39 39 41 0 0
2.0538 3.2480 1.5620 0.563 -0.825 -0.041 40 40 44 0 0
1.9577 2.8896 1.6078 0.656 -0.473 0.588 76 75 79 0 0
1.9223 2.7803 1.6242 0.462 0.180 -0.868 16 16 22 0 0
1.9113 3.9194 1.6182 0.958 0.183 -0.219 171 170 170 0 0
1.9163 3.8960 1.6168 0.947 0.250 -0.204 144 143 144 0 0
1.8849 3.9038 1.6289 0.513 -0.688 -0.514 89 91 92 0 0
1.8815 3.8876 1.6306 0.723 -0.353 -0.594 74 78 79 0 0
1.8763 3.8729 1.6330 0.723 -0.353 -0.594 60 61 63 0 0
1.8703 3.8590 1.6356 0.666 -0.621 -0.414 51 52 55 0 0
1.8731 3.8376 1.6350 0.595 -0.597 -0.539 47 48 53 0 0
1.8666 3.8241 1.6379 0.757 -0.454 -0.470 43 43 48 0 0
1.8568 3.8134 1.6420 0.852 -0.510 -0.119 41 40 45 0 0
1.9366 2.7909 1.6335 0.480 0.056 -0.875 23 24 28 0 0
1.9128 3.9231 1.6337 0.947 0.250 -0.204 172 172 172 0 0
1.9188 3.8988 1.6319 0.947 0.250 -0.204 155 155 157 0 0
1.9277 3.8531 1.6294 0.955 0.161 -0.247 80 81 83 0 0
1.9253 3.8361 1.6307 0.873 -0.252 -0.417 70 70 72 0 0
1.8819 3.8350 1.6478 0.595 -0.597 -0.539 52 55 58 0 0
1.8579 3.8363 1.6572 0.938 -0.345 0.027 49 49 54 0 0
1.9439 2.8064 1.6454 0.236 -0.403 -0.884 17 16 21 0 0
1.9430 2.7903 1.6461 0.354 -0.255 -0.900 30 30 34 0 0
1.9039 2.7341 1.6627 0.380 -0.916 -0.131 49 48 53 0 0
0.8596 2.5547 2.0774 -0.106 -0.926 0.363 162 161 159 0 0
1.9240 3.9568 1.6448 0.997 0.022 -0.080 176 176 174 0 0
1.9063 3.9529 1.6519 0.943 0.283 -0.173 176 176 174 0 0
1.9333 3.8532 1.6433 0.947 0.250 -0.204 88 88 90 0 0
1.9330 3.8344 1.6438 0.954 0.004 -0.300 80 78 81 0 0
1.9316 3.8167 1.6447 0.850 -0.260 -0.458 71 71 73 0 0
1.8966 3.7896 1.6591 0.568 -0.345 -0.747 59 58 64 0 0
1.8690 3.7372 1.6711 0.457 -0.030 -0.889 54 53 58 0 0
2.0891 3.2508 1.5940 0.176 -0.519 -0.836 56 56 56 0 0
1.9160 2.7462 1.6727 0.201 -0.901 -0.385 51 50 55 0 0
1.9121 2.7322 1.6745 0.380 -0.874 -0.301 48 47 52 0 0
1.9153 3.9309 1.6650 0.943 0.283 -0.173 175 175 175 0 0
1.9225 3.9055 1.6627 0.943 0.283 -0.173 167 167 169 0 0
1.9385 3.8156 1.6581 0.850 -0.260 -0.458 78 75 78 0 0
1.9127 3.7997 1.6686 0.813 -0.138 -0.566 65 66 71 0 0
1.9625 2.7511 1.6693 0.084 -0.960 -0.266 49 48 53 0 0
1.9324 2.7387 1.6815 0.245 -0.964 -0.100 41 40 45 0 0
1.9145 2.7344 1.6887 0.654 -0.642 0.401 37 36 41 0 0
1.3164 2.5337 1.9299 -0.249 -0.904 -0.349 44 45 49 0 0
1.2368 2.5477 1.9612 -0.254 -0.941 -0.225 60 62 66 0 0
0.8422 2.5719 2.1173 -0.138 -0.932 0.335 175 174 172 0 0
2.0067 2.9080 1.6638 0.177 0.034 -0.984 16 15 18 0 0
1.9759 2.7622 1.6788 0.366 -0.851 0.376 45 44 49 0 0
1.9631 2.7545 1.6841 0.437 -0.868 0.237 40 39 44 0 0
1.9435 2.7514 1.6919 0.444 -0.790 0.423 37 36 40 0 0
1.9211 2.7503 1.7008 0.308 -0.874 0.375 41 40 44 0 0
1.9182 2.7356 1.7023 0.345 -0.937 -0.049 50 50 54 0 0
1.1914 2.5614 1.9950 -0.271 -0.948 -0.169 76 76 79 0 0
1.0961 2.5666 2.0329 -0.224 -0.469 -0.854 80 82 82 0 0
0.8657 2.5621 2.1247 0.023 -0.996 0.088 178 177 176 0 0
0.8345 2.5624 2.1372 0.023 -0.996 0.088 179 179 177 0 0
1.9628 2.7585 1.6992 0.437 -0.868 0.237 43 43 46 0 0
1.2089 2.5545 2.0043 -0.287 -0.926 -0.246 79 81 80 0 0
1.1897 2.5490 2.0121 -0.180 -0.159 -0.971 80 82 81 0 0
0.9714 2.5569 2.0992 -0.023 -0.993 -0.119 82 82 81 0 0
1.9340 3.9681 1.7057 0.985 -0.140 -0.099 178 178 178 0 0
1.9291 3.8193 1.7101 0.929 -0.364 0.070 50 51 56 0 0
1.9289 3.8005 1.7105 0.975 -0.143 0.169 48 49 54 0 0
2.0213 3.0589 1.6857 0.018 0.249 -0.968 40 40 44 0 0
1.9260 3.8078 1.7277 0.975 -0.219 0.034 47 47 52 0 0
2.0297 3.0913 1.6971 0.005 0.282 -0.960 38 37 42 0 0
2.0319 3.0723 1.6966 -0.001 0.279 -0.960 34 33 38 0 0
2.0188 2.8103 1.7060 0.855 -0.517 0.049 33 32 37 0 0
2.0106 2.7994 1.7095 0.745 -0.655 0.126 49 48 53 0 0
1.9938 2.7946 1.7163 0.310 -0.905 -0.290 47 47 49 0 0
0.8704 2.5702 2.1727 -0.292 -0.949 -0.122 178 178 178 0 0
1.9020 3.8903 1.7523 0.630 -0.545 -0.553 65 65 70 0 0
1.9497 3.8305 1.7340 0.917 -0.398 0.001 54 53 58 0 0
1.9294 3.8288 1.7422 0.828 -0.533 0.171 49 48 53 0 0
1.9118 3.8058 1.7497 0.856 -0.502 -0.123 43 42 47 0 0
2.0709 2.9111 1.6985 0.602 -0.797 0.040 48 47 52 0 0
2.0817 2.8696 1.6947 0.865 -0.473 0.168 49 48 53 0 0
2.0511 2.8581 1.7072 0.619 -0.464 0.634 44 43 48 0 0
1.2910 2.5163 2.0200 -0.001 -1.000 -0.030 58 58 60 0 0
1.2093 2.5481 2.0526 0.504 -0.176 0.846 57 57 58 0 0
1.9503 3.9497 1.7482 0.573 -0.602 -0.556 178 178 178 0 0
1.9344 3.9250 1.7550 0.630 -0.545 -0.553 165 165 165 0 0
1.9266 3.9126 1.7584 0.630 -0.545 -0.553 112 113 116 0 0
1.9126 3.9054 1.7641 0.576 -0.595 -0.561 81 82 87 0 0
1.9109 3.8877 1.7651 0.630 -0.545 -0.553 69 68 73 0 0
1.9074 3.8143 1.7675 0.926 0.119 -0.359 42 41 46 0 0
2.0841 2.8886 1.7085 0.849 -0.399 0.346 48 47 52 0 0
2.0773 2.8767 1.7114 0.849 -0.399 0.346 40 39 44 0 0
2.0472 2.8817 1.7236 0.954 -0.026 -0.298 35 34 40 0 0
2.0517 2.8616 1.7220 0.751 -0.401 0.525 38 37 43 0 0
2.0070 2.8601 1.7403 0.755 0.172 0.633 50 49 55 0 0
0.8700 2.5603 2.2064 -0.256 -0.962 -0.095 179 179 177 0 0
0.8194 2.5717 2.2268 -0.251 -0.961 -0.112 181 181 181 0 0
1.9460 3.9199 1.7667 0.022 -0.879 -0.476 170 170 170 0 0
1.9315 3.9132 1.7726 0.472 -0.638 -0.609 121 122 126 0 0
1.9218 3.9024 1.7767 0.576 -0.595 -0.561 83 84 89 0 0
1.9094 3.8939 1.7819 0.747 -0.398 -0.533 72 71 76 0 0
2.0266 2.8837 1.7471 0.528 -0.584 0.617 39 39 42 0 0
1.9954 2.8893 1.7598 0.579 -0.291 0.761 39 39 42 0 0
1.9840 2.8805 1.7645 0.752 0.112 0.649 31 31 35 0 0
0.8830 2.5565 2.2179 -0.269 -0.956 -0.121 177 177 175 0 0
1.9506 3.9209 1.7810 0.526 -0.603 -0.600 172 172 173 0 0
1.9392 3.9115 1.7858 0.495 -0.701 -0.514 133 133 137 0 0
1.9290 3.9012 1.7901 0.736 -0.530 -0.421 90 91 95 0 0
2.0461 3.2353 1.7501 0.099 0.336 -0.936 27 28 32 0 0
2.0637 2.8946 1.7469 0.707 -0.305 0.638 43 42 47 0 0
2.0588 2.8813 1.7491 0.580 -0.564 0.588 39 39 41 0 0
1.9531 3.9045 1.7965 0.257 -0.954 -0.152 148 148 149 0 0
1.9290 3.9062 1.8064 0.404 -0.896 -0.186 98 98 100 0 0
1.9572 3.9059 1.8110 0.395 -0.905 -0.155 158 158 159 0 0
1.9358 3.9053 1.8199 0.315 -0.948 -0.042 102 102 104 0 0
2.1144 3.2258 1.7530 0.042 0.283 -0.958 25 25 28 0 0
2.1350 3.1922 1.7448 0.068 0.289 -0.955 29 28 32 0 0
2.1420 3.1693 1.7421 0.140 0.322 -0.936 33 32 36 0 0
2.1617 3.1367 1.7343 0.221 0.373 -0.901 37 37 41 0 0
2.1189 2.9296 1.7541 0.781 -0.507 0.365 42 41 46 0 0
1.9797 3.9105 1.8180 0.343 -0.936 -0.076 181 181 181 0 0
1.9604 3.9081 1.8260 0.479 -0.876 -0.052 149 149 150 0 0
1.9483 3.8994 1.8311 0.671 -0.727 -0.141 94 94 96 0 0
1.9194 3.8668 1.8434 0.638 -0.611 -0.469 58 56 59 0 0
2.2290 2.9696 1.7232 0.894 -0.129 0.430 44 43 48 0 0
0.9951 2.5411 2.2385 0.423 -0.904 0.068 79 79 81 0 0
1.9629 3.9109 1.8412 0.671 -0.727 -0.141 135 136 135 0 0
1.9527 3.9006 1.8456 0.671 -0.727 -0.141 86 87 89 0 0
1.9735 3.8444 1.8374 0.745 0.516 -0.423 63 62 65 0 0
1.9277 3.8646 1.8563 0.842 -0.320 -0.434 53 52 56 0 0
0.9918 2.5467 2.2564 0.559 -0.827 0.050 75 75 76 0 0
1.9563 3.9024 1.8604 0.525 -0.805 -0.274 83 85 87 0 0
1.9152 3.8802 1.8777 0.658 -0.697 -0.286 51 50 55 0 0
0.9939 2.5490 2.2720 0.559 -0.827 0.050 73 74 76 0 0
0.9776 2.5411 2.2789 0.278 -0.960 -0.022 81 81 83 0 0
1.9542 3.9092 1.8776 0.091 -0.969 -0.228 85 86 88 0 0
1.9178 3.8830 1.8930 0.571 -0.768 -0.289 51 51 56 0 0
0.9961 2.5514 2.2877 0.559 -0.827 0.050 67 69 73 0 0
1.9466 3.8632 1.8974 0.748 -0.638 -0.182 52 51 56 0 0
0.9860 2.5435 2.3086 0.426 -0.902 -0.062 74 74 79 0 0
1.9581 3.8391 1.9089 0.423 -0.893 -0.157 52 52 57 0 0
0.9762 2.5528 2.3294 0.734 -0.650 -0.197 73 72 77 0 0
0.9749 2.5362 2.3300 0.277 -0.950 -0.146 79 78 83 0 0
0.8530 2.5362 2.3815 -0.206 -0.969 -0.137 200 201 198 0 0
1.9815 3.8431 1.9153 0.945 -0.318 0.073 67 67 68 0 0
0.9809 2.5538 2.3441 0.763 -0.599 -0.241 70 69 73 0 0
0.9687 2.5434 2.3493 0.522 -0.845 -0.119 75 75 79 0 0
0.8754 2.5271 2.3889 -0.048 -0.993 -0.109 195 196 193 0 0
0.8451 2.5268 2.4017 -0.027 -0.992 -0.122 202 202 200 0 0
1.9706 3.9343 1.9361 0.725 -0.577 -0.376 193 192 190 0 0
1.9818 3.8477 1.9315 0.945 -0.318 0.073 78 78 75 0 0
0.9468 2.5597 2.3753 0.913 -0.408 -0.019 74 74 75 0 0
0.9596 2.5349 2.3699 0.205 -0.967 -0.151 82 82 83 0 0
0.8541 2.5253 2.4148 -0.048 -0.993 -0.109 202 202 200 0 0
0.8638 2.5235 2.4276 -0.048 -0.993 -0.109 200 200 198 0 0
0.9432 2.5516 2.4104 0.765 -0.564 -0.312 77 75 80 0 0
0.9322 2.5404 2.4151 0.748 -0.627 -0.216 84 84 87 0 0
0.8492 2.5178 2.4507 0.064 -0.993 -0.098 203 203 201 0 0
2.0335 2.6571 1.9880 0.361 -0.752 0.552 31 30 35 0 0
1.9936 3.8673 2.0246 0.895 -0.437 -0.086 86 88 87 0 0
1.9829 3.8573 2.0292 0.793 -0.607 0.056 79 79 80 0 0
2.0454 2.6692 1.9980 0.630 -0.702 0.332 41 41 43 0 0
2.0373 2.6583 2.0015 0.515 -0.855 0.056 45 45 46 0 0
0.9315 2.5729 2.4828 0.955 0.187 -0.231 66 67 69 0 0
1.9233 3.9331 2.0720 0.840 0.051 -0.541 87 89 88 0 0
2.0769 2.7174 1.9996 0.377 -0.892 -0.250 18 18 20 0 0
2.0667 2.7080 2.0040 0.925 -0.111 -0.363 29 29 31 0 0
2.0505 2.6860 2.0110 0.752 -0.483 0.449 44 44 46 0 0
2.0394 2.6772 2.0158 0.633 -0.680 0.370 49 49 50 0 0
1.7163 2.4938 2.1563 0.654 -0.167 -0.737 52 51 55 0 0
0.9222 2.5294 2.5036 0.246 -0.967 0.069 92 94 94 0 0
