ply
format ascii 1.0
element vertex 878
property float x
property float y
property float z
property float nx
property float ny
property float nz
property uchar diffuse_red
property uchar diffuse_green
property uchar diffuse_blue
property uchar class
property uchar detection
end_header
0.9391 2.0416 0.5774 -0.298 -0.802 -0.518 30 30 32 0 0
0.9263 2.0354 0.5796 0.012 -0.799 -0.601 35 35 37 0 0
0.9130 2.0346 0.5816 0.067 -0.841 -0.537 40 40 42 0 0
1.2776 2.2326 0.5327 0.685 -0.398 0.610 50 50 50 0 0
1.2596 2.2968 0.5323 0.476 -0.595 0.647 45 45 45 0 0
1.2335 2.2737 0.5372 -0.043 -0.935 0.352 41 41 43 0 0
1.1612 2.1435 0.5539 0.016 -0.727 0.686 24 24 26 0 0
1.1367 2.1114 0.5590 -0.378 -0.674 -0.634 20 20 22 0 0
0.9668 2.1820 0.5803 -0.662 -0.701 0.265 28 28 30 0 0
0.9509 2.0737 0.5878 -0.656 -0.710 0.257 29 29 31 0 0
0.9414 2.0373 0.5909 0.364 -0.777 -0.515 32 32 34 0 0
0.9295 2.0232 0.5933 0.796 -0.458 -0.397 36 36 38 0 0
0.9148 2.0341 0.5949 0.458 -0.651 -0.605 40 40 42 0 0
0.9019 2.0296 0.5970 0.154 -0.877 -0.456 44 44 45 0 0
0.8888 2.0269 0.5990 -0.158 -0.873 -0.462 47 47 47 0 0
0.7543 2.0281 0.6185 -0.264 -0.845 -0.465 54 54 54 0 0
1.1398 2.0965 0.5729 -0.378 -0.674 -0.634 21 21 23 0 0
0.9410 2.0577 0.6036 0.732 -0.533 -0.425 33 33 35 0 0
0.9180 2.0223 0.6085 0.652 -0.622 -0.433 41 41 43 0 0
0.9052 2.0164 0.6107 0.377 -0.893 -0.246 47 47 48 0 0
0.7582 2.0119 0.6323 -0.173 -0.982 -0.078 55 55 55 0 0
1.2861 2.3759 0.5529 0.769 -0.342 0.541 67 67 67 0 0
0.9214 2.0081 0.6222 0.832 -0.517 -0.201 44 44 44 0 0
0.8777 2.0384 0.6273 -0.612 -0.657 0.440 54 52 54 0 0
0.7602 2.0105 0.6456 -0.173 -0.982 -0.078 57 55 56 0 0
1.3823 2.7226 0.5382 0.942 -0.224 0.249 49 49 51 0 0
0.9227 2.0129 0.6354 0.923 -0.355 -0.148 48 48 48 0 0
0.8786 2.0463 0.6404 -0.612 -0.657 0.440 59 57 59 0 0
0.7618 2.0123 0.6588 -0.135 -0.933 -0.335 57 55 56 0 0
1.5263 3.2673 0.5097 0.958 -0.231 -0.171 32 30 35 0 0
1.3190 2.5978 0.5673 0.886 -0.124 0.447 62 62 62 0 0
0.9348 2.0416 0.6460 0.864 -0.500 0.057 46 45 47 0 0
0.9252 2.0067 0.6488 0.744 -0.608 0.277 53 51 52 0 0
0.9178 1.9536 0.6521 -0.620 -0.684 0.385 63 61 62 0 0
0.8913 1.9524 0.6560 -0.059 -0.770 0.636 65 63 66 0 0
0.8351 1.9759 0.6632 0.353 -0.930 -0.106 58 56 57 0 0
0.8119 1.9484 0.6677 0.071 -0.953 -0.295 64 62 63 0 0
0.7486 2.0242 0.6738 -0.472 -0.841 -0.263 56 54 55 0 0
1.5287 3.2614 0.5251 0.961 -0.215 -0.172 32 31 34 0 0
1.4302 3.0496 0.5478 -0.697 -0.716 -0.023 47 47 49 0 0
1.4046 2.9543 0.5553 0.952 -0.303 -0.042 46 46 48 0 0
0.9430 1.9836 0.6607 0.467 -0.883 0.054 47 46 49 0 0
0.9317 1.9645 0.6631 -0.287 -0.769 0.571 54 51 54 0 0
1.5310 3.2594 0.5404 0.961 -0.215 -0.172 31 31 33 0 0
1.4327 3.0427 0.5629 -0.528 -0.849 -0.016 47 47 49 0 0
1.4162 3.0753 0.5641 0.537 -0.844 0.011 46 46 48 0 0
0.9749 1.9514 0.6707 0.270 -0.852 0.448 37 35 38 0 0
0.9155 2.0067 0.6773 0.712 -0.517 0.475 65 63 65 0 0
1.5328 3.2734 0.5552 0.888 -0.443 -0.122 31 31 33 0 0
1.4355 3.0266 0.5783 -0.021 -0.997 0.080 48 48 50 0 0
0.8496 2.0123 0.7003 -0.624 -0.600 -0.501 75 73 74 0 0
0.8387 1.9914 0.7026 0.165 -0.907 -0.388 74 74 73 0 0
0.7739 1.9747 0.7126 -0.288 -0.546 -0.786 66 64 65 0 0
1.4376 3.0289 0.5931 0.121 -0.988 0.092 48 48 50 0 0
1.2632 2.2701 0.6447 0.726 -0.668 0.164 55 55 57 0 0
0.7924 1.9484 0.7244 0.250 -0.578 -0.776 78 76 77 0 0
1.4397 3.0305 0.6080 0.121 -0.988 0.092 49 49 51 0 0
0.9323 2.0265 0.7149 0.932 -0.350 0.095 71 70 66 0 0
0.9109 1.9776 0.7196 -0.533 -0.698 -0.478 95 94 90 0 0
0.8951 1.9986 0.7212 -0.282 -0.812 -0.511 91 88 87 0 0
0.7972 1.9254 0.7379 -0.229 -0.527 -0.818 88 86 87 0 0
0.7679 1.9461 0.7415 -0.575 -0.376 -0.727 57 55 56 0 0
1.5802 3.4815 0.5887 0.788 -0.595 -0.156 37 35 38 0 0
1.4421 3.0258 0.6230 0.162 -0.985 -0.061 51 51 53 0 0
1.4022 2.9160 0.6322 0.699 -0.492 -0.519 45 45 47 0 0
0.9364 2.0054 0.7285 0.914 -0.298 -0.274 70 69 67 0 0
0.8995 1.9763 0.7348 -0.516 -0.680 -0.521 82 79 78 0 0
0.5814 2.2274 0.7734 0.162 -0.840 -0.518 54 54 55 0 0
1.4444 3.0213 0.6380 0.209 -0.953 -0.220 52 52 54 0 0
1.4289 3.0315 0.6400 -0.389 -0.917 -0.092 49 49 51 0 0
0.9027 1.9635 0.7482 -0.516 -0.680 -0.521 80 77 76 0 0
0.5847 2.2178 0.7871 -0.058 -0.846 -0.530 60 59 60 0 0
0.5681 2.2362 0.7890 0.507 -0.652 -0.564 62 60 61 0 0
1.5149 3.2202 0.6374 -0.704 -0.540 -0.461 48 48 51 0 0
1.3081 2.5732 0.6856 0.968 -0.224 0.110 44 44 46 0 0
0.9058 1.9529 0.7616 0.507 -0.696 0.509 86 84 84 0 0
0.5679 2.2498 0.8026 0.745 -0.342 -0.572 66 64 65 0 0
1.2861 2.5006 0.7052 0.938 -0.257 0.232 43 43 45 0 0
0.9208 1.9542 0.7728 0.071 -0.345 0.936 85 81 78 0 0
0.8084 1.8038 0.8064 0.493 -0.429 -0.757 49 49 51 0 0
0.7652 1.8325 0.8120 -0.650 -0.370 -0.664 52 51 54 0 0
0.7055 1.8966 0.8326 -0.231 -0.316 -0.920 58 58 58 0 0
0.6868 1.9353 0.8344 -0.581 -0.354 -0.733 60 60 60 0 0
0.6726 1.9413 0.8364 -0.524 -0.322 -0.789 63 63 63 0 0
0.8241 1.8112 0.8305 0.866 -0.250 -0.434 48 48 50 0 0
0.7445 1.8174 0.8420 -0.423 -0.331 -0.843 55 55 55 0 0
0.7273 1.8474 0.8439 -0.574 -0.364 -0.734 56 56 56 0 0
1.6572 3.5978 0.6869 -0.893 -0.420 0.159 148 148 148 0 0
1.4449 2.9612 0.7304 0.924 -0.332 0.190 60 58 61 0 0
1.4319 2.9185 0.7332 0.911 -0.380 0.158 54 54 56 0 0
1.6595 3.5993 0.7027 -0.855 -0.503 0.125 145 145 145 0 0
1.6619 3.5983 0.7186 -0.814 -0.553 0.178 142 142 142 0 0
0.7013 1.8824 0.8871 -0.781 -0.300 -0.548 52 52 53 0 0
0.6431 1.9178 0.8951 -0.449 -0.436 -0.780 66 66 66 0 0
1.6642 3.6000 0.7344 -0.814 -0.553 0.178 138 138 138 0 0
1.4497 3.0004 0.7746 -0.552 -0.721 -0.419 65 65 67 0 0
0.6464 1.9078 0.9082 -0.397 -0.463 -0.792 60 60 60 0 0
0.6161 1.9327 0.9123 -0.325 -0.468 -0.821 70 70 70 0 0
0.6018 1.9391 0.9143 -0.325 -0.468 -0.821 79 79 79 0 0
0.5874 1.9456 0.9163 -0.325 -0.468 -0.821 100 100 98 0 0
1.6665 3.6012 0.7503 -0.709 -0.681 0.184 131 132 132 0 0
0.8826 1.8354 0.8880 0.777 -0.615 -0.136 45 45 47 0 0
0.6800 1.8705 0.9172 -0.698 -0.546 -0.463 47 46 51 0 0
0.6365 1.8967 0.9233 -0.362 -0.652 -0.666 58 58 58 0 0
0.5911 1.9332 0.9294 -0.057 -0.724 -0.687 81 81 79 0 0
1.6688 3.6031 0.7661 -0.203 -0.978 0.042 127 127 127 0 0
0.7070 1.7856 0.9277 0.110 -0.841 0.530 67 67 67 0 0
0.5935 1.9292 0.9426 0.174 -0.836 -0.521 70 70 68 0 0
1.6711 3.6033 0.7820 -0.203 -0.978 0.042 122 123 123 0 0
0.7458 1.7066 0.9360 -0.169 -0.866 0.471 78 74 73 0 0
0.7294 1.7309 0.9382 -0.412 -0.703 0.579 69 66 65 0 0
0.7077 1.7929 0.9407 0.192 -0.861 0.471 63 64 64 0 0
0.6943 1.7951 0.9427 -0.498 -0.843 -0.204 59 60 59 0 0
0.6795 1.8064 0.9447 -0.799 -0.377 -0.468 53 55 53 0 0
0.5982 1.9099 0.9556 -0.414 -0.368 -0.833 62 62 62 0 0
0.5837 1.9174 0.9577 -0.523 -0.379 -0.764 69 69 68 0 0
1.6735 3.5989 0.7979 -0.026 -0.988 -0.153 116 118 117 0 0
1.0343 1.8206 0.9060 -0.566 -0.338 -0.752 43 43 45 0 0
0.9516 1.9791 0.9168 0.557 -0.290 -0.779 31 31 33 0 0
0.9312 1.9210 0.9203 0.599 -0.222 -0.770 41 41 41 0 0
0.8002 1.7004 0.9412 -0.129 -0.956 -0.265 78 77 74 0 0
0.7468 1.7117 0.9490 -0.117 -0.952 0.283 68 65 66 0 0
0.7336 1.7132 0.9509 0.076 -0.996 0.042 53 51 52 0 0
0.7087 1.7987 0.9538 0.325 -0.835 0.443 51 51 53 0 0
0.6953 1.8000 0.9558 0.276 -0.884 0.376 45 45 46 0 0
1.6760 3.5925 0.8138 0.507 -0.827 -0.244 111 112 111 0 0
1.0173 1.8764 0.9214 -0.863 -0.273 -0.425 40 40 42 0 0
0.7513 1.6916 0.9616 0.438 -0.834 -0.335 39 39 40 0 0
0.6418 1.8190 0.9768 -0.647 -0.638 -0.418 53 54 56 0 0
1.6783 3.5908 0.8297 0.588 -0.774 -0.236 104 106 105 0 0
1.4902 3.0674 0.8598 0.731 -0.610 0.306 38 37 41 0 0
0.9609 1.9259 0.9429 0.463 -0.233 -0.855 38 38 40 0 0
0.9511 1.8940 0.9445 0.342 -0.394 -0.853 48 48 50 0 0
0.9401 1.8735 0.9462 0.307 -0.737 -0.602 47 48 50 0 0
0.9174 1.8398 0.9496 0.875 -0.450 0.178 44 45 47 0 0
0.6432 1.8213 0.9899 -0.552 -0.808 0.207 47 48 50 0 0
1.6808 3.5831 0.8455 0.650 -0.724 -0.231 100 102 101 0 0
1.4076 2.9387 0.8876 -0.861 -0.259 -0.438 61 62 62 0 0
1.3955 2.8808 0.8896 -0.363 -0.757 -0.543 60 62 61 0 0
1.0245 1.8414 0.9473 -0.854 -0.511 -0.098 40 40 42 0 0
0.9553 1.8721 0.9574 0.315 -0.478 -0.820 55 55 57 0 0
0.9429 1.8641 0.9592 0.307 -0.737 -0.602 48 47 50 0 0
0.9310 1.8525 0.9610 0.658 -0.746 -0.105 41 41 44 0 0
0.8702 1.8092 0.9700 -0.513 -0.788 0.340 22 22 24 0 0
0.8637 1.7546 0.9712 0.541 -0.566 0.622 25 25 28 0 0
0.8539 1.7283 0.9727 0.134 -0.858 0.496 33 32 37 0 0
1.6989 3.5958 0.8591 0.585 -0.784 -0.207 151 151 151 0 0
1.6832 3.5802 0.8614 0.650 -0.724 -0.231 94 96 95 0 0
1.4919 3.1402 0.8901 -0.862 -0.392 0.321 39 39 41 0 0
1.3949 2.9374 0.9047 -0.828 -0.268 -0.493 63 65 64 0 0
1.0986 1.9168 0.9497 0.787 -0.396 -0.472 46 46 48 0 0
1.0262 1.8429 0.9604 -0.801 -0.434 0.412 37 37 39 0 0
1.0093 1.8789 0.9628 0.379 -0.338 -0.862 37 37 39 0 0
0.9979 1.8617 0.9646 0.231 -0.404 -0.885 42 42 44 0 0
0.9718 1.8580 0.9684 0.465 -0.240 -0.852 44 44 46 0 0
0.9597 1.8478 0.9702 0.314 -0.418 -0.852 40 40 42 0 0
0.9468 1.8449 0.9721 0.137 -0.563 -0.815 32 31 36 0 0
0.9349 1.8336 0.9738 0.374 -0.609 -0.700 31 30 36 0 0
0.9232 1.8208 0.9756 0.736 -0.524 -0.429 30 29 34 0 0
0.9115 1.8077 0.9773 0.771 -0.509 -0.382 28 27 31 0 0
0.5410 1.9057 1.0314 -0.043 -0.986 0.162 69 69 70 0 0
1.7013 3.5933 0.8750 0.585 -0.784 -0.207 148 147 147 0 0
1.6856 3.5773 0.8773 0.650 -0.724 -0.231 89 91 90 0 0
1.3978 2.9224 0.9194 -0.850 -0.197 -0.488 67 69 68 0 0
1.1013 1.9066 0.9628 0.787 -0.396 -0.472 49 49 51 0 0
1.0299 1.8243 0.9733 -0.522 -0.757 0.394 35 35 37 0 0
1.0136 1.8550 0.9757 0.537 -0.328 -0.777 36 36 38 0 0
1.0022 1.8375 0.9773 0.257 -0.420 -0.870 42 42 44 0 0
0.9889 1.8383 0.9793 0.462 -0.169 -0.870 36 36 38 0 0
0.9406 1.7990 0.9864 0.055 -0.451 -0.891 26 25 28 0 0
0.9267 1.8055 0.9884 0.570 -0.560 -0.601 24 24 26 0 0
0.9132 1.8089 0.9904 0.436 -0.650 -0.623 18 18 19 0 0
0.8985 1.8220 0.9925 0.247 -0.940 -0.236 12 12 14 0 0
1.7034 3.6075 0.8909 -0.634 -0.773 0.027 143 142 143 0 0
1.6879 3.5748 0.8931 0.122 -0.989 -0.082 86 87 88 0 0
1.0313 1.8284 0.9864 -0.441 -0.753 0.488 34 34 36 0 0
1.0178 1.8316 0.9884 0.537 -0.328 -0.777 32 32 34 0 0
1.0065 1.8130 0.9900 0.180 -0.416 -0.891 30 30 33 0 0
0.9580 1.7762 0.9971 0.109 -0.411 -0.905 23 22 25 0 0
0.9443 1.7814 0.9991 -0.078 -0.677 -0.732 21 21 22 0 0
0.9331 1.7644 1.0007 -0.137 -0.736 -0.664 18 18 19 0 0
0.9209 1.7571 1.0025 -0.340 -0.886 -0.315 15 15 16 0 0
0.9073 1.7617 1.0045 -0.340 -0.886 -0.315 13 13 15 0 0
0.5294 1.9175 1.0602 -0.310 -0.838 0.449 70 70 70 0 0
0.5145 1.9267 1.0624 -0.454 -0.821 0.347 149 149 149 0 0
1.7058 3.6061 0.9068 -0.634 -0.773 0.027 139 139 140 0 0
0.4992 1.9493 1.0782 -0.698 -0.667 0.260 169 169 169 0 0
1.7082 3.6047 0.9227 -0.634 -0.773 0.027 134 134 135 0 0
1.3281 2.6871 0.9739 0.389 -0.190 -0.902 62 62 62 0 0
1.0003 1.7809 1.0174 0.168 -0.685 -0.709 33 31 34 0 0
0.9875 1.7782 1.0193 0.035 -0.712 -0.702 38 36 39 0 0
0.9754 1.7696 1.0210 0.097 -0.774 -0.626 38 36 39 0 0
0.8989 1.7522 1.0322 0.266 -0.632 -0.728 16 16 18 0 0
0.7101 1.7024 1.0596 -0.806 -0.446 -0.388 11 11 13 0 0
0.5979 1.7557 1.0764 -0.889 -0.426 0.168 30 30 32 0 0
0.5006 1.9519 1.0916 -0.667 -0.684 0.295 169 169 169 0 0
0.4840 1.9710 1.0941 -0.738 -0.629 0.243 170 170 170 0 0
1.7106 3.6024 0.9386 -0.548 -0.836 -0.024 131 130 131 0 0
1.6946 3.5997 0.9410 0.087 -0.965 -0.247 76 76 78 0 0
1.3601 2.6700 0.9838 0.748 -0.499 -0.437 74 74 74 0 0
1.1199 1.9312 1.0142 0.855 -0.306 -0.419 54 54 56 0 0
0.8891 1.7402 1.0468 0.102 -0.914 -0.392 17 17 19 0 0
0.7430 1.6646 1.0677 -0.074 -0.854 -0.515 13 13 15 0 0
0.7308 1.6594 1.0695 0.131 -0.834 -0.536 12 12 15 0 0
0.6651 1.7554 1.0798 -0.505 -0.804 0.314 10 10 12 0 0
0.6509 1.7629 1.0819 -0.823 -0.567 0.029 11 11 13 0 0
0.5015 1.9571 1.1051 -0.852 -0.499 0.160 169 169 169 0 0
1.7129 3.5995 0.9545 -0.345 -0.930 -0.123 126 126 126 0 0
1.6970 3.5959 0.9568 0.087 -0.965 -0.247 76 75 78 0 0
1.1626 2.0856 1.0227 0.938 -0.248 -0.244 45 45 47 0 0
1.1408 2.0215 1.0254 0.765 -0.378 -0.521 50 50 52 0 0
1.1330 1.9551 1.0260 0.858 -0.325 -0.397 53 53 55 0 0
1.1226 1.9211 1.0272 0.903 -0.291 -0.317 55 55 57 0 0
0.9447 1.7252 1.0517 0.493 -0.866 0.084 22 20 23 0 0
0.8915 1.7344 1.0596 0.227 -0.932 -0.281 16 16 18 0 0
0.8358 1.7633 1.0680 0.585 -0.808 0.067 9 9 11 0 0
0.7451 1.6621 1.0805 -0.149 -0.943 -0.298 13 12 17 0 0
0.7319 1.6636 1.0824 -0.149 -0.943 -0.298 13 13 16 0 0
0.5984 1.7748 1.1030 -0.869 -0.384 0.311 31 32 34 0 0
1.7154 3.5922 0.9704 0.232 -0.931 -0.283 122 122 122 0 0
1.6995 3.5876 0.9727 0.232 -0.931 -0.283 73 72 75 0 0
1.4150 2.8270 1.0068 0.606 -0.144 0.782 40 40 42 0 0
1.1437 2.0091 1.0385 0.802 -0.368 -0.470 52 52 54 0 0
1.1026 1.8677 1.0432 0.754 -0.655 0.048 55 54 57 0 0
1.0911 1.8499 1.0447 0.620 -0.750 0.231 50 50 53 0 0
0.9462 1.7273 1.0647 0.493 -0.866 0.084 14 12 15 0 0
0.9058 1.7391 1.0708 0.152 -0.967 -0.203 26 26 28 0 0
0.8931 1.7358 1.0726 0.179 -0.956 -0.232 19 19 21 0 0
0.7724 1.6639 1.0896 0.140 -0.989 0.050 10 10 14 0 0
0.7467 1.6627 1.0934 -0.279 -0.934 0.224 13 12 17 0 0
0.7336 1.6643 1.0953 -0.070 -0.983 0.169 13 12 16 0 0
0.5045 1.9607 1.1319 -0.852 -0.499 0.160 168 168 168 0 0
1.7178 3.5874 0.9862 -0.006 -0.945 -0.328 116 116 116 0 0
1.7019 3.5831 0.9885 0.246 -0.913 -0.326 71 71 74 0 0
1.5581 3.0491 1.0034 -0.208 -0.925 -0.320 52 52 54 0 0
1.5110 3.0998 1.0109 -0.832 -0.537 -0.139 36 36 38 0 0
1.1658 2.0932 1.0500 0.985 -0.146 0.092 51 51 53 0 0
1.1482 1.9774 1.0512 0.183 -0.908 -0.378 53 53 55 0 0
0.9203 1.7415 1.0819 0.111 -0.983 0.145 29 29 31 0 0
0.9074 1.7403 1.0838 0.111 -0.983 0.145 24 24 26 0 0
0.8941 1.7424 1.0858 0.041 -0.962 0.271 22 22 24 0 0
0.8372 1.7808 1.0946 0.189 -0.939 -0.289 8 8 10 0 0
0.6489 1.7236 1.1216 -0.553 -0.747 -0.368 13 13 15 0 0
0.6337 1.7377 1.1240 -0.820 -0.504 0.271 21 21 23 0 0
0.5060 1.9622 1.1453 -0.743 -0.645 0.179 168 168 168 0 0
1.7202 3.5826 1.0021 0.162 -0.948 -0.274 110 110 111 0 0
1.7043 3.5793 1.0044 0.162 -0.948 -0.274 70 70 72 0 0
1.5604 3.0436 1.0184 -0.196 -0.928 -0.316 50 50 52 0 0
1.3884 2.8530 1.0411 0.650 -0.130 0.749 36 36 38 0 0
1.1498 1.9807 1.0646 0.151 -0.507 -0.849 55 55 56 0 0
1.1296 1.9041 1.0666 0.929 -0.287 -0.231 58 58 60 0 0
1.0260 1.7457 1.0797 0.389 -0.917 -0.087 18 17 19 0 0
0.6346 1.7433 1.1372 -0.820 -0.504 0.271 20 19 22 0 0
0.5074 1.9643 1.1588 -0.743 -0.645 0.179 168 168 168 0 0
1.7226 3.5785 1.0179 0.162 -0.948 -0.274 105 106 108 0 0
1.5628 3.0380 1.0333 -0.196 -0.928 -0.316 49 49 51 0 0
1.5159 3.0837 1.0409 -0.829 -0.533 -0.170 35 35 37 0 0
1.4137 2.9948 1.0546 0.985 -0.116 0.128 54 54 56 0 0
1.4008 2.9496 1.0558 0.446 -0.175 0.878 51 51 53 0 0
1.3635 2.8032 1.0591 0.772 -0.206 0.601 30 30 32 0 0
1.1677 2.1165 1.0776 0.990 -0.136 0.022 56 56 56 0 0
1.1072 1.8784 1.0830 0.693 -0.721 -0.016 54 55 55 0 0
1.0527 1.7577 1.0892 0.522 -0.809 0.270 23 22 26 0 0
1.0403 1.7512 1.0909 0.444 -0.895 0.032 30 30 32 0 0
1.0150 1.7430 1.0945 0.030 -0.999 -0.026 22 21 20 0 0
0.9881 1.7511 1.0986 -0.249 -0.966 0.075 20 18 20 0 0
0.8589 1.7395 1.1174 -0.167 -0.926 0.338 8 8 10 0 0
0.8414 1.7758 1.1205 -0.002 -0.926 -0.378 8 8 10 0 0
0.6524 1.7232 1.1475 -0.669 -0.654 0.354 15 14 18 0 0
0.6181 1.7774 1.1534 -0.745 -0.663 0.070 32 32 34 0 0
0.5088 1.9664 1.1722 -0.676 -0.715 0.178 167 167 167 0 0
0.4921 1.9864 1.1750 -0.743 -0.645 0.179 170 170 170 0 0
1.7250 3.5733 1.0337 0.079 -0.969 -0.233 101 102 104 0 0
1.5652 3.0324 1.0483 -0.196 -0.928 -0.316 49 49 51 0 0
1.4149 3.0167 1.0701 0.989 -0.114 0.100 54 54 56 0 0
1.3634 2.8459 1.0748 0.776 -0.195 0.600 30 30 32 0 0
1.3393 2.7469 1.0767 0.867 -0.290 0.406 27 27 29 0 0
1.3284 2.6803 1.0772 0.745 -0.249 0.618 34 34 36 0 0
1.0977 1.8573 1.0975 0.857 -0.494 -0.146 41 42 44 0 0
1.0544 1.7588 1.1022 0.552 -0.708 0.440 24 23 27 0 0
1.0421 1.7511 1.1039 0.459 -0.816 0.352 27 27 29 0 0
1.0172 1.7390 1.1074 0.209 -0.966 0.151 48 46 45 0 0
1.0038 1.7425 1.1094 -0.123 -0.984 0.133 35 33 34 0 0
0.9909 1.7412 1.1113 0.084 -0.950 -0.301 35 33 35 0 0
0.8971 1.7623 1.1254 -0.466 -0.873 0.145 22 20 23 0 0
0.8708 1.7640 1.1293 0.163 -0.986 -0.027 9 9 11 0 0
0.8083 1.6406 1.1365 0.197 -0.980 -0.014 12 12 14 0 0
0.6509 1.7454 1.1613 -0.498 -0.785 0.368 13 12 17 0 0
0.6367 1.7524 1.1635 -0.835 -0.538 0.119 27 26 30 0 0
0.5103 1.9684 1.1857 -0.676 -0.715 0.178 168 168 168 0 0
1.7273 3.5731 1.0496 -0.266 -0.963 -0.041 96 97 99 0 0
1.5675 3.0268 1.0632 -0.196 -0.928 -0.316 48 48 50 0 0
1.5522 3.0343 1.0656 0.154 -0.913 -0.378 63 63 65 0 0
1.4165 3.0278 1.0854 0.991 -0.115 0.067 54 54 56 0 0
1.3483 2.8907 1.0929 0.762 -0.136 0.633 28 28 30 0 0
1.3392 2.7865 1.0924 0.814 -0.287 0.505 27 27 29 0 0
1.3280 2.7236 1.0929 0.651 -0.286 0.703 25 25 27 0 0
1.3158 2.6823 1.0939 0.680 -0.275 0.680 29 29 31 0 0
1.0664 1.7896 1.1143 0.457 -0.591 -0.665 24 24 28 0 0
1.0440 1.7507 1.1169 0.222 -0.780 0.585 30 30 32 0 0
1.0188 1.7414 1.1204 0.208 -0.976 -0.064 78 77 76 0 0
1.0054 1.7444 1.1225 -0.131 -0.989 -0.063 55 53 54 0 0
0.9930 1.7386 1.1242 0.052 -0.938 -0.342 25 23 25 0 0
0.9395 1.7506 1.1323 -0.094 -0.981 -0.171 39 37 40 0 0
0.9262 1.7528 1.1343 -0.195 -0.980 0.035 46 44 47 0 0
0.8986 1.7650 1.1385 -0.486 -0.872 0.059 24 22 25 0 0
0.8857 1.7635 1.1404 -0.298 -0.950 -0.093 15 14 16 0 0
0.8726 1.7640 1.1424 0.163 -0.986 -0.027 9 9 11 0 0
0.8620 1.7434 1.1435 -0.356 -0.929 0.096 8 8 10 0 0
0.8100 1.6408 1.1493 0.197 -0.980 -0.014 11 11 13 0 0
0.6506 1.7590 1.1749 -0.294 -0.890 0.347 15 14 19 0 0
1.7297 3.5696 1.0655 -0.454 -0.891 0.001 91 95 94 0 0
1.5852 3.0116 1.0756 -0.409 -0.866 -0.289 41 39 42 0 0
1.5700 3.0164 1.0780 -0.338 -0.880 -0.333 48 46 49 0 0
1.5547 3.0232 1.0804 -0.115 -0.928 -0.353 63 61 64 0 0
1.3541 2.8218 1.1059 -0.516 -0.816 -0.261 33 33 35 0 0
1.3413 2.7854 1.1070 0.645 -0.648 0.405 29 29 31 0 0
1.2040 2.2555 1.1167 0.939 -0.282 -0.196 28 27 31 0 0
1.0451 1.7575 1.1302 0.174 -0.903 0.392 23 23 25 0 0
1.0327 1.7504 1.1318 0.338 -0.897 0.287 34 34 35 0 0
1.0206 1.7409 1.1334 0.208 -0.976 -0.064 69 67 65 0 0
0.9954 1.7329 1.1370 0.168 -0.889 -0.427 60 57 56 0 0
0.9416 1.7481 1.1452 -0.094 -0.981 -0.171 44 42 43 0 0
0.9007 1.7620 1.1515 -0.332 -0.914 0.236 25 23 26 0 0
0.8909 1.7347 1.1524 -0.337 -0.852 0.400 13 12 15 0 0
0.8116 1.6416 1.1622 0.135 -0.950 -0.283 9 9 11 0 0
0.6518 1.7623 1.1881 -0.220 -0.937 0.272 15 15 19 0 0
1.7321 3.5684 1.0814 -0.454 -0.891 0.001 88 92 91 0 0
1.5572 3.0147 1.0952 -0.219 -0.897 -0.385 63 61 64 0 0
1.3434 2.7855 1.1217 0.579 -0.735 0.353 34 34 36 0 0
1.3295 2.7720 1.1234 0.516 -0.763 0.390 33 33 35 0 0
1.3154 2.7608 1.1253 0.613 -0.274 0.741 27 27 29 0 0
1.3028 2.7262 1.1264 0.587 -0.241 0.773 22 22 24 0 0
1.1941 2.2299 1.1317 0.939 -0.271 -0.214 27 26 31 0 0
1.0465 1.7616 1.1433 0.234 -0.926 0.296 17 17 19 0 0
1.0222 1.7437 1.1465 0.192 -0.971 0.142 30 30 30 0 0
1.0095 1.7397 1.1483 -0.179 -0.950 -0.257 47 47 47 0 0
0.9978 1.7272 1.1498 0.168 -0.889 -0.427 71 70 70 0 0
0.9302 1.7490 1.1602 0.134 -0.990 -0.039 40 39 41 0 0
0.9021 1.7661 1.1647 -0.248 -0.930 0.269 16 15 17 0 0
0.8138 1.6381 1.1749 0.135 -0.950 -0.283 9 9 11 0 0
0.7059 1.7629 1.1934 -0.741 -0.614 -0.272 11 11 13 0 0
1.7344 3.5672 1.0973 -0.454 -0.891 0.001 84 88 88 0 0
1.4180 3.1416 1.1339 0.534 -0.608 -0.587 53 53 55 0 0
1.4008 3.1829 1.1374 -0.660 -0.673 0.333 50 50 52 0 0
1.3187 2.7407 1.1393 -0.628 -0.572 -0.527 34 34 36 0 0
1.0107 1.7460 1.1615 -0.035 -0.983 0.179 24 24 26 0 0
0.9993 1.7303 1.1629 -0.016 -0.971 -0.239 37 37 38 0 0
0.9457 1.7426 1.1710 -0.086 -0.984 -0.157 42 41 42 0 0
0.9320 1.7487 1.1732 0.134 -0.990 -0.039 26 26 28 0 0
0.9156 1.7781 1.1763 0.253 -0.794 0.553 20 20 22 0 0
0.8899 1.7735 1.1799 -0.146 -0.923 0.356 9 9 11 0 0
0.8808 1.7399 1.1805 0.153 -0.987 -0.038 9 9 11 0 0
0.8659 1.7545 1.1830 -0.143 -0.982 -0.120 8 8 10 0 0
1.7530 3.5419 1.1102 -0.916 -0.392 0.084 142 142 142 0 0
1.7372 3.5313 1.1122 0.143 -0.917 -0.373 81 85 84 0 0
1.7214 3.5223 1.1143 0.393 -0.844 -0.364 62 65 66 0 0
1.5778 2.9741 1.1219 -0.604 -0.705 -0.371 46 45 47 0 0
1.3064 2.7360 1.1559 -0.650 -0.557 -0.517 29 29 30 0 0
0.8577 1.7291 1.1969 -0.015 -0.542 -0.840 8 8 10 0 0
0.7740 1.6722 1.2078 -0.319 -0.917 0.241 12 12 14 0 0
1.7553 3.5398 1.1260 -0.916 -0.392 0.084 140 140 140 0 0
1.7396 3.5253 1.1279 0.143 -0.917 -0.373 81 85 85 0 0
1.7238 3.5166 1.1300 0.393 -0.844 -0.364 62 65 66 0 0
1.5801 2.9666 1.1366 -0.479 -0.738 -0.475 48 48 50 0 0
1.5649 2.9752 1.1391 -0.407 -0.762 -0.503 62 62 64 0 0
1.5333 3.0232 1.1450 -0.840 -0.524 -0.140 37 37 39 0 0
1.0626 1.7862 1.1815 0.575 -0.816 0.063 49 49 49 0 0
0.7892 1.6687 1.2187 -0.740 -0.661 0.120 11 11 13 0 0
0.7623 1.6761 1.2228 0.266 -0.910 -0.317 14 14 16 0 0
0.7306 1.7177 1.2286 -0.458 -0.870 0.185 15 15 17 0 0
0.7145 1.7392 1.2315 -0.608 -0.717 -0.340 15 15 17 0 0
0.6695 1.7792 1.2392 -0.763 -0.635 0.124 20 20 22 0 0
1.7420 3.5193 1.1436 0.143 -0.917 -0.373 79 83 83 0 0
1.7262 3.5110 1.1457 0.393 -0.844 -0.364 61 64 65 0 0
0.9012 1.7226 1.2169 0.357 -0.903 -0.237 17 17 19 0 0
0.8769 1.7077 1.2200 0.749 -0.641 -0.166 13 13 16 0 0
0.7640 1.6763 1.2357 -0.031 -0.978 0.206 24 24 26 0 0
0.7319 1.7207 1.2417 -0.327 -0.910 0.254 22 22 24 0 0
0.7160 1.7411 1.2446 -0.664 -0.747 -0.001 21 21 23 0 0
0.7019 1.7484 1.2469 -0.082 -0.665 -0.743 23 23 25 0 0
0.6863 1.7662 1.2497 -0.532 -0.829 -0.172 22 22 24 0 0
0.6706 1.7839 1.2525 -0.800 -0.597 0.062 24 24 26 0 0
1.7600 3.5369 1.1577 -0.921 -0.375 0.107 130 130 130 0 0
1.7443 3.5152 1.1593 0.071 -0.927 -0.369 76 80 79 0 0
1.7286 3.5054 1.1614 0.393 -0.844 -0.364 59 62 63 0 0
0.9505 1.7647 1.2241 0.186 -0.981 0.056 29 29 31 0 0
0.7777 1.6836 1.2471 -0.580 -0.810 0.082 18 18 20 0 0
0.7652 1.6802 1.2489 -0.052 -0.959 0.278 30 30 32 0 0
0.7183 1.7374 1.2575 -0.639 -0.733 0.234 29 29 31 0 0
0.7032 1.7514 1.2601 -0.639 -0.733 0.234 29 29 31 0 0
0.6854 1.7843 1.2637 -0.480 -0.671 0.566 29 29 31 0 0
1.7624 3.5348 1.1735 -0.922 -0.367 0.122 128 129 131 0 0
1.7467 3.5091 1.1750 0.071 -0.927 -0.369 77 78 80 0 0
1.5255 2.9995 1.1916 -0.881 -0.471 -0.045 35 35 37 0 0
1.4148 3.1157 1.2115 0.112 -0.979 0.173 47 47 49 0 0
0.7933 1.6770 1.2578 -0.682 -0.708 0.182 20 18 20 0 0
0.7795 1.6837 1.2601 -0.580 -0.810 0.082 34 32 33 0 0
0.7663 1.6855 1.2621 -0.107 -0.946 0.306 36 34 37 0 0
1.7648 3.5342 1.1894 -0.922 -0.367 0.122 122 123 125 0 0
1.7491 3.4995 1.1905 0.256 -0.924 -0.283 76 77 79 0 0
1.0889 1.8649 1.2337 0.577 -0.759 0.302 43 41 44 0 0
0.7321 1.7577 1.2827 -0.309 -0.611 0.729 35 33 36 0 0
0.7183 1.7625 1.2849 -0.338 -0.555 0.760 40 39 42 0 0
0.6885 1.7875 1.2901 -0.483 -0.625 0.613 47 46 49 0 0
0.5290 1.7968 1.3139 0.628 -0.765 0.142 166 166 166 0 0
0.5157 1.7973 1.3159 0.197 -0.955 -0.219 171 171 171 0 0
1.7515 3.5030 1.2065 -0.101 -0.985 -0.137 74 75 77 0 0
1.0905 1.8680 1.2471 0.582 -0.806 0.111 47 45 48 0 0
1.0779 1.8609 1.2487 0.610 -0.752 0.248 41 39 42 0 0
0.6705 1.8335 1.3078 -0.338 -0.440 0.832 58 56 59 0 0
0.6576 1.8305 1.3096 -0.568 -0.387 0.726 61 59 60 0 0
0.5302 1.7998 1.3273 0.662 -0.729 0.173 168 168 168 0 0
1.7538 3.5008 1.2223 -0.135 -0.984 -0.119 72 73 76 0 0
1.0797 1.8616 1.2619 0.544 -0.837 0.063 45 44 46 0 0
1.0668 1.8575 1.2637 0.364 -0.889 0.277 42 41 44 0 0
0.7929 1.7206 1.2991 -0.423 -0.654 0.627 52 50 51 0 0
0.7061 1.7811 1.3141 -0.462 -0.515 0.722 57 58 59 0 0
0.6684 1.8598 1.3225 -0.395 -0.476 0.786 67 67 68 0 0
0.6529 1.8753 1.3254 -0.632 -0.441 0.637 76 75 76 0 0
0.6370 1.8932 1.3284 -0.688 -0.379 0.619 89 88 89 0 0
0.6193 1.9224 1.3320 -0.746 -0.350 0.566 81 79 80 0 0
1.7562 3.4986 1.2380 -0.135 -0.984 -0.119 71 72 77 0 0
1.0580 1.8303 1.2774 -0.091 -0.910 -0.405 40 40 42 0 0
0.6811 1.8770 1.3348 -0.233 -0.539 0.810 86 87 87 0 0
0.6671 1.8815 1.3370 -0.487 -0.489 0.724 86 88 87 0 0
0.6512 1.8989 1.3400 -0.632 -0.441 0.637 78 79 80 0 0
0.6339 1.9258 1.3436 -0.701 -0.420 0.576 58 58 59 0 0
0.6156 1.9593 1.3476 -0.742 -0.367 0.562 57 57 56 0 0
0.5946 2.0092 1.3526 -0.759 -0.336 0.557 94 94 92 0 0
1.7585 3.4964 1.2538 -0.135 -0.984 -0.119 70 71 76 0 0
1.6185 3.3704 1.2694 0.761 -0.646 -0.053 55 54 56 0 0
1.0035 1.8643 1.3003 -0.640 -0.751 -0.160 39 39 41 0 0
0.6796 1.8996 1.3495 -0.233 -0.539 0.810 60 60 61 0 0
0.6651 1.9075 1.3519 -0.546 -0.506 0.668 54 54 55 0 0
0.6500 1.9197 1.3546 -0.646 -0.449 0.617 46 46 47 0 0
0.6323 1.9488 1.3584 -0.715 -0.423 0.557 47 47 48 0 0
1.7609 3.4941 1.2695 -0.135 -0.984 -0.119 69 70 75 0 0
1.1604 2.0788 1.2995 0.846 -0.397 0.356 10 10 12 0 0
0.6935 1.9090 1.3614 -0.299 -0.555 0.776 50 48 52 0 0
0.6784 1.9210 1.3641 -0.299 -0.555 0.776 48 46 50 0 0
0.6456 1.9626 1.3707 -0.552 -0.539 0.636 54 53 56 0 0
0.6291 1.9830 1.3740 -0.648 -0.448 0.616 63 63 64 0 0
1.7632 3.4937 1.2854 -0.009 -0.994 -0.109 67 68 71 0 0
1.6230 3.3739 1.3009 0.239 -0.971 -0.033 55 54 58 0 0
1.2597 2.6777 1.3246 0.588 -0.739 -0.329 31 31 33 0 0
1.2462 2.6613 1.3258 0.592 -0.773 -0.227 31 31 33 0 0
0.6922 1.9308 1.3761 -0.370 -0.624 0.688 50 49 53 0 0
0.6771 1.9429 1.3789 -0.366 -0.610 0.703 50 49 52 0 0
0.6096 2.0357 1.3928 -0.611 -0.474 0.634 166 166 166 0 0
0.5919 2.0638 1.3967 -0.611 -0.474 0.634 170 170 170 0 0
1.7656 3.4929 1.3012 0.184 -0.977 -0.109 66 67 69 0 0
1.6244 3.4143 1.3185 -0.836 -0.507 0.210 53 53 56 0 0
1.2628 2.6612 1.3382 0.478 -0.612 -0.630 32 32 34 0 0
1.2484 2.6588 1.3402 0.592 -0.773 -0.227 30 30 32 0 0
0.8343 1.8800 1.3665 0.674 -0.722 -0.160 42 41 46 0 0
0.6726 1.9875 1.3952 -0.071 -0.538 0.840 66 66 66 0 0
0.6240 2.0428 1.4049 -0.475 -0.516 0.713 162 162 160 0 0
0.6080 2.0589 1.4080 -0.564 -0.493 0.662 172 172 172 0 0
1.7679 3.4916 1.3170 0.184 -0.977 -0.109 66 67 69 0 0
1.7366 3.4508 1.3197 0.060 -0.997 0.050 40 40 43 0 0
1.6267 3.4151 1.3343 -0.862 -0.475 0.177 53 52 56 0 0
1.2660 2.6437 1.3518 0.397 -0.495 -0.773 31 31 33 0 0
1.2523 2.6322 1.3533 0.596 -0.488 -0.637 30 30 32 0 0
1.1385 2.0831 1.3446 0.853 -0.283 0.439 7 7 9 0 0
1.0694 1.9476 1.3485 0.751 -0.497 0.435 25 23 28 0 0
0.6408 2.0332 1.4158 -0.325 -0.653 0.684 167 167 165 0 0
1.7389 3.4498 1.3355 0.068 -0.997 -0.027 39 40 42 0 0
1.7230 3.4611 1.3384 0.209 -0.973 0.099 37 37 39 0 0
1.7072 3.4579 1.3406 0.209 -0.973 0.099 36 36 38 0 0
1.2569 2.5929 1.3655 0.297 -0.578 -0.760 30 30 32 0 0
0.6541 2.0481 1.4284 -0.084 -0.684 0.724 171 172 168 0 0
1.7412 3.4515 1.3514 0.161 -0.979 -0.128 38 39 41 0 0
1.7253 3.4594 1.3541 0.130 -0.989 0.065 36 36 38 0 0
1.5526 2.9012 1.3519 -0.393 -0.861 -0.322 36 34 37 0 0
1.0495 1.9144 1.3772 0.079 -0.982 0.174 29 29 32 0 0
1.0333 1.9433 1.3810 0.115 -0.555 0.824 17 16 21 0 0
0.7106 2.0458 1.4338 0.868 -0.240 -0.434 132 132 130 0 0
0.6773 2.0900 1.4409 0.640 -0.463 0.613 170 170 168 0 0
0.6660 2.0729 1.4417 0.516 -0.641 0.568 170 170 168 0 0
1.7436 3.4470 1.3670 0.014 -0.981 -0.196 38 38 40 0 0
1.7277 3.4603 1.3700 0.055 -0.997 -0.051 37 37 39 0 0
0.6764 2.1095 1.4560 0.630 -0.442 0.638 170 170 168 0 0
1.7459 3.4464 1.3828 0.009 -0.951 -0.308 38 38 40 0 0
1.1788 2.5590 1.4195 -0.345 -0.871 -0.349 9 9 11 0 0
1.0616 1.9672 1.4055 0.489 -0.735 0.469 34 32 35 0 0
1.7954 3.5173 1.3955 -0.651 -0.744 -0.149 75 76 77 0 0
1.7324 3.4497 1.4011 0.045 -0.998 -0.047 36 36 38 0 0
1.1813 2.5524 1.4335 -0.345 -0.871 -0.349 9 9 11 0 0
1.7979 3.4786 1.4092 0.246 -0.933 -0.262 73 74 73 0 0
1.7506 3.4508 1.4146 0.007 -0.999 -0.036 38 37 40 0 0
1.7348 3.4460 1.4167 0.077 -0.973 -0.218 36 36 38 0 0
1.7189 3.4540 1.4195 0.363 -0.890 -0.277 35 35 37 0 0
1.8003 3.4779 1.4250 0.044 -0.992 -0.121 69 73 72 0 0
1.7213 3.4470 1.4349 0.503 -0.693 -0.516 35 35 37 0 0
1.5649 2.8513 1.4235 -0.100 -0.964 -0.245 36 36 38 0 0
0.9305 2.2390 1.4818 0.291 -0.201 0.935 17 15 18 0 0
1.8026 3.4761 1.4408 0.044 -0.992 -0.121 68 72 71 0 0
1.7400 3.3944 1.4452 0.649 -0.741 -0.175 35 35 37 0 0
1.6929 3.3834 1.4515 -0.319 -0.746 -0.585 43 43 43 0 0
1.6768 3.4047 1.4552 -0.385 -0.783 -0.488 48 48 48 0 0
1.6610 3.4077 1.4577 0.265 -0.760 -0.593 49 49 49 0 0
1.5670 2.8552 1.4386 0.002 -0.999 0.038 38 38 41 0 0
1.2459 2.5396 1.4673 0.111 -0.719 0.686 24 24 26 0 0
1.2314 2.5405 1.4695 0.076 -0.691 0.719 22 23 25 0 0
1.2178 2.5295 1.4708 -0.472 -0.770 0.429 25 25 27 0 0
1.1870 2.5577 1.4771 -0.508 -0.741 0.440 14 14 16 0 0
1.0776 2.4891 1.4892 0.399 -0.772 -0.495 10 10 12 0 0
1.8208 3.4772 1.4544 -0.124 -0.989 -0.080 86 87 89 0 0
1.7423 3.3933 1.4609 0.707 -0.667 -0.236 36 36 38 0 0
1.6793 3.3932 1.4702 0.238 -0.748 -0.620 48 48 48 0 0
1.6528 3.1379 1.4585 0.907 -0.112 -0.406 49 49 49 0 0
1.5982 2.8826 1.4509 0.868 -0.488 0.093 46 44 49 0 0
1.5691 2.8558 1.4535 0.002 -0.999 0.038 41 39 44 0 0
1.4890 3.0083 1.4748 -0.864 -0.448 -0.230 40 40 42 0 0
1.2325 2.5547 1.4849 -0.100 -0.673 0.733 30 30 32 0 0
1.2177 2.5596 1.4874 -0.100 -0.673 0.733 24 23 26 0 0
1.1858 2.6011 1.4946 -0.216 -0.813 0.541 12 12 14 0 0
1.0374 2.4809 1.5092 -0.625 -0.780 -0.031 17 17 19 0 0
1.0219 2.4939 1.5123 -0.603 -0.798 -0.021 11 11 13 0 0
1.0064 2.5055 1.5153 -0.603 -0.798 -0.021 12 12 14 0 0
0.9898 2.5293 1.5192 -0.262 -0.965 0.023 18 16 19 0 0
0.8788 2.4915 1.5334 -0.006 -0.279 0.960 55 55 57 0 0
1.8390 3.4727 1.4677 -0.678 -0.733 0.050 133 133 135 0 0
1.8232 3.4744 1.4701 -0.134 -0.985 -0.108 83 84 86 0 0
1.6138 2.9416 1.4675 0.937 -0.339 0.089 38 38 38 0 0
1.5998 2.9021 1.4671 0.933 -0.350 0.088 47 45 48 0 0
1.5713 2.8570 1.4685 -0.024 -0.996 0.090 43 41 44 0 0
1.5558 2.8741 1.4719 -0.525 -0.844 0.113 36 34 37 0 0
1.4923 2.9799 1.4880 -0.521 -0.479 -0.707 39 39 41 0 0
1.4769 2.9878 1.4907 -0.562 -0.364 -0.743 40 40 42 0 0
1.4628 2.9621 1.4912 0.373 -0.587 -0.718 37 37 39 0 0
1.3991 3.0367 1.5053 -0.383 -0.144 -0.912 26 26 28 0 0
1.1872 2.6100 1.5098 -0.166 -0.855 0.491 18 18 20 0 0
1.0959 2.4890 1.5157 0.403 -0.879 -0.254 7 7 9 0 0
1.0682 2.4779 1.5191 0.290 -0.941 -0.174 7 7 9 0 0
1.0234 2.4990 1.5271 -0.767 -0.639 -0.058 11 11 13 0 0
0.9757 2.5470 1.5371 -0.527 -0.844 -0.098 22 20 23 0 0
1.8414 3.4716 1.4835 -0.678 -0.733 0.050 125 126 128 0 0
1.8255 3.4724 1.4859 -0.134 -0.985 -0.108 80 81 83 0 0
1.7781 3.4381 1.4907 -0.218 -0.939 -0.264 43 42 47 0 0
1.5733 2.8624 1.4838 0.533 -0.803 0.267 43 41 44 0 0
1.2347 2.5810 1.5157 -0.548 -0.685 0.480 67 65 65 0 0
1.2193 2.5956 1.5189 -0.548 -0.685 0.480 63 59 59 0 0
1.1855 2.6611 1.5282 -0.274 -0.846 -0.458 29 29 31 0 0
1.1701 2.6726 1.5312 0.409 -0.496 -0.766 15 15 17 0 0
1.0097 2.5127 1.5446 -0.778 -0.620 -0.105 11 11 13 0 0
1.8437 3.4677 1.4991 -0.621 -0.783 0.007 117 117 119 0 0
1.8279 3.4703 1.5016 -0.134 -0.985 -0.108 79 80 82 0 0
1.7340 3.3498 1.5076 0.104 -0.424 -0.900 34 34 35 0 0
1.7185 3.3348 1.5089 -0.405 -0.391 -0.826 39 39 40 0 0
1.5753 2.8655 1.4989 0.553 -0.803 0.222 42 41 43 0 0
1.5606 2.8587 1.5006 -0.364 -0.904 -0.223 38 37 39 0 0
1.5429 2.9479 1.5092 0.179 -0.785 -0.593 37 37 40 0 0
1.4991 2.9130 1.5134 -0.364 -0.626 -0.690 47 47 50 0 0
1.4839 2.9191 1.5160 0.060 -0.614 -0.787 48 48 51 0 0
1.4361 2.9840 1.5274 -0.470 -0.434 -0.769 46 46 47 0 0
1.2206 2.6052 1.5342 -0.548 -0.685 0.480 61 56 57 0 0
1.1734 2.6549 1.5445 0.409 -0.496 -0.766 14 13 17 0 0
1.8461 3.4686 1.5151 -0.159 -0.986 -0.042 111 111 113 0 0
1.6500 2.9611 1.5096 -0.718 -0.372 -0.588 56 56 58 0 0
1.5773 2.8729 1.5144 0.596 -0.755 0.272 49 49 49 0 0
1.5475 2.8707 1.5186 -0.010 -0.980 0.201 44 43 47 0 0
1.5171 2.8870 1.5242 -0.345 -0.934 0.089 48 47 52 0 0
1.4691 2.9670 1.5368 -0.066 -0.528 -0.847 46 46 49 0 0
1.4385 2.9777 1.5421 0.051 -0.358 -0.932 41 41 41 0 0
1.1161 2.4908 1.5567 -0.164 -0.943 -0.290 9 9 11 0 0
1.0978 2.5381 1.5626 -0.191 -0.981 -0.030 9 9 11 0 0
1.8643 3.4528 1.5275 -0.560 -0.827 0.048 156 155 156 0 0
1.8484 3.4545 1.5300 0.754 -0.610 -0.245 104 105 106 0 0
1.4725 2.9374 1.5497 -0.336 -0.699 -0.631 40 40 41 0 0
1.2391 2.6075 1.5612 -0.352 -0.889 -0.293 18 18 21 0 0
1.2243 2.6118 1.5637 -0.311 -0.905 -0.291 12 12 16 0 0
1.1190 2.4793 1.5701 0.177 -0.934 -0.309 10 10 12 0 0
1.8666 3.4472 1.5430 -0.538 -0.828 0.156 153 152 152 0 0
1.8508 3.4428 1.5450 0.840 -0.516 -0.170 98 99 100 0 0
1.6398 2.9435 1.5407 0.535 -0.468 -0.703 65 65 67 0 0
1.1223 2.4634 1.5831 0.343 -0.733 -0.588 10 10 12 0 0
1.1014 2.5431 1.5919 -0.363 -0.895 -0.258 10 10 12 0 0
1.0867 2.5458 1.5943 0.520 -0.802 0.293 11 11 13 0 0
1.0591 2.5318 1.5974 0.346 -0.934 -0.089 13 13 15 0 0
1.0455 2.5234 1.5988 -0.200 -0.980 -0.026 13 13 15 0 0
0.9718 2.5410 1.6110 -0.268 -0.834 -0.482 14 14 16 0 0
0.8807 2.7197 1.6372 -0.605 -0.449 -0.657 28 29 33 0 0
1.8689 3.4458 1.5588 -0.394 -0.870 0.297 146 145 148 0 0
1.8531 3.4430 1.5609 0.827 -0.552 -0.107 91 91 93 0 0
1.5980 2.9019 1.5592 -0.052 -0.705 -0.707 57 57 59 0 0
1.5106 2.8331 1.5671 0.460 -0.359 -0.812 53 53 55 0 0
1.4964 2.8150 1.5679 0.456 -0.420 -0.785 56 56 58 0 0
1.1520 2.4748 1.5941 -0.320 -0.927 -0.197 24 24 26 0 0
1.0612 2.5306 1.6117 0.314 -0.945 -0.089 12 12 14 0 0
1.0313 2.5430 1.6170 0.003 -0.915 0.403 15 15 17 0 0
1.0168 2.5438 1.6192 -0.358 -0.891 0.278 12 12 14 0 0
1.0017 2.5507 1.6220 -0.358 -0.891 0.278 12 12 14 0 0
0.9867 2.5566 1.6246 -0.184 -0.874 0.450 21 21 23 0 0
0.9738 2.5414 1.6254 0.492 -0.868 0.065 25 25 27 0 0
0.8855 2.6933 1.6496 -0.598 -0.431 -0.675 31 30 35 0 0
1.8713 3.4463 1.5747 -0.348 -0.875 0.336 140 138 141 0 0
1.8554 3.4436 1.5768 0.786 -0.617 0.026 86 87 89 0 0
1.7481 3.0781 1.5654 -0.384 -0.264 -0.885 67 67 67 0 0
1.7327 3.0905 1.5686 -0.404 -0.280 -0.871 68 68 68 0 0
1.6164 2.8498 1.5679 0.815 -0.579 0.028 52 52 54 0 0
1.5861 2.8689 1.5738 -0.431 -0.826 0.364 42 41 45 0 0
1.1535 2.4806 1.6090 -0.270 -0.940 0.210 31 31 33 0 0
1.1265 2.4615 1.6116 0.604 -0.797 0.010 27 27 29 0 0
0.9045 2.6716 1.6602 -0.827 -0.498 0.262 36 37 40 0 0
0.8893 2.6767 1.6628 -0.809 -0.586 -0.032 37 36 41 0 0
1.8737 3.4565 1.5913 -0.551 -0.745 0.377 133 132 135 0 0
1.8578 3.4417 1.5925 0.817 -0.549 -0.175 84 85 87 0 0
1.7507 3.0406 1.5778 0.176 -0.864 -0.472 71 71 71 0 0
1.7356 3.0277 1.5791 0.271 -0.960 0.077 70 70 70 0 0
1.5601 2.8124 1.5886 0.174 -0.186 -0.967 41 40 45 0 0
1.2224 2.5475 1.6185 0.381 -0.848 0.369 39 39 41 0 0
1.0354 2.5418 1.6458 0.562 -0.823 0.087 18 18 20 0 0
1.8601 3.4370 1.6081 0.588 -0.694 -0.414 84 84 85 0 0
1.7682 3.0224 1.5893 0.706 -0.345 -0.619 71 71 72 0 0
1.7530 3.0249 1.5918 0.418 -0.807 0.417 71 71 72 0 0
1.7379 3.0217 1.5938 0.530 -0.760 0.375 69 68 70 0 0
1.5918 2.8180 1.5996 0.323 -0.092 -0.942 37 35 39 0 0
1.2957 2.5614 1.6235 -0.689 -0.705 -0.170 40 39 41 0 0
1.2807 2.5701 1.6264 -0.670 -0.731 -0.133 40 39 42 0 0
1.2646 2.5960 1.6308 0.025 -0.597 -0.802 39 38 42 0 0
1.2521 2.5659 1.6303 0.550 -0.810 -0.205 38 37 40 0 0
1.2380 2.5604 1.6319 0.381 -0.848 0.369 38 38 40 0 0
1.2240 2.5548 1.6336 0.381 -0.848 0.369 38 38 40 0 0
1.7552 3.0377 1.6080 0.321 -0.638 0.701 68 67 69 0 0
1.7400 3.0339 1.6100 0.340 -0.653 0.677 63 61 64 0 0
1.2678 2.5779 1.6437 -0.637 -0.771 0.031 37 36 41 0 0
0.9396 2.6732 1.7000 0.262 -0.485 0.834 61 61 61 0 0
1.8964 3.4283 1.6344 -0.937 -0.342 0.072 159 159 159 0 0
1.5985 2.7253 1.6214 -0.477 -0.528 0.702 32 30 33 0 0
1.3884 2.5227 1.6361 0.025 -0.993 0.112 40 40 41 0 0
1.1264 2.5611 1.6781 0.254 -0.859 0.445 12 12 14 0 0
1.1122 2.5581 1.6800 -0.016 -0.843 0.538 11 11 13 0 0
1.0992 2.5659 1.6974 0.468 -0.811 -0.351 11 11 13 0 0
1.2544 2.6567 1.6968 0.104 -0.332 0.937 56 56 58 0 0
1.2253 2.6537 1.7009 0.436 -0.325 0.839 53 53 55 0 0
1.1360 2.6749 1.7160 -0.609 -0.722 -0.328 12 12 14 0 0
1.1207 2.6833 1.7189 -0.291 -0.912 -0.288 11 11 13 0 0
1.1126 2.6032 1.7134 0.120 -0.965 0.233 11 11 13 0 0
1.1375 2.6826 1.7314 -0.742 -0.661 -0.114 14 14 16 0 0
1.1251 2.6537 1.7307 -0.668 -0.631 -0.394 11 11 13 0 0
1.8579 3.2029 1.6852 0.794 -0.528 -0.302 55 55 55 0 0
1.7967 3.0465 1.6805 0.814 -0.256 -0.521 43 42 45 0 0
1.1527 2.7019 1.7458 -0.718 -0.658 0.225 20 20 22 0 0
1.1279 2.6447 1.7445 -0.663 -0.670 -0.334 11 11 13 0 0
1.8141 3.0829 1.6968 0.907 -0.271 -0.323 50 53 56 0 0
1.7990 3.0425 1.6954 0.898 -0.281 -0.337 54 55 57 0 0
1.6629 2.9968 1.7115 -0.074 -0.235 0.969 44 44 48 0 0
1.2385 2.5506 1.7345 0.018 -0.912 -0.410 35 35 37 0 0
1.1715 2.6749 1.7557 0.120 -0.980 0.161 27 27 29 0 0
1.1564 2.6806 1.7584 -0.512 -0.814 0.273 22 22 24 0 0
1.1412 2.6878 1.7613 -0.449 -0.856 0.257 13 13 15 0 0
1.1258 2.6972 1.7645 0.064 -0.891 0.449 11 11 13 0 0
1.8778 3.1677 1.7107 0.948 -0.216 -0.234 59 60 62 0 0
1.8470 3.1716 1.7157 0.914 -0.319 -0.251 59 59 61 0 0
1.8316 3.1443 1.7155 0.840 -0.405 -0.361 58 59 61 0 0
1.8163 3.0796 1.7118 0.892 -0.326 -0.312 56 59 60 0 0
1.8011 3.0631 1.7126 0.959 -0.278 -0.058 55 58 59 0 0
1.7861 3.0162 1.7105 0.940 -0.307 0.147 56 57 59 0 0
1.7271 3.0707 1.7399 0.032 -0.218 0.975 44 44 46 0 0
1.1608 2.6776 1.7876 -0.725 -0.440 0.530 18 18 20 0 0
1.9493 3.4239 1.7723 0.956 -0.269 -0.120 87 87 86 0 0
1.0782 2.3296 1.7963 -0.480 -0.811 -0.333 13 13 15 0 0
1.0570 2.4095 1.8072 0.966 -0.260 0.005 13 13 15 0 0
0.6433 2.9641 1.9223 0.812 -0.471 0.346 172 172 171 0 0
1.8559 3.0566 1.7664 0.940 -0.338 0.039 65 65 67 0 0
1.9588 3.4271 1.8362 0.975 -0.219 -0.027 94 95 90 0 0
1.7068 3.4784 1.8955 -0.779 -0.508 0.368 37 36 41 0 0
0.8470 2.7232 1.9444 0.747 -0.428 -0.510 42 41 46 0 0
1.8995 3.3331 1.8676 -0.412 -0.911 0.028 62 60 63 0 0
1.8367 3.3821 1.8822 0.742 -0.671 -0.001 38 39 44 0 0
0.9037 2.6248 1.9406 -0.689 -0.387 -0.612 55 55 57 0 0
1.9023 3.4073 1.8914 -0.313 -0.847 0.430 59 58 62 0 0
1.8866 3.4181 1.8949 0.133 -0.987 0.088 53 53 57 0 0
1.8390 3.3908 1.8990 0.647 -0.761 -0.052 37 38 42 0 0
1.8072 3.4621 1.9115 0.124 -0.719 0.684 36 35 40 0 0
0.9085 2.5982 1.9520 -0.689 -0.387 -0.612 56 56 58 0 0
1.8732 3.4544 1.9172 0.802 -0.454 -0.388 42 43 47 0 0
1.7774 3.5147 1.9381 0.785 -0.618 0.050 34 33 38 0 0
1.7289 3.5540 1.9496 0.179 -0.900 0.398 36 35 40 0 0
0.9109 2.5940 1.9661 -0.760 -0.371 -0.534 55 55 57 0 0
0.8910 2.6442 1.9746 -0.798 -0.308 -0.517 51 51 53 0 0
1.0630 2.3820 1.9347 0.420 -0.577 -0.700 9 9 11 0 0
0.9156 2.5680 1.9774 -0.760 -0.371 -0.534 52 52 55 0 0
0.8951 2.6245 1.9868 -0.741 -0.324 -0.588 43 43 47 0 0
0.7892 2.6549 2.0060 0.014 -0.952 -0.307 79 79 79 0 0
0.7689 2.7016 2.0142 -0.725 -0.570 0.386 71 71 71 0 0
0.7544 2.7003 2.0162 -0.688 -0.509 0.517 63 62 66 0 0
0.7377 2.7156 2.0204 -0.735 -0.638 0.228 55 54 61 0 0
0.8271 2.5978 2.0089 -0.734 -0.612 -0.295 79 78 79 0 0
0.8074 2.6420 2.0169 -0.616 -0.701 0.359 78 78 78 0 0
0.7752 2.6655 2.0243 -0.084 -0.753 0.652 66 67 68 0 0
0.7384 2.7264 2.0367 -0.676 -0.605 0.421 55 56 58 0 0
0.7219 2.7399 2.0407 -0.052 -0.909 0.415 53 54 58 0 0
1.3859 2.5332 1.9330 -0.515 -0.857 0.006 41 41 43 0 0
1.0395 2.3713 1.9661 -0.215 -0.848 0.485 16 16 18 0 0
0.7762 2.6743 2.0403 0.071 -0.840 0.537 62 62 64 0 0
0.7231 2.7471 2.0566 -0.052 -0.909 0.415 54 55 59 0 0
1.3890 2.5115 1.9449 -0.402 -0.886 -0.230 44 44 46 0 0
1.3739 2.5251 1.9487 -0.308 -0.902 -0.303 43 43 45 0 0
1.3451 2.5250 1.9530 0.221 -0.704 -0.675 42 42 44 0 0
1.2869 2.5321 1.9625 -0.107 -0.903 -0.415 39 39 41 0 0
0.8963 2.5333 2.0210 -0.748 -0.603 -0.277 68 67 72 0 0
0.7229 2.7644 2.0738 0.161 -0.986 0.052 55 54 59 0 0
1.2933 2.4616 1.9681 -0.646 -0.752 -0.134 40 40 42 0 0
1.0557 2.3932 1.9955 -0.470 -0.775 0.423 15 15 17 0 0
1.0394 2.4157 2.0006 -0.364 -0.916 0.170 16 16 18 0 0
1.0241 2.4259 2.0040 0.213 -0.921 -0.326 14 13 17 0 0
0.9827 2.4113 2.0085 -0.459 -0.858 -0.230 33 32 36 0 0
1.4246 2.4570 1.9626 0.030 -0.971 -0.236 40 40 42 0 0
1.4101 2.4603 1.9652 -0.126 -0.958 -0.259 41 41 43 0 0
1.2508 2.4843 1.9919 -0.799 -0.459 -0.388 41 41 43 0 0
1.1446 2.3743 1.9945 0.534 -0.495 -0.686 40 40 43 0 0
0.8683 2.5607 2.0582 -0.727 -0.601 0.332 63 62 65 0 0
0.8511 2.5845 2.0636 -0.727 -0.601 0.332 52 52 55 0 0
0.7975 2.6698 2.0819 -0.811 -0.563 0.160 47 47 51 0 0
1.2548 2.4556 2.0026 0.030 -0.686 -0.727 42 42 44 0 0
1.2288 2.4169 2.0017 -0.272 -0.798 0.537 43 43 45 0 0
1.0416 2.4342 2.0318 0.198 -0.844 -0.498 37 37 39 0 0
0.9549 2.4427 2.0458 -0.640 -0.765 0.075 49 49 51 0 0
0.9386 2.4621 2.0506 -0.636 -0.768 0.076 51 51 53 0 0
0.9039 2.5178 2.0626 -0.722 -0.660 0.208 57 56 61 0 0
0.8696 2.5674 2.0737 -0.780 -0.550 0.298 49 48 53 0 0
0.8147 2.6656 2.0939 -0.727 -0.568 0.386 48 47 52 0 0
0.7977 2.6854 2.0988 -0.805 -0.593 -0.028 48 47 52 0 0
0.7802 2.7086 2.1043 -0.657 -0.712 0.248 49 48 53 0 0
0.7563 2.7846 2.1171 0.123 -0.463 0.878 49 48 53 0 0
1.1417 2.4611 2.0349 0.491 -0.697 -0.523 42 42 44 0 0
1.1035 2.4038 2.0335 0.217 -0.840 0.498 42 42 44 0 0
0.9734 2.4209 2.0551 -0.237 -0.859 -0.455 41 41 43 0 0
0.8514 2.6174 2.0975 -0.720 -0.561 0.408 45 44 49 0 0
0.8337 2.6448 2.1036 -0.728 -0.631 0.267 48 47 52 0 0
0.6240 3.0139 2.1805 0.286 -0.908 -0.305 94 95 94 0 0
0.6104 3.0005 2.1809 0.451 -0.848 -0.280 153 153 151 0 0
1.2104 2.5323 2.0483 0.118 -0.776 -0.620 39 39 41 0 0
1.0862 2.4615 2.0580 -0.311 -0.934 -0.175 38 38 40 0 0
1.0465 2.4250 2.0593 0.258 -0.959 -0.115 44 44 46 0 0
0.8475 2.6709 2.1198 -0.606 -0.574 0.551 46 45 50 0 0
1.2128 2.5268 2.0621 0.571 -0.785 0.238 34 33 38 0 0
1.1853 2.5079 2.0638 0.654 -0.662 0.366 30 29 33 0 0
1.1210 2.4129 2.0614 0.322 -0.944 -0.073 40 39 44 0 0
1.5343 2.4810 2.0230 -0.563 -0.819 -0.109 39 39 41 0 0
1.3078 2.4249 2.0497 0.294 -0.672 0.680 39 39 41 0 0
1.2142 2.5359 2.0779 0.543 -0.659 0.521 31 31 34 0 0
1.2002 2.5292 2.0791 0.865 -0.468 0.178 30 29 32 0 0
1.0751 2.4707 2.0903 0.370 -0.886 -0.280 28 28 30 0 0
2.0939 3.4984 2.0865 -0.899 -0.427 -0.099 118 119 121 0 0
2.0776 3.4885 2.0876 0.882 -0.215 -0.420 91 94 95 0 0
1.9291 3.0155 2.0483 0.302 -0.101 -0.948 43 40 48 0 0
1.6070 2.5259 2.0327 0.556 -0.591 0.584 40 40 42 0 0
1.5365 2.4776 2.0370 -0.563 -0.819 -0.109 37 37 39 0 0
1.2422 2.5803 2.0944 0.909 -0.402 -0.112 27 27 29 0 0
1.2148 2.5562 2.0954 0.892 -0.444 0.079 26 26 28 0 0
1.1052 2.4786 2.1016 0.037 -0.875 -0.483 27 27 29 0 0
1.0767 2.4743 2.1053 0.488 -0.861 -0.143 24 24 26 0 0
2.0795 3.4676 2.1011 0.878 -0.197 -0.435 89 90 92 0 0
1.9789 3.1382 2.0727 0.781 -0.175 -0.599 47 47 50 0 0
1.9465 3.0072 2.0603 0.282 -0.051 -0.958 52 50 56 0 0
1.5533 2.4643 2.0475 -0.637 -0.770 0.036 37 37 39 0 0
1.5381 2.4916 2.0534 -0.204 -0.796 0.569 34 34 36 0 0
1.2932 2.4951 2.0905 0.084 -0.446 0.891 31 31 33 0 0
1.1099 2.4460 2.1114 -0.454 -0.853 0.256 26 26 28 0 0
2.0977 3.4613 2.1139 -0.659 -0.513 -0.551 112 112 112 0 0
1.5687 2.4988 2.0646 -0.074 -0.918 0.389 36 36 38 0 0
0.7354 2.8282 2.2333 -0.820 -0.537 -0.198 62 64 65 0 0
0.6374 3.0056 2.2717 0.182 -0.823 0.538 164 164 164 0 0
2.0996 3.4430 2.1276 -0.613 -0.510 -0.604 114 114 114 0 0
1.7411 2.7251 2.0842 0.791 -0.608 -0.069 51 51 55 0 0
1.7264 2.7173 2.0853 0.793 -0.605 0.070 50 49 53 0 0
1.7114 2.7363 2.0901 0.594 -0.591 -0.546 48 47 52 0 0
1.5414 2.5155 2.0857 -0.187 -0.713 0.675 47 47 49 0 0
0.9781 2.5140 2.1699 -0.797 -0.581 -0.164 42 43 45 0 0
2.0853 3.4094 2.1416 0.191 -0.706 -0.682 85 85 87 0 0
2.0005 3.0955 2.1113 0.820 -0.148 -0.553 58 58 60 0 0
1.5724 2.5139 2.0957 -0.294 -0.768 0.570 46 46 48 0 0
1.5579 2.5183 2.0985 -0.093 -0.828 0.553 48 48 50 0 0
1.5433 2.5217 2.1012 -0.093 -0.828 0.553 49 49 51 0 0
1.5278 2.5521 2.1076 -0.107 -0.812 0.574 46 46 47 0 0
1.5131 2.5578 2.1106 -0.178 -0.810 0.559 42 42 42 0 0
1.4980 2.5727 2.1149 -0.441 -0.668 0.599 38 38 40 0 0
1.0121 2.4814 2.1752 -0.539 -0.793 0.284 24 24 26 0 0
0.6245 3.0194 2.3069 0.688 -0.464 0.558 175 173 174 0 0
2.0351 3.1744 2.1329 0.763 -0.202 -0.614 59 60 62 0 0
1.5743 2.5206 2.1112 -0.297 -0.878 0.375 53 53 53 0 0
1.5450 2.5327 2.1173 -0.162 -0.888 0.430 49 49 51 0 0
1.0137 2.4854 2.1903 -0.646 -0.740 0.187 21 21 23 0 0
0.9098 2.6522 2.2290 -0.902 -0.428 0.060 48 47 51 0 0
0.7689 2.8507 2.2777 0.923 -0.331 0.194 49 49 51 0 0
0.6111 3.0200 2.3248 0.732 -0.441 0.520 186 184 184 0 0
1.0167 2.4752 2.2033 -0.461 -0.813 0.356 21 21 23 0 0
0.9159 2.6133 2.2378 -0.706 -0.566 0.427 51 50 55 0 0
0.6104 3.0408 2.3436 0.804 -0.378 0.459 182 181 180 0 0
2.1253 3.4487 2.1902 0.290 -0.628 0.722 169 168 166 0 0
0.9165 2.6267 2.2547 -0.780 -0.542 0.313 53 52 57 0 0
0.5984 3.0316 2.3599 0.859 -0.322 0.398 192 192 190 0 0
2.0758 3.2830 2.1903 0.969 -0.221 -0.112 80 81 82 0 0
0.5980 3.0497 2.3783 0.838 -0.403 0.369 188 187 185 0 0
2.0956 3.3478 2.2129 0.943 -0.324 -0.077 101 102 101 0 0
0.8834 2.7001 2.3005 -0.882 -0.470 0.035 50 49 54 0 0
0.5861 3.0396 2.3945 0.838 -0.403 0.369 199 199 197 0 0
2.1343 3.5051 2.2465 0.808 -0.073 -0.585 100 100 98 0 0
2.1151 3.3977 2.2336 0.842 -0.083 -0.532 89 89 87 0 0
2.0004 3.1787 2.2186 -0.548 -0.454 0.702 52 52 54 0 0
0.8211 2.7453 2.3317 0.927 -0.354 -0.127 44 43 48 0 0
0.5854 3.0597 2.4133 0.852 -0.401 0.336 193 193 191 0 0
2.1543 3.5548 2.2675 0.794 -0.103 -0.599 120 120 118 0 0
2.1356 3.4683 2.2574 0.794 -0.103 -0.599 95 95 93 0 0
1.3345 3.2314 2.3585 0.688 -0.665 0.290 33 33 35 0 0
0.8384 2.7606 2.3621 -0.603 -0.732 0.318 44 43 48 0 0
0.5103 3.0750 2.4586 -0.257 -0.873 0.415 204 204 202 0 0
1.3362 3.2407 2.3758 0.688 -0.665 0.290 32 32 34 0 0
2.0641 3.5174 2.3252 -0.649 -0.389 0.654 55 54 55 0 0
1.3526 3.3140 2.4170 0.626 -0.709 0.324 35 35 37 0 0
2.1964 3.4892 2.3341 -0.880 -0.463 -0.107 153 151 153 0 0
2.1986 3.4838 2.3494 -0.803 -0.540 -0.253 151 149 151 0 0
2.0739 3.6231 2.3903 -0.820 -0.500 0.279 47 46 51 0 0
1.0894 2.3888 2.3420 0.947 -0.311 0.087 26 27 29 0 0
2.1998 3.4513 2.3606 0.462 -0.761 -0.456 155 153 154 0 0
2.1834 3.4401 2.3613 0.638 -0.621 -0.456 100 98 102 0 0
1.0912 2.3920 2.3570 0.925 -0.353 0.143 24 25 27 0 0
2.1858 3.4369 2.3769 0.615 -0.648 -0.449 107 108 109 0 0
2.1032 3.3350 2.3727 0.602 -0.453 -0.657 53 54 58 0 0
1.0921 2.4044 2.3736 0.897 -0.402 0.183 25 25 27 0 0
2.1880 3.4313 2.3921 -0.110 -0.679 -0.726 119 121 121 0 0
2.1713 3.4101 2.3911 0.688 -0.593 -0.418 96 96 98 0 0
2.1207 3.3118 2.3826 0.926 -0.331 -0.180 60 62 61 0 0
2.2051 3.3986 2.4006 -0.706 -0.310 -0.637 191 191 191 0 0
2.1743 3.4266 2.4098 -0.393 -0.551 -0.736 106 106 108 0 0
1.0973 2.3905 2.4001 0.726 -0.614 -0.309 23 23 25 0 0
1.0591 2.3384 2.3972 -0.107 -0.972 0.209 17 17 19 0 0
0.6498 2.8593 2.5451 -0.932 -0.340 0.126 69 70 73 0 0
1.0996 2.3864 2.4138 0.726 -0.614 -0.309 21 21 23 0 0
1.0608 2.3414 2.4121 -0.107 -0.972 0.209 19 19 21 0 0
0.6518 2.8594 2.5604 -0.932 -0.340 0.126 73 74 77 0 0
2.1936 3.3879 2.4334 -0.470 -0.622 -0.626 191 191 191 0 0
2.1781 3.3962 2.4371 -0.475 -0.640 -0.603 146 146 146 0 0
2.0913 3.1259 2.4044 0.942 -0.313 0.123 59 61 64 0 0
1.0778 2.3321 2.4226 -0.265 -0.956 -0.127 22 22 24 0 0
2.1122 3.2336 2.4357 0.933 -0.359 -0.001 79 79 80 0 0
2.1658 3.3600 2.4656 0.072 -0.886 -0.458 138 138 138 0 0
2.0976 3.1859 2.4458 0.919 -0.385 -0.083 78 77 78 0 0
1.0211 2.3720 2.4674 -0.638 -0.769 -0.046 14 14 16 0 0
2.1698 3.3374 2.4938 0.632 -0.572 -0.522 103 103 101 0 0
2.1362 3.2733 2.4875 0.775 -0.464 -0.430 79 77 77 0 0
2.1189 3.2214 2.4810 0.848 -0.396 -0.352 83 82 82 0 0
2.1718 3.3280 2.5082 0.601 -0.581 -0.549 99 98 96 0 0
2.1549 3.2945 2.5047 0.769 -0.467 -0.437 80 79 77 0 0
2.1383 3.2647 2.5020 0.796 -0.470 -0.381 72 71 71 0 0
0.9957 2.4005 2.5206 -0.361 -0.353 -0.863 13 13 13 0 0
2.1738 3.3162 2.5221 0.560 -0.667 -0.492 98 98 96 0 0
2.0901 3.1366 2.5025 0.888 -0.435 -0.153 62 63 66 0 0
2.0739 3.1045 2.4992 0.888 -0.435 -0.153 65 63 68 0 0
1.1587 2.3584 2.5032 0.480 -0.144 -0.866 12 12 14 0 0
1.0643 2.2983 2.5067 0.094 -0.793 -0.601 21 21 23 0 0
1.0154 2.3654 2.5261 -0.467 -0.466 -0.751 19 19 21 0 0
1.0002 2.3746 2.5300 -0.439 -0.389 -0.810 21 21 24 0 0
0.7514 2.6560 2.6181 -0.824 -0.452 0.342 91 93 91 0 0
2.1759 3.3087 2.5367 0.670 -0.641 -0.374 100 100 100 0 0
2.1254 3.2027 2.5252 0.863 -0.413 -0.291 67 67 69 0 0
2.1090 3.1720 2.5221 0.860 -0.432 -0.272 62 62 64 0 0
2.0928 3.1471 2.5200 0.874 -0.481 -0.075 59 59 61 0 0
1.2541 2.4541 2.5209 -0.782 -0.482 -0.395 20 21 24 0 0
1.2389 2.4655 2.5253 -0.852 -0.493 0.177 21 22 26 0 0
1.1475 2.3454 2.5173 0.356 -0.771 -0.528 18 18 20 0 0
1.0942 2.3032 2.5177 0.379 -0.894 -0.237 24 24 26 0 0
1.0801 2.3021 2.5196 -0.071 -0.988 -0.140 24 24 26 0 0
1.0660 2.3015 2.5216 -0.012 -0.990 -0.141 25 25 28 0 0
2.1783 3.3077 2.5525 0.206 -0.863 -0.462 103 103 103 0 0
2.1618 3.2858 2.5510 0.790 -0.554 -0.263 80 80 80 0 0
2.1453 3.2631 2.5493 0.790 -0.554 -0.263 69 69 71 0 0
2.1116 3.1822 2.5396 0.855 -0.503 -0.129 59 59 61 0 0
1.3467 2.3817 2.5086 -0.140 -0.020 -0.990 30 33 37 0 0
1.1501 2.3379 2.5303 0.401 -0.790 -0.463 33 33 35 0 0
0.8998 2.4137 2.5819 -0.698 -0.597 0.394 70 68 71 0 0
0.8822 2.4427 2.5898 -0.644 -0.568 0.512 65 65 67 0 0
0.8588 2.5237 2.6082 -0.817 -0.482 0.318 61 61 63 0 0
2.1808 3.3104 2.5690 -0.113 -0.844 -0.523 110 110 110 0 0
