ply
format ascii 1.0
element vertex 731
property float x
property float y
property float z
property uchar diffuse_red
property uchar diffuse_green
property uchar diffuse_blue
end_header
0.9234881863454597 4.05362741348895 2.784261761928222 86 86 86
1.0238825846128383 4.112242535544523 2.799369176643986 93 93 93
1.0403373345129994 4.1354208457498105 2.801068443131378 111 111 111
1.0098279071878342 4.138540550270132 2.795279124686644 163 161 162
1.0106417975002273 4.1550434675446315 2.7944841274716885 198 197 198
1.0348914459637384 4.181695254799523 2.7974180581116745 209 207 207
1.0565088383250272 4.207306692512715 2.799927464696061 210 209 209
1.0479578106777567 4.219852204137126 2.797636775399593 209 209 209
1.0464562958935395 4.23546543373689 2.796466899285254 209 209 209
1.05296964082176 4.2546109078349295 2.7965687745563432 209 209 209
1.6881638010677804 2.4111717160093082 3.034800838159552 208 208 208
1.7998308972420496 2.4509563981177265 3.053255998206249 207 207 207
1.769435659058116 2.460635202643886 3.0470657008070625 207 207 207
1.73089317433908 2.4684569291782 3.0394694173900216 206 206 207
1.6815522384944126 2.4738008661225472 3.030010557499042 196 196 198
1.6328158597680378 2.4791183189731045 3.020665374994111 150 150 152
1.5435637066129706 2.4752991085655998 3.004322704101543 105 105 107
1.4482974066065402 2.469838705979422 2.9869575420114596 90 90 92
1.3538785918421092 2.4642499973557275 2.9697569241725787 79 79 81
1.2562406873953837 2.4576146859025556 2.952018582561135 74 74 76
1.1653637443663625 2.452196656225751 2.9354654175180466 75 75 77
1.1078183987275754 2.454149673947892 2.9246772400987777 74 74 76
1.072437497798907 2.461056046223933 2.917719644907428 71 71 73
1.0182222264290288 2.463447137232132 2.907524408478526 68 68 70
1.0409828375388095 2.483788106046187 2.9105900582896047 66 66 68
1.132991055457293 2.520647227620324 2.9255641424927212 63 63 65
1.1376877588721912 2.536971181740986 2.925506752838394 60 60 62
1.1544559481934393 2.5562280184820727 2.927522245966712 58 58 60
1.141514521223399 2.5683501851191624 2.9244313296847357 55 54 58
1.1446678850060357 2.58436841948347 2.9241049816941334 54 53 58
1.2060510071001576 2.614730702364183 2.9337665047815342 52 51 56
1.0817936445272003 2.5993328520971835 2.911587731211271 52 51 56
1.0489781741181212 2.6063222208562977 2.905101407491445 49 48 53
0.976001724369533 2.6031184081409653 2.8917435398646947 45 44 48
0.973318612680897 2.617451087467024 2.8904301903177 42 41 46
0.9581721702938913 2.6286102262852706 2.8869849477929073 34 33 37
0.9606818420830272 2.6442549556642643 2.8865604204106963 33 32 37
0.950783746611871 2.6567149728478316 2.884014945038733 34 33 38
0.9521346492381284 2.6720752222403648 2.8833916045860324 37 36 41
0.9367992155105386 2.683083245488038 2.8799198947029936 40 39 44
0.9240778910138845 2.6947366251603375 2.876896490270117 44 43 48
0.9040126192452077 2.704407672829176 2.872623272077694 50 49 54
0.8796207610407585 2.7128632392324703 2.8676164525448002 52 51 56
0.8445864095490276 2.7183827887302234 2.860802066055165 53 52 56
0.8293653613024105 2.7291495846138227 2.8573653051227996 53 53 55
0.8039826025303645 2.73710593185989 2.852203037646971 53 53 55
0.7897422991618589 2.7480369001660554 2.848938904314091 54 54 56
0.7833273824501545 2.7610864962106443 2.8470061565984066 53 52 56
0.7676807970768968 2.7715609560756524 2.84350707459809 51 50 55
0.763790833569477 2.785274998654308 2.8420050039705393 51 50 55
1.0895184305989494 2.891658647666601 2.896387836985531 51 50 55
1.1767744427262907 2.931737616563656 2.9102969822351934 51 50 55
1.1887968357471461 2.950717952179589 2.911447665772101 50 49 54
0.6994776805813631 2.82613050652761 2.8277475887540926 49 48 53
0.6793453353559022 2.8350590153254966 2.8235041756669954 48 47 52
0.557650745412197 2.8144704418366766 2.8020962519158146 48 47 53
0.5541488628641558 2.8279486694826765 2.8006796041545714 48 47 53
0.5380027419883605 2.8377124445969915 2.7971282751065125 46 45 51
0.555436880641812 2.8573474069950238 2.7992458143738195 45 46 50
0.5691033694024002 2.875935146101304 2.8007238844678715 44 45 49
0.5718134841224984 2.8913066283705615 2.8003520951722543 43 44 48
0.5807712295897346 2.9085768061432997 2.8010314662498965 43 44 48
0.5422448412492793 2.911525082589893 2.793715465774508 43 44 48
0.3574670989808846 2.8698428235467013 2.7618032150702843 42 43 47
0.38080989730773585 2.8912114316292326 2.764918412732791 41 42 46
0.4105606803922186 2.914646453820602 2.7691049800098133 40 41 45
0.4635777077901988 2.9454027789112254 2.7771918242622604 40 41 45
0.4856215818094204 2.966712559791694 2.780069364744844 40 41 45
0.515658569230561 2.9906154339920397 2.7842824143149416 39 41 44
0.4734629810217741 2.9918800137512083 2.776381426190662 36 40 43
0.42550805365892974 2.9911784965302366 2.7675237111695306 35 39 42
0.4216391484311659 3.0043622297817603 2.7660557220110515 34 38 41
0.42276592730948703 3.0191430199931286 2.7654237681744647 33 38 39
0.40427615153870367 3.027616905747822 2.761510987727893 33 38 38
0.4166503776944118 3.0460354499249886 2.762758916522239 32 37 37
0.420597208431133 3.0617628159393497 2.7625963398450066 31 36 37
0.41666438560845875 3.0749329197338726 2.7611172668256754 33 34 38
0.41951087188191716 3.090332487043726 2.7607691820956677 30 31 35
0.2836534500568817 3.059806232543223 2.737298912853556 32 33 37
0.26137829179951577 3.0666290441581063 2.732777731853081 30 31 35
0.26431412008535693 3.081823793673016 2.732457877787388 29 30 34
0.25291342865319244 3.092212395913831 2.729751470722454 30 31 35
0.22591910846052787 3.097291435325091 2.72445390875829 32 33 37
0.191101939194381 3.0996205169975064 2.717861354303419 32 32 34
0.1182040412092118 3.088805135434593 2.7049511550059897 34 33 36
0.27444344417946764 3.156543614002466 2.7300857750675145 34 33 38
0.30780525696668437 3.182374479584106 2.734806016290087 34 33 37
0.34147606965933397 3.2084441982344574 2.739569999233323 36 37 39
0.3491150912136395 3.225551393189497 2.7400139658740685 37 38 42
0.29662265565431956 3.2215778708015383 2.730500529744626 39 40 44
0.40846476740153337 3.2754387520598804 2.748187235138091 40 41 44
0.4090065086990613 3.290222131660709 2.7474465851948286 40 41 44
0.4100572974916008 3.305199433522265 2.746789350645578 41 41 47
0.4207357928876343 3.323642549787836 2.747721252811242 42 43 48
0.42784772125741555 3.3408499386309862 2.7480617208000693 42 43 47
0.43237102615687717 3.357156262958682 2.7479731616433423 43 44 48
0.4331934964268167 3.372142518165425 2.7472730550844897 44 45 49
0.3118320598232389 3.342444724036841 2.726445254321626 46 47 52
0.285418910779508 3.3472207887590844 2.72127276282429 48 49 54
0.3218180542712583 3.375118683857984 2.726438942311177 50 51 56
0.3485791544230631 3.3995816404988655 2.7300123103663223 51 53 57
0.35269418371361116 3.4157026623010767 2.72985854272844 49 53 56
0.38019457782950716 3.440618640894449 2.7335433038438937 51 54 58
0.40676473095527355 3.4652956369068004 2.737069064582132 54 55 59
0.4288182950240821 3.488370573703954 2.739847966655617 57 57 60
0.41022811245860913 3.496071633124183 2.7359605299341774 58 58 60
0.4141155060833124 3.512309251240105 2.7357578921644645 60 60 62
0.41593450915484653 3.5277770725828805 2.735215283008246 60 60 62
0.42202086571062414 3.5449095795276264 2.7353697255615885 59 58 63
0.4249360818291896 3.5608450736004147 2.7350038991604473 59 58 62
0.42802699145472034 3.576870416246186 2.7346655588725772 55 55 57
0.4373258900057604 3.595348809857598 2.735339481259254 50 49 52
0.4375093381398807 3.6102858348010884 2.7345236107236515 43 41 46
0.4372249643468187 3.625049263968151 2.733630817284459 40 39 44
0.4406660130964881 3.6413018515762086 2.733344512245436 38 37 42
0.4432156997934321 3.6572222219904016 2.7329117254807023 38 38 40
0.4444741277061741 3.672645134795029 2.732267661616854 44 44 46
0.4549538765867529 3.6917970124232804 2.733122359950985 50 50 52
0.46010519867830657 3.7088428142444148 2.733108248242322 57 57 59
0.40971195914749603 3.7033432265886463 2.724071132371439 58 58 60
0.37470326918217545 3.7039482715690246 2.717541139528175 61 61 63
0.3546410665339673 3.710564052705909 2.713442333623176 63 63 65
0.3466514423324203 3.72208990373904 2.7113041124391337 67 67 69
0.4475460263001383 3.7786626036074873 2.72680529584486 70 70 72
0.44726403955892324 3.7935578848084255 2.7259054430010785 71 71 73
0.49279392636864316 3.8275950537903367 2.7324164336258665 75 74 76
0.5989418934592847 3.887242147965444 2.74871740661383 77 75 76
0.8860820827449265 4.023560907394613 2.7942373828094036 80 78 77
0.9022063896922655 4.046262085330577 2.795937428058716 83 82 80
0.9882381621787255 4.098753459403338 2.8089131675739645 87 87 87
0.9826658043954299 4.112465357711198 2.8070990649342917 95 95 95
0.9770961221443397 4.126169100827863 2.8052859227424776 125 125 125
0.9877391866964053 4.146846988352807 2.8060840938670126 176 176 175
1.0006199207861561 4.168544539498668 2.8072394273868544 204 203 201
1.0596361326840762 4.210347903050072 2.8158107996719974 210 209 208
1.0589056359618418 4.2263128360989 2.814766867046653 210 208 209
1.0334697114228113 4.231459344260298 2.80975461327585 209 209 209
0.9892880475699188 4.228270913429881 2.801738499262773 209 209 209
1.8283963488292372 2.4260849333880152 3.076103962192968 208 208 208
1.736621208802751 2.4229156909085647 3.059104588252445 208 208 208
1.7651863961763512 2.4450913700052856 3.063197297725373 208 208 208
1.7290296082602037 2.4534698084698174 3.055955563316878 207 207 207
1.693612966389896 2.461894893699448 3.0488497324442405 204 204 205
1.6469472137712815 2.4677527800530976 3.0397834659094567 177 177 179
1.578647923040272 2.4686998705006085 3.026945534815165 120 120 122
1.4834077118957971 2.463446638131029 3.009415425513424 97 97 99
1.3879816902161308 2.457833117331172 2.9918709123633516 85 85 87
1.31006833526685 2.4558445579065715 2.9773994342583747 76 76 78
1.2188534739015262 2.4505774556054276 2.9606235806175465 76 76 78
1.113364799095352 2.441739933073992 2.941377860902251 75 75 77
1.0979810396163356 2.453311655146624 2.937843855063995 72 72 74
1.0219277183503723 2.4507535864449648 2.92375275009917 69 69 71
1.1267949418200254 2.490263941340242 2.9411474142211675 67 67 69
1.1703352743741915 2.5156967991509034 2.9478589818081207 64 64 66
1.16316901373156 2.5292536243099573 2.945750870782241 62 62 64
1.1730576464191889 2.546874769576501 2.9466052597110486 59 59 61
1.1914718573612983 2.566594754761095 2.9489367777416984 57 57 59
1.1783083737172497 2.5787276692623795 2.945786627813744 55 55 59
1.1950099578453033 2.5981238218689517 2.9478158883542194 53 52 57
1.2946613073623885 2.6380054448154877 2.964213239656069 51 50 55
1.4224907167261103 2.685230889714784 2.9854696671619245 50 49 54
1.6288909608969446 2.7525278437401965 3.0202979423630785 49 48 53
0.8862282114549234 2.6117075594693366 2.8892493994410766 39 42 45
0.8973304876950605 2.6294338649553697 2.8903250126212656 35 38 41
0.9096062081869436 2.6475127375770895 2.891600333150455 36 36 40
0.9210619394523558 2.6654318228149347 2.8927312037489155 30 30 34
0.8951213450148533 2.673607252461977 2.8874132336863076 28 27 32
0.8840485018753927 2.6856219966613453 2.8846610963347192 31 30 35
0.8818712722544023 2.6999693230212043 2.883442132345292 31 30 35
0.8678587258385455 2.7111571563931998 2.880186503493877 32 31 36
0.8411374613409626 2.7188880089029253 2.874747549880109 35 34 39
0.8204966964230409 2.728181103203851 2.870358399558351 40 40 42
0.7974763712897778 2.7367633549710217 2.8655640418329797 44 44 46
0.7753961521576156 2.7455324950245803 2.860935084965615 45 46 48
0.7612273464753301 2.7564176139644587 2.857667327565806 47 47 51
0.7493040376845602 2.7678867293958804 2.854786857287316 48 48 53
0.7380442811448771 2.7795094865369725 2.8520219023976234 50 49 54
0.7254041370710153 2.7907143673981922 2.8490221978144965 50 50 55
0.7086565092015781 2.800721966140154 2.8453213614598947 51 51 57
0.6925513965823754 2.810863525996747 2.8417332158104185 50 49 55
0.675118233761141 2.8205775613885593 2.83792066271308 49 49 54
0.6590348363548907 2.8306292888133346 2.834341662310029 49 49 54
0.6439978573775644 2.8409378206977847 2.83094400831457 49 49 54
0.5574172995962202 2.8303139063136054 2.8153385704577465 49 49 54
0.5376186029360156 2.839009847896437 2.8111408123254273 48 48 53
0.5277214349880895 2.850571758125897 2.808634350143314 47 48 52
0.529961683953474 2.865717308760465 2.808197112330544 47 48 52
0.531131134398785 2.880560752590876 2.807576526724205 46 47 51
0.5185908489164045 2.891293410117241 2.804622220869845 46 47 51
0.5447413262151415 2.9137023594427616 2.8082497483336764 46 47 51
0.3237785655526352 2.8609772344985167 2.769871514913466 45 46 50
0.3492686657157571 2.882949383929705 2.7734001355934574 45 46 50
0.3745752295820032 2.9049662414855875 2.7768918731531382 45 46 50
0.39095154661390263 2.924316869843255 2.7788628243599844 44 45 49
0.4267975939538394 2.949803635243648 2.784131114875687 44 45 49
0.4632011546893331 2.9756038511978984 2.7894860341202508 43 43 48
0.4133371428800947 2.9743517198651697 2.7802232263040545 43 42 47
0.42190422803310323 2.9914542210223263 2.780859578323037 44 43 48
0.41955755119992066 3.0051182276799273 2.7796475427400207 43 43 48
0.4233410789933625 3.0207493922086406 2.779471713900924 41 43 47
0.424667133404637 3.035612046183814 2.778879355220448 40 42 47
0.43316936578386944 3.052816303557415 2.779497813076221 40 43 47
0.42638289908657023 3.0650770499352555 2.7775340934467057 40 42 46
0.4274596127077045 3.079901267165254 2.7768972365961253 41 41 46
0.42567328457304665 3.093795875846909 2.7757770460362168 41 41 45
0.2995779747559566 3.066494082995135 2.7537184087875097 40 40 45
0.2759377863279078 3.0728889220072118 2.7489317353064227 41 41 45
0.2639429467706399 3.083110114714637 2.7461084532507694 41 42 46
0.2475925574373462 3.0918307459533354 2.7425547583011403 41 41 46
0.22499831982694196 3.098387589180148 2.7379547052179443 42 42 47
0.19417887680207746 3.102072004200729 2.7319774983137592 43 43 46
0.12075753107379816 3.0910719669721582 2.718856494227204 42 41 45
0.3898237467100679 3.1976710055057773 2.7631919164810057 43 42 47
0.3672077061042158 3.2043550653631283 2.758580587421013 43 43 48
0.3876123784995851 3.225927717165757 2.7611799037907283 43 44 47
0.38771574029393785 3.240488149309969 2.760375772048795 43 44 48
0.39171607042704837 3.2564286436260765 2.7602230301669803 43 44 48
0.39420599394120004 3.2718605511322028 2.7598163316379516 43 44 51
0.3876188135930859 3.284089171782701 2.757891731638525 45 45 53
0.3895263664534364 3.29933556817458 2.7573865158230193 46 46 55
0.39452303358887 3.31570732659989 2.75739587929715 47 47 54
0.3927672286289178 3.3296733507522935 2.756277363142327 47 48 52
0.390842464830777 3.343582128470179 2.7551304586361782 48 49 53
0.3899383855637544 3.357865974327042 2.754153395111125 50 51 55
0.39067852744185405 3.372758717327416 2.753449662697625 50 51 56
0.4001568925737137 3.390878850699417 2.7541990363576496 51 52 57
0.4054745336551845 3.407506079720128 2.7542540318505035 51 52 57
0.4086352583581381 3.4233619752840485 2.7539489158814727 52 53 58
0.3315027373779684 3.409262965233306 2.7403085136093686 53 54 58
0.3873943366118662 3.444799153892033 2.7487606069701322 55 55 59
0.41021130158361974 3.4680815018035247 2.7517147665186217 56 55 60
0.40626902631248396 3.4813202850278335 2.750228113255699 55 54 58
0.4017190168525895 3.4943237096714608 2.7486410142914988 50 49 53
0.40385066817882376 3.509876939838971 2.748160392297863 47 46 51
0.4077555098369834 3.5261301705171286 2.74797208963075 42 41 46
0.4079842057585722 3.540988509866139 2.747174569698884 38 37 42
0.4138602098638451 3.558049889246558 2.747309526662396 33 32 37
0.4155173721152401 3.5734985139851236 2.7467460051256585 30 29 32
0.4188051127207444 3.589602700305566 2.746450621869695 30 29 33
0.4155117156483116 3.603139126700213 2.7450685931433068 33 31 36
0.42102704915389444 3.620157697772012 2.745138460287723 35 33 38
0.4255081833237082 3.6367964270806246 2.7450362267057664 39 38 43
0.4322138186628752 3.6543504428662263 2.745298613811268 48 48 50
0.4408451928874755 3.6727123440942933 2.7458757729833643 53 53 55
0.44321567869138856 3.6885944533006474 2.745421256330267 56 56 58
0.381374773323673 3.6785055223428116 2.7344163685990472 58 58 60
0.36977267017917526 3.688625644194982 2.7316723157149627 58 58 60
0.36005408960475127 3.699482625481699 2.729239149725689 60 60 62
0.36012694419495817 3.7143319748419414 2.728412967608393 62 62 64
0.4003833974901694 3.745756531137607 2.7341709873297013 66 66 68
0.4412161149420002 3.7775805833471305 2.74001427919888 69 69 71
0.6423330997033697 3.8762376890098635 2.772080022320766 70 70 72
0.6302520270384866 3.886579561840115 2.7692337738381343 72 71 73
0.7222592689711609 3.9405717062067356 2.7834022551586655 74 72 74
0.7797404674784906 3.980364541939684 2.7919111534385594 75 74 74
0.8928065495416626 4.043920094685832 2.8094805935088067 79 78 77
1.0718816592913436 4.13598447834148 2.837793361874138 83 83 82
1.0614394045285809 4.147774280288465 2.8351719808600566 88 88 88
1.0485839043152119 4.158501203514209 2.8321589969308425 102 102 102
1.0403683691801082 4.171191077745937 2.829903512311886 143 143 143
1.0360380860632397 4.185543372581563 2.8282812554228185 190 189 187
1.0432401077084181 4.204904095683574 2.828534376829327 208 206 205
1.0488840568451032 4.223623436807982 2.828532129770958 209 207 208
1.0034316760969797 4.219972254773456 2.82023077852625 209 208 209
1.0413711256257594 4.252882388351021 2.825471079634358 209 209 209
1.3118364514704304 4.3887766129384245 2.8684115722525587 209 209 209
1.8416345160608723 2.430382751133142 3.0944972665178008 208 208 208
1.7119619033550264 2.419205312692639 3.070640557634306 208 208 208
1.7227517973759225 2.4375537768245885 3.071646512930018 207 207 207
1.6997537432739447 2.448685024415905 3.0666782634696474 207 207 207
1.657394981797061 2.4555513435956486 3.058294031898087 195 195 196
1.6136532688090346 2.4619802367288597 3.0496732576828176 152 152 154
1.5340497088934193 2.4603715414371248 3.034732796461076 103 103 105
1.4433347368885276 2.4560322630703673 3.017847750847222 88 88 90
1.347188451496283 2.4501749297197906 3.0000224882952655 76 76 78
1.2530820096805528 2.44445507985008 2.982574664458114 77 77 79
1.1814808075111551 2.44353160735989 2.9691067050210327 76 76 78
1.061744659282489 2.431353174937252 2.947182485884771 73 73 75
1.0729367716285434 2.448963757352762 2.9483058669252915 70 70 72
1.039981715247051 2.4563658930006773 2.941667140607793 67 67 69
1.3528135088009603 2.54461004120934 2.9957761922789885 65 65 67
1.2166759920405585 2.528071636595157 2.971000121454809 63 63 65
1.1329696169446704 2.523526255568668 2.955450037478859 60 60 62
1.038186250513963 2.516048963623289 2.9379731856334264 57 57 59
0.9586761180818196 2.5119334955488766 2.9231912774172217 56 56 58
0.937929205415116 2.5218189972051794 2.918718119044176 55 54 58
0.9355358454253064 2.536130796975928 2.9174616990006794 52 52 56
1.4178740391824944 2.6698324945596665 3.0010219789868824 49 50 54
1.5008514927745487 2.7061716053400655 3.0146472230058414 49 50 54
1.6769386096826238 2.7660703476568163 3.044529259362218 49 50 54
1.7963315911512416 2.812335594799288 3.0644725775186705 48 50 54
0.7928623665345289 2.5893174040790066 2.887532081622642 46 49 52
0.8401163918103648 2.6161678854967128 2.8949453416669653 49 52 55
0.9093254353190037 2.6488712668599144 2.9061751825673867 46 47 51
0.8567324963380655 2.6501209542445054 2.896174239533641 40 41 45
0.8444097396589538 2.6617499878816715 2.893193737502354 35 36 40
0.8354209449838683 2.6742256573149863 2.8907951688029003 32 31 36
0.8371667279482734 2.689531108875135 2.890264453702344 28 27 32
0.8361989486280633 2.704127595194515 2.889261211480756 26 25 30
0.8081620557602871 2.711446201871083 2.8835558371717234 25 24 29
0.7894078199839141 2.7211908080135707 2.8794668597806785 24 25 27
0.7676276983838508 2.730054558099815 2.874856044171151 26 27 29
0.7530506386389957 2.7408283532772897 2.8714979555624542 25 26 28
0.7465645384027174 2.753795551967216 2.869544320142182 27 28 31
0.7273533982716145 2.7632131598086542 2.8653874506121992 32 33 37
0.7144521416009504 2.7743381140659404 2.862326050693704 36 37 41
0.6989045154294486 2.7846827389879056 2.8588088226697277 38 39 43
0.6903768040025091 2.796971083250635 2.8565078465615086 40 41 44
0.6682284495065853 2.80535700747009 2.8518543603083044 44 45 48
0.6461812161074272 2.813703604549364 2.8472221786009166 45 46 49
0.6277815610575755 2.823034833246744 2.84322339075371 45 46 49
0.6137325297446384 2.8335742228262406 2.839978181954919 46 47 50
0.610030838079359 2.847096892762637 2.838519079255735 48 49 51
0.5873459932295839 2.8550368684010037 2.83378935977701 48 49 51
0.5847901270472697 2.868858713607048 2.8325297965665577 47 48 52
0.577918610175725 2.881397800226364 2.8305274513028453 47 48 52
0.563784180700037 2.8917489681398214 2.8272766978688932 47 48 52
0.5504112945415459 2.9022892005563157 2.824159112658241 47 48 52
0.5435939980677553 2.9147772863238077 2.8221698722724953 46 47 51
0.5266764140583183 2.924174272119438 2.8184472354247436 46 47 51
0.5123199711537901 2.9343057831584267 2.8151669084612467 46 47 51
0.5036912744542957 2.946161538851604 2.812871180995289 45 46 50
0.4967793008456274 2.958528813157499 2.810870854608663 45 46 50
0.49301999902565186 2.9718645560613055 2.809411381482351 45 46 50
0.48799477511570566 2.9848000492476294 2.807735373649121 45 45 49
0.4434111110627581 2.985251165065265 2.7992916462419752 45 45 49
0.44661932317329844 3.000711547277176 2.799028360657897 45 45 49
0.4365080568193507 3.01194487467459 2.7964876798989753 44 44 49
0.42838930049602575 3.0237912066890162 2.7942887700366765 45 44 50
0.42827806324603457 3.0382016647320027 2.793457718763578 45 44 50
0.42974045037374453 3.05313240641651 2.792894555704983 45 44 49
0.4298240596059484 3.067628893567408 2.7920954597938916 43 43 48
0.43698829613685497 3.084458365036044 2.792502198113447 44 43 48
0.44351644926760536 3.101114172156629 2.7927985921004055 44 43 48
0.3041959298677479 3.069438550789597 2.768272401034349 44 43 48
0.2866907464352215 3.0778851605527398 2.7644922355594215 44 43 48
0.27625689788683316 3.0886490642418734 2.7619170316998782 45 44 49
0.2516194455519901 3.094598084601431 2.7569305337884513 44 43 48
0.22459611698833504 3.0996594556116515 2.7515434273097927 45 44 49
0.1880177412917866 3.1013778143067414 2.7445400382720475 44 43 48
0.13527151717646468 3.0974362867629193 2.73480196260407 44 43 48
0.3810515625922337 3.1960950681593294 2.7756647483014367 45 44 49
0.3700884184551704 3.2067944908132464 2.7729932265171193 44 44 49
0.3829109014327906 3.2257401450934635 2.7743494094558083 44 45 50
0.3869315006864448 3.2416642725520335 2.7742134520398665 45 46 52
0.38688550152091605 3.256183650404041 2.7733885964912544 45 45 53
0.38769966649170384 3.271017173700195 2.7727084998225684 46 46 55
0.3806502112906236 3.2830706931857745 2.7706998508392555 47 47 56
0.37865682099288467 3.2969140837862327 2.7695452842356603 47 48 54
0.3767159267082866 3.3107793915255095 2.768399398009165 48 49 53
0.3747369082407088 3.339209637348339 2.7664275821501283 49 50 54
0.3726010457806763 3.3530172186837763 2.765248126618751 51 52 56
0.3756201967027879 3.368715086107699 2.7649357925276563 50 51 56
0.3829947322573072 3.386037305484584 2.7653545413233425 47 48 53
0.3844154137344633 3.4011949212598065 2.764770750177397 46 47 52
0.38852340671207186 3.417367045184899 2.76463735411374 47 49 53
0.3897961593736379 3.4325056677312786 2.764026698434037 40 44 47
0.3868337287858692 3.4460696895216403 2.7627048598757784 37 38 42
0.38310378542964485 3.459343784640234 2.761254395641817 34 34 39
0.37968193660062044 3.472731420398119 2.7598557239823056 33 33 38
0.38441662506455754 3.4892236836137664 2.759822665891772 28 27 33
0.3833843608235574 3.5035367037841234 2.7588231818380575 24 23 29
0.38853828884702646 3.520235504650996 2.7588576753399567 22 21 26
0.3954785208987266 3.5376541328960296 2.7591889987736886 22 21 27
0.4000235232473598 3.5541789535035546 2.7591182936725627 25 24 30
0.40710712646973024 3.5717215033941057 2.7594697227730913 28 27 32
0.4100874645054553 3.587692494860848 2.759134706988233 36 34 39
0.42119129552620316 3.606884324312101 2.7601525328063965 42 40 45
0.4292006884531343 3.6249035323372505 2.760651977089197 47 46 51
0.4212372477959554 3.6366134570359994 2.758490062005717 51 50 55
0.44432819722493455 3.660707069249087 2.7614957762176955 52 52 54
0.4739063785716071 3.687500020749657 2.7655746849450242 55 55 57
0.47092045430118046 3.7012871157709712 2.764235870772205 57 57 59
0.5178043931399018 3.7352689597628372 2.7711783790063955 58 58 60
0.5532963086496478 3.7648015772356485 2.7762199264909504 58 58 60
0.6291292582478744 3.8109637092559714 2.787943956026051 60 60 62
0.542568782386215 3.7907501016606506 2.7727357050286305 61 61 63
0.6383327768761466 3.8454164315874415 2.7877451090952867 64 63 68
0.6154169385296909 3.851285322876887 2.783088193741306 67 66 71
0.5228438732282673 3.8280925813003677 2.7669120990374476 68 67 72
0.6176601615771237 3.8828951375385397 2.7817348978796472 70 69 73
0.6947861708682274 3.9306354672610118 2.793614370943198 72 70 73
0.7534674738264798 3.9708964743280584 2.8024315118874523 74 72 74
0.8985319214771237 4.047982226690185 2.8254896669707805 77 75 76
0.9389362105735968 4.081090492212431 2.8312577818685583 79 79 79
1.048351659076833 4.143855163960278 2.8483896507869635 83 83 83
1.039593303328774 4.156316205726933 2.8460354162447246 90 90 90
1.0308461172900838 4.1687608721123635 2.843684211287871 113 113 112
1.0216425841019028 4.180986765816546 2.8412591357766037 165 164 162
1.0277911911824282 4.19986618192388 2.841358868659048 200 198 198
1.0334083186059657 4.218548318098593 2.84136933616924 208 206 207
1.0435580160119229 4.239251563663677 2.8421220403180696 209 208 209
1.0291844619765076 4.249201428483614 2.83884869317977 209 209 209
1.0201418618498976 4.2614673824297 2.8364517534592326 208 208 208
1.7469315196466653 2.41201511212063 3.093647050403259 207 207 207
1.7191899179964927 2.4222393037509207 3.087792105017223 207 207 207
1.6967216984785685 2.4335046590382197 3.0828833717816098 206 206 206
1.6657275761291435 2.442868841640251 3.076456991378719 204 204 205
1.6242877950209054 2.449871174498794 3.068173060080241 181 181 182
1.5568267962385696 2.451051797189205 3.0552583187372644 122 122 124
1.458918718588222 2.4453002082964543 3.0369318498646183 92 92 95
1.3894642484077104 2.4455405766981593 3.023689958224708 79 78 82
1.2929760071968954 2.4394999614797532 3.005650062339583 77 76 80
1.262086853460187 2.447933247689031 2.999295682667739 77 77 80
1.2666237690189788 2.4643227555818923 2.9992441304866144 75 75 76
1.2405984577382343 2.473738557835132 2.9937612376485028 72 72 74
1.2604007530097665 2.493650780835847 2.99642035553013 68 68 71
1.3982054293216237 2.5410802135556474 3.0200171294175018 64 64 68
1.3058333120096606 2.5350789676963705 3.0027590006941653 62 61 66
1.2116931709691003 2.528349864896928 2.985204794562775 61 60 64
1.1504205446249696 2.529117556309576 2.9734917752761656 58 58 61
1.117383141826922 2.536444180075901 2.966790063029062 55 56 59
1.048922644994025 2.535121248789743 2.953824825741702 54 55 58
1.0238852928283466 2.5441204873043555 2.9485533748907655 53 53 57
0.9593522410345752 2.543377550654643 2.9363037644020884 51 51 55
2.0086630321849963 2.8337336508441893 3.119936100317431 49 50 54
1.8977139860485912 2.8228045899965033 3.0994150774519507 49 50 54
1.996323022284329 2.8642471580285003 3.1158810366731804 49 50 54
0.7273132994489958 2.573995589062277 2.8903984830062583 51 51 55
0.7898692788494043 2.6046733216284212 2.900599111381489 48 48 53
0.7723477237597445 2.6148625365905467 2.8966926543228166 46 47 51
0.8029759694350035 2.6375428176097957 2.9012590599343593 45 46 50
0.7515614476878468 2.6388257991895903 2.8913948498485333 46 47 51
0.7687652158230562 2.6580536798807786 2.893597279565766 45 45 50
0.7837095689767258 2.6767519358014837 2.895398965321666 40 40 45
0.7774324861134696 2.689835842622686 2.893472433754424 38 38 42
0.7927027192843739 2.708710422943393 2.895326336337563 34 35 39
0.7683157719574041 2.7168999457980396 2.8902240010555134 28 29 31
0.7419377312777813 2.7244704918470513 2.884777018983904 27 28 30
0.7295791406818102 2.7358077246188355 2.8817897738469083 27 28 30
0.7179459978246904 2.747312049796611 2.8789313639310277 24 25 28
0.7031438337543681 2.757904132675795 2.875520340723281 19 20 23
0.6854245690205121 2.7676376181857827 2.8716016885234805 20 21 24
0.6690614053679467 2.7777005794429463 2.867922915091448 22 23 26
0.6493559737614267 2.786768463737367 2.863663159265783 22 24 23
0.6294879565038342 2.7957303240414784 2.8593783604369185 22 23 23
0.6176940295716611 2.8069490858993107 2.8565052813158 24 26 25
0.6089835783200661 2.819026595984882 2.8541715109373462 28 30 30
0.6077445953951711 2.833254185305471 2.853140651502534 28 29 31
0.6054806548082192 2.8471879919162317 2.8519309895272484 29 30 32
0.60124229761159 2.8605433045801694 2.8503775953213357 33 34 36
0.5766989570391092 2.8678857682605927 2.8452927972796838 35 36 38
0.5687065953828135 2.880077729120384 2.8430894017031987 37 38 42
0.562059747986688 2.8926543397367572 2.8411207859920884 38 39 43
0.5494764480672504 2.903429156595243 2.8381221637468825 41 42 44
0.5431090187802274 2.916052843426258 2.8362041365726274 43 44 47
0.538310090324251 2.9291421125492567 2.83455883820095 44 44 48
0.5202740917224155 2.9381658891865485 2.8306195107769034 44 44 49
0.5090028935809361 2.9492215722811226 2.827855102848275 44 43 47
0.5005538740304938 2.961122513549388 2.82558099007569 43 42 45
0.4919108217655248 2.972942859182701 2.823274424163546 44 43 46
0.4735989541009131 2.981708576247874 2.8192969715712977 43 44 47
0.452661686145886 2.9895902622749393 2.8148688688805876 42 45 46
0.410465472657634 2.990659982878132 2.806772314226837 43 46 47
0.456136129239862 3.019632442572191 2.81385219584188 43 46 47
0.45008398974580843 3.0321781104772385 2.8119985783385353 43 44 48
0.43548296927514785 3.041952911050124 2.8086715260826582 46 46 50
0.42721801118275116 3.053741827597041 2.8064387287887134 46 46 50
0.4275508965289937 3.0683172811421926 2.8056878163064605 44 44 48
0.4315261387626801 3.08409951524968 2.8055632142172224 44 43 49
0.4357445163383211 3.099986585150034 2.8054790631989475 45 44 49
0.29477376359993723 3.0677265946836147 2.7804317708035677 45 44 50
0.29410418239654934 3.0817715088158364 2.7795195668287316 45 45 49
0.272516708607611 3.0888080344883173 2.7750148425809167 45 45 50
0.25697360429253235 3.097814775575152 2.7715512694513 44 45 49
0.22868071279982505 3.102452672440248 2.7659034242639158 44 44 49
0.19652471302396735 3.1056813051142127 2.7595985363894036 44 44 49
0.16242165980896084 3.108136100784409 2.7529660415408435 44 44 49
0.36831970376253076 3.1931522621146757 2.7874321098181225 44 44 49
0.3778664717345126 3.2109312175699154 2.7882571190543692 44 45 49
0.37446805515527415 3.2242487700606435 2.7868658115428215 44 45 49
0.38781756867541095 3.243424939587969 2.7883370398639857 44 44 50
0.359175940307112 3.2478894001455294 2.7826324631235466 44 44 50
0.29861002650104207 3.240972032709053 2.7714834017905297 43 44 49
0.2843878064300991 3.25031472005806 2.768252638446073 41 42 46
0.17533750506422618 3.2257404629515127 2.748855597153692 42 43 47
0.8410767441157775 3.509820252555766 2.8597826394176216 35 37 41
0.3739898180821727 3.354988882186745 2.779470418632601 33 35 39
0.37539100827643723 3.3700992580135916 2.7788930924947524 31 32 37
0.3778939866622848 3.385630865765407 2.778502081773653 28 29 34
0.37895920892328316 3.4006500481638757 2.7778658612661755 25 26 31
0.38402215577511156 3.417170240796251 2.7779071970350646 23 24 29
0.38063266172828514 3.4305606840869554 2.776513516601034 20 23 26
0.3825381863756292 3.4459376905630967 2.7760173508328334 21 23 26
0.3806189284048027 3.4598887369871485 2.7748723747536754 21 22 25
0.3761597930465257 3.4728799971853763 2.7732972698295515 22 22 25
0.3871968579121019 3.4917705481129104 2.7743440209134183 23 22 26
0.3850748408210397 3.505673429357532 2.7731631177888483 23 22 26
0.3904283721920786 3.5224553308982474 2.7732451775821336 30 29 33
0.4059291127895527 3.543190552601099 2.775039031160073 42 42 46
0.42507155598370516 3.5654082535823024 2.777443667528219 45 45 49
0.44512929323753636 3.588064569896753 2.779998128008076 48 48 51
0.4579001404977483 3.6079481246076 2.781319621351142 51 50 54
0.47517314698294244 3.6296635204775507 2.783396263621909 53 52 56
0.4377331810570354 3.629794853866459 2.776258021783534 54 53 58
0.4641582838402294 3.655198209308894 2.7798717516842766 54 53 58
0.4990490994171788 3.68409296943644 2.784902820296852 53 53 57
0.525878032541439 3.7098917692506945 2.788571371635091 54 54 56
0.5460526009544604 3.733117450972309 2.791116274232455 56 56 58
0.6115335355887961 3.7747846831214473 2.8012600251985913 57 57 59
0.6804814012079782 3.8181175560762823 2.8119710385069854 57 57 59
0.6508234908710161 3.8214013633397204 2.8061388601064943 59 59 61
0.5384876253711873 3.7906271998745527 2.7864624244768477 61 61 63
0.6269105109248393 3.842277611092442 2.8004180043589733 63 63 66
0.6129954599905579 3.851853631561646 2.7972327091085223 65 64 68
0.5971937094390832 3.8606032290478343 2.793734239936593 67 67 70
0.6416306740926385 3.894496624861842 2.8003042223648302 69 68 71
0.6962492645730702 3.9328442611724177 2.8085645677747983 70 69 71
0.7675472121930771 3.978445161465314 2.8195964710534627 71 70 73
0.8813792974004695 4.042350913744041 2.8377068546762216 74 73 75
0.9157520034066038 4.072869684242771 2.8425485112363797 76 75 77
0.9520974373029052 4.104372324415635 2.847710930492144 81 80 81
1.016174875564128 4.14793220108751 2.85748162824764 86 86 87
1.0126601520255727 4.162590525383437 2.8559932611867693 97 97 97
1.0091448360949822 4.1772470585608925 2.8545048813653375 132 132 130
1.011538726981382 4.194473035768415 2.8539984310171826 184 184 182
1.018212476857654 4.213589861246819 2.8542014931059736 205 204 203
1.0253310444007666 4.2329387480705325 2.8544763112057776 208 208 208
1.032467903181694 4.252334267942781 2.8547520077606583 208 208 208
1.011560826370797 4.25935570029358 2.8503777167764874 209 209 209
1.0409432814119122 4.288663996900337 2.8543365461946397 209 209 209
1.749581278025004 2.414079218730988 3.1100432591808804 207 207 207
1.7143455092289634 2.4227177290011177 3.102794701079683 207 207 207
1.6722055536153635 2.4297708791358823 3.0943078545200797 206 206 206
1.6331101642728665 2.437345349267388 3.0863769322904537 201 201 203
1.5902586780642478 2.4439804525062847 3.0777766106387134 158 158 160
1.5004567021190702 2.4402050740635066 3.0607349970003197 108 108 110
1.4013207039638864 2.4340715116869367 3.0420312271363072 87 87 90
1.3285959357457657 2.4334762162313135 3.028093623879994 77 76 81
1.27379158075447 2.436654078103884 3.0173890828113024 77 76 81
1.2118447119245728 2.4380403502573915 3.005411920871086 76 75 80
1.2627099591847935 2.464884114665036 3.0136927872156045 73 73 75
1.2372402246273024 2.4744184089618906 3.008270576401487 69 69 71
1.3801575582528367 2.522763083399011 3.033041094284828 65 66 69
1.3377407925158669 2.528491057137638 3.024574652440813 61 62 66
1.2727156579024905 2.5287824236638308 3.0120669409004965 60 59 65
1.1851997622555421 2.5235467762773096 2.9955455723600792 57 56 62
1.1377086882752412 2.5275390978154797 2.9862007125113323 56 55 60
1.0918467406332046 2.5317669345046565 2.9771557359187155 53 54 58
1.036760903996307 2.5336188296842583 2.966470746032932 52 53 57
0.9808450579282842 2.5350871897743623 2.955647604618838 50 51 55
1.8163595184572627 2.771113288000685 3.103047146965024 49 50 54
1.9678530166461006 2.8251994655849515 3.129146374427374 49 50 54
1.9555068493858792 2.838846312519296 3.1260168915521755 48 49 53
0.6878517386522739 2.5653144785578625 2.897684285246488 47 48 52
0.7463297865430989 2.5948869877556207 2.90727608022413 46 47 51
0.7092209241103331 2.5999278218298314 2.899867456969971 45 46 50
0.6654439955482497 2.603110389497032 2.8912810579876598 46 47 51
0.6358817773516618 2.609879308208301 2.885226216466808 46 47 51
0.5281040887883953 2.5958918813054273 2.865298438795181 47 48 52
0.5833882036756268 2.624898720364537 2.874308078177505 47 48 52
0.6632386533004156 2.6606867446013363 2.8876604605791205 46 47 51
0.6698002993312738 2.6770180647874198 2.888014172062875 44 45 49
0.6691483111331517 2.6914262154365614 2.8870889062323855 41 42 44
0.6654996669929942 2.7050242110074234 2.8856329574508077 38 39 41
0.6793922657120408 2.723439131194426 2.887279275545483 38 39 41
0.6635416122436884 2.7336886064022003 2.883665209896851 38 39 41
0.6420031773107793 2.7423093413765147 2.8790489397852297 29 30 32
0.6310578893928755 2.7538308283837334 2.8763065814884143 26 27 29
0.6284675393069976 2.7676785014267473 2.875040070914784 23 24 26
0.6239922040893058 2.78099260469775 2.8734410753756023 21 22 26
0.6223605959458958 2.795112620498609 2.872343620238721 22 23 26
0.6058821888352844 2.8049736152273956 2.8686305316305787 20 21 24
0.5977125923567173 2.8171870414450364 2.8663829722785326 21 22 24
0.5998027126606706 2.83236434451579 2.8659417667182305 22 23 25
0.5879624166925719 2.8434846898027386 2.8630497480668975 23 24 26
0.5806983229030198 2.855919796630169 2.8609638297540063 23 24 26
0.5719415721256791 2.867897338399403 2.8586165737644045 21 23 25
0.5698254604170967 2.8818317792616117 2.8574363480689953 21 22 28
0.5608871303995066 2.8937247710128893 2.8550589047998285 22 22 27
0.548463348386991 2.9045455198057457 2.8520714318244167 22 23 25
0.5460287473110353 2.9183608709632947 2.8508366358088217 25 25 27
0.5288664015568704 2.927685920553982 2.8470219189442942 27 26 30
0.5096852249159676 2.936340456409969 2.8428566087769807 29 28 33
0.4962747951514668 2.946717228234248 2.8397042496113563 29 27 30
0.49149491516888266 2.9597347846212134 2.8380632159166512 29 28 30
0.49262776703672895 2.974591132774474 2.8374559371894135 29 28 31
0.4747500553085875 2.98349335242766 2.833527274024168 29 30 32
0.45973038039346314 2.993244021881629 2.830100538312543 29 30 33
0.4567027862664077 3.006758978902529 2.828768505936257 30 31 34
0.4507111115514888 3.0193267054400486 2.826919659589668 30 31 34
0.44023839078095206 3.030444030106835 2.824290524165404 31 32 35
0.44161228330057556 3.0453596829994285 2.8237262571939077 33 34 37
0.4185609323340522 3.0523584586151453 2.8189094109182427 34 35 38
0.4308105433824565 3.0708119335949324 2.8202379651361476 32 33 36
0.4432993109101697 3.0893983841964103 2.8216050785567077 33 33 36
0.45461632032555765 3.107653331750734 2.822765500355461 34 34 36
0.3353374295849414 3.0826054278955004 2.8012424417587445 33 33 35
0.30602499005683215 3.087165306091329 2.795358241137913 32 33 35
0.26966568105681676 3.0892643753779923 2.7882569518241 32 33 35
0.24411867765251127 3.0948899467936166 2.7830369304194 33 34 37
0.46025543482556297 3.1824154682808503 2.819697602198986 32 33 36
0.45013379249081376 3.193574795813198 2.817133577827304 29 30 34
0.43351496781426446 3.2024802323963937 2.8134465722118613 30 31 34
0.4310617910036172 3.216217982721915 2.8122125165483163 29 30 34
0.42564629591873837 3.2289307940384315 2.8104663002494266 29 30 34
0.42691558003753904 3.243962550107725 2.809875491011035 29 30 34
0.3717593165570783 3.2392537698566155 2.7995412553577177 27 28 32
0.38577482441501176 3.2586986152074147 2.801153997784902 25 26 31
0.38689774142928046 3.2736439800791532 2.8005398678612545 22 23 26
0.38806466158023833 3.2886194377344657 2.7999325201681264 22 24 26
0.2573271314306076 3.256465399893413 2.7766027910210465 22 24 26
0.9103492229186089 3.520948868636244 2.8873648700865573 21 24 29
0.892244282162156 3.5299383293549305 2.883387711422652 17 20 25
0.8579221080370638 3.5329577339272884 2.8766266602496633 15 18 23
0.8355013819490265 3.540225029836882 2.8719160493319333 17 20 24
0.3840467114945578 3.389368566067274 2.7935665340291354 18 20 25
0.3822216532781555 3.403331370163992 2.7924406457499993 19 22 26
0.3845224667004138 3.4188330013860577 2.792021906584965 19 21 26
0.3871551442518263 3.434477626565189 2.791658979783303 21 22 26
0.38732388720062205 3.4492166074986064 2.790873009543439 25 26 28
0.39869154932563566 3.4681951630403653 2.7920029833390387 29 30 32
0.39865123288603344 3.4828976651763393 2.791178877627737 31 32 34
0.4090261485210097 3.5015814745038965 2.7921345075643784 38 38 40
0.4065296359591859 3.5153829555469387 2.7908885882994205 44 44 46
0.4231058512921311 3.536527851677029 2.792898854880005 50 50 52
0.4441087292304673 3.55945675378463 2.7956604398389784 53 53 55
0.46280167648333026 3.5815761310226817 2.798023228940775 58 58 60
0.4815963311586575 3.603814995859201 2.8003989217746432 59 59 61
0.44298448286117265 3.6036109261172893 2.7929927950398183 58 58 60
0.4482354483689248 3.6205651556474687 2.7930601334373706 56 55 58
0.470018506883193 3.6440970570323525 2.7959381118303193 54 53 58
0.49338323280720453 3.66834979345837 2.7990799089386447 54 53 59
0.5226877224518702 3.695074463809499 2.8032254985155722 54 53 58
0.5433186339122806 3.7184352904191917 2.805891644805431 54 54 57
0.5817456533654783 3.7490639285046417 2.811572932146545 55 55 57
0.5743642389310695 3.761278561250844 2.809476718056783 56 56 58
0.6116367575838617 3.791659592843244 2.814949970579031 57 57 59
0.5741212103596911 3.791597622436469 2.80774655662831 59 59 61
0.5363027124468945 3.791282308094073 2.800499011892604 61 61 63
0.609205989687682 3.8365415421647993 2.811990928842839 62 62 64
0.6078416791286001 3.851288412200707 2.8109100161469565 64 64 66
0.6453289628470722 3.8822237829150996 2.816393745870963 65 65 67
0.6881070649994263 3.915523963412632 2.822762551728204 66 66 68
0.7172704503909524 3.9432735189256647 2.826824127680428 68 68 70
0.8073817897976343 3.996871648262509 2.8411587479795104 69 69 71
0.8399634118729082 4.026425552054193 2.8457767909995657 71 71 73
0.8983044115133936 4.067083420232228 2.8547267407277754 75 74 76
0.963634853859162 4.110961373140539 2.8648405882706904 79 77 80
1.0045695873015816 4.14461484997212 2.870835660304361 82 82 84
1.0019992024985651 4.159660656888522 2.8695064583854646 89 89 90
0.996903403152687 4.173613965654247 2.8677527776566 109 109 107
0.9934873557063827 4.1882909305228875 2.8662816013424903 158 158 156
0.9973247575362845 4.206137618184257 2.8660278356990805 197 197 195
1.0033108849907488 4.224953836230287 2.8661330135587737 206 206 205
0.9848329331772661 4.233017444442175 2.86213560653035 208 208 208
1.0077152887269802 4.259337995420222 2.8650699227523537 209 209 209
1.060335671539083 4.2989812532564935 2.8729772604961132 209 209 209
1.7387833770741923 2.397238064958258 3.1248899062509863 207 207 207
1.7107398999712928 2.407417055738214 3.118894951902873 207 207 207
1.7651070445717807 2.4349872136081743 3.1279069043133334 207 207 207
1.6875230055218222 2.4345456750464054 3.112899811705441 206 206 206
1.6193792314905722 2.4358820289486247 3.0996236086579736 192 192 194
1.546186970848283 2.4358972851825023 3.085442190951519 137 137 139
1.4417449709541055 2.4288275857515895 3.065597277019921 101 101 103
1.3817582744689545 2.4312190534683205 3.05384323751351 80 79 83
1.2790586464713003 2.423912760151891 3.0343489536654435 79 78 83
1.2274136747664195 2.427706317801217 3.024133705320486 75 74 79
1.2505585397435102 2.4482266855193213 3.0274855411589625 74 73 78
1.3160247125578899 2.478471839358698 3.0385002552356184 71 70 74
1.3317235288601599 2.4975396422343827 3.040489617249526 65 65 69
1.3597805108517722 2.519528807920736 3.044712096584659 61 62 66
1.3402713327895368 2.530550605652999 3.0403241056935886 58 58 63
1.1896005412025237 2.510746528349177 3.012225335394877 55 54 60
1.1303896443638863 2.5120432409377464 3.000682012948029 54 53 58
1.0719843702632055 2.513336108728601 2.989294987394716 53 52 57
1.0454618142374328 2.5220818155179163 2.9836737936367252 50 51 55
1.0033276845900336 2.5269744273167247 2.9752405681528686 48 49 53
1.7269832595790238 2.734330475253733 3.10400239120474 47 48 52
1.812244893864324 2.771665859282937 3.1184611105865603 47 48 52
0.7782256332307743 2.5751145698766345 2.9289718998975323 47 48 52
0.756255804792025 2.5841859551791404 2.9242147992216587 47 48 52
0.7827536085722241 2.6056616475900305 2.928163531120062 46 47 51
0.7557129803924083 2.6133706709161193 2.9224991697777534 46 47 51
0.6942793313626276 2.6120244029014787 2.910671045984226 46 47 51
0.6741887117885075 2.6213282324812495 2.9062652044672808 47 48 52
0.6761843120899383 2.636409853863821 2.905819611903146 47 48 52
0.5578154636197337 2.6194792324392546 2.8838205936725365 48 49 53
0.5547289023535054 2.633021787701404 2.8824752899777724 48 49 53
0.6229653554353278 2.6657943472829615 2.893887263399098 48 49 53
0.6191082050600298 2.6792519811098137 2.8923973486391077 48 48 50
0.6487457783487315 2.701855612436232 2.896892151148162 49 49 51
0.5844809663910063 2.6987576790853667 2.8846121657228756 49 49 51
0.5421047155716622 2.701499132420024 2.8762507351104682 46 47 49
0.5455607711719097 2.716863532446033 2.8760724930987864 44 45 47
0.5467144359260798 2.731605050998163 2.8754825478378807 40 41 43
0.5480826787900537 2.746421282918386 2.8749300530348854 38 39 42
0.5499775397400075 2.761401937257629 2.874470514332537 36 37 41
0.5398454669093014 2.7729650403063726 2.8718694130616567 35 36 40
0.5235933857190276 2.7827437973032434 2.868181058813676 33 34 38
0.5672213106146007 2.8097870589187206 2.875141424712014 33 34 38
0.5714511849084468 2.8255350628002267 2.8750919376941764 30 31 33
0.5685402157870877 2.8392183981987067 2.87377288548044 27 28 30
0.5691572291527733 2.853940408079859 2.8730800436470183 25 26 28
0.5676304443193443 2.8680397718052406 2.872006211984341 24 25 28
0.5641524153186794 2.881562415698489 2.870586162429215 22 23 28
0.5560647321397137 2.8937008923671543 2.868349399734174 20 21 26
0.537909438719052 2.9027844281475947 2.864330672603106 21 22 25
0.523519502307865 2.912955639785827 2.8609814418127892 22 22 25
0.5084521289429654 2.9228788805875157 2.857514644979622 20 21 23
0.525005004212339 2.9424644728645215 2.8596409034968464 18 19 21
0.5143339657820454 2.9537142521000543 2.856952670488759 17 19 21
0.5035349182965507 2.9648962795668257 2.854243375122381 16 18 20
0.49265158421346134 2.9760234928156026 2.8515207744549795 18 18 20
0.48292205519027065 2.9874843291412425 2.849003306956379 16 17 19
0.47596827895379934 2.9997973912667444 2.846976598241426 15 16 20
0.4726008839938751 3.013235177731283 2.845582665961561 16 17 21
0.4594437257466457 3.0235430487579795 2.842464737699352 16 17 21
0.4317470743220879 3.0291419387176632 2.836789716271304 15 17 18
0.4574389584193036 3.051902407028343 2.8405114098707447 16 18 18
0.4527325696534277 3.0648885199894353 2.8388829793926758 17 19 18
0.4482013294708571 3.0779251475588794 2.8372856954576804 16 18 17
0.3924702166797287 3.0741346984066573 2.826697278888933 17 17 16
0.3831164052098749 3.0854735547361503 2.8242593355421706 17 17 16
0.38139237739758647 3.099323042892514 2.8231610777394716 19 19 19
0.32050420516843714 3.09341810478394 2.8116901917858486 19 20 19
0.2976276434082049 3.100066073329368 2.8068911448915568 15 17 17
0.2810786781321153 3.1087773895137714 2.803204174205014 14 16 15
0.42649120772415294 3.1724075995785452 2.827865789036968 15 16 16
0.42668590628421144 3.1870260397338854 2.8270968413071293 16 17 19
0.4128446007084775 3.1968408323940585 2.8238735723404345 17 18 20
0.40859854477820523 3.2099245005599455 2.822328945422622 17 18 20
0.40287173369796614 3.2224897447414746 2.820526038269447 16 17 21
0.3579562326093271 3.221388097374534 2.8118847112346663 17 18 23
0.3537668940955704 3.234399553760464 2.8103550577514036 17 18 23
0.37707390441124633 3.2570880646168536 2.8136186666226237 18 19 23
0.37445003933457066 3.2706937937096496 2.8123595215947113 20 20 22
0.372046587896415 3.2843787046664934 2.8111387110456216 21 21 22
1.096743786819377 3.57395245841815 2.9355654351611666 20 21 22
0.9522050141169414 3.5376296097154394 2.9095662407772815 20 23 25
0.926046104355927 3.543770429690011 2.9041592432897447 21 24 27
