ply
format ascii 1.0
element vertex 881
property float x
property float y
property float z
property float nx
property float ny
property float nz
property uchar diffuse_red
property uchar diffuse_green
property uchar diffuse_blue
property uchar class
property uchar detection
end_header
0.6498 2.3907 0.1915 -0.870 0.209 -0.446 52 52 54 0 0
0.6013 2.3699 0.2012 -0.792 0.107 -0.601 50 50 52 0 0
0.6041 2.5930 0.1764 -0.274 -0.449 -0.850 54 54 56 0 0
0.4057 2.9022 0.1730 -0.796 0.339 -0.501 88 86 89 0 0
0.8112 2.3066 0.1884 -0.954 0.233 0.189 54 54 56 0 0
0.7750 2.3741 0.1866 -0.576 -0.739 -0.349 51 51 53 0 0
0.7644 2.3820 0.1874 -0.576 -0.739 -0.349 51 51 53 0 0
0.6643 2.3549 0.2056 -0.467 -0.306 -0.830 51 51 53 0 0
0.6497 2.3752 0.2056 -0.603 -0.414 -0.682 51 51 53 0 0
0.6411 2.3843 0.2059 -0.554 -0.642 -0.530 60 60 62 0 0
0.5626 2.5604 0.1987 0.109 -0.852 -0.513 54 54 56 0 0
0.5705 2.5826 0.1951 -0.461 -0.145 -0.876 52 52 54 0 0
0.5571 2.6040 0.1948 -0.179 -0.449 -0.875 50 50 52 0 0
0.5310 2.7121 0.1871 -0.521 -0.059 -0.851 53 53 55 0 0
0.4781 2.6850 0.1981 -0.934 -0.332 0.135 49 49 51 0 0
0.6512 2.3454 0.2209 -0.510 -0.072 -0.857 52 52 54 0 0
0.6085 2.4381 0.2174 -0.616 0.065 -0.785 53 53 55 0 0
0.6135 2.4576 0.2145 -0.587 -0.665 -0.463 53 53 55 0 0
0.5400 2.5427 0.2165 -0.078 -0.557 -0.827 55 55 57 0 0
0.4073 2.6591 0.2240 -0.744 0.648 0.161 50 50 52 0 0
0.5075 3.1619 0.1547 -0.933 -0.237 0.270 49 48 52 0 0
0.9440 2.2760 0.1968 0.144 -0.785 -0.603 63 61 62 0 0
0.6139 2.3332 0.2401 -0.368 -0.359 -0.858 51 51 53 0 0
0.6133 2.4575 0.2269 -0.646 -0.486 -0.589 52 52 54 0 0
0.5691 2.4394 0.2355 -0.867 -0.369 0.335 51 51 53 0 0
0.5639 2.4511 0.2350 -0.819 -0.475 0.322 52 52 54 0 0
0.4888 2.6618 0.2238 -0.686 0.384 -0.617 56 56 58 0 0
0.4269 2.9714 0.2000 -0.697 -0.698 -0.162 44 42 45 0 0
0.4179 2.9803 0.2004 -0.697 -0.698 -0.162 54 52 55 0 0
0.8435 2.3145 0.2203 -0.491 0.408 0.770 45 45 47 0 0
0.6225 2.3552 0.2488 -0.388 -0.666 -0.637 53 53 55 0 0
0.6099 2.3613 0.2500 -0.388 -0.666 -0.637 53 53 55 0 0
0.6002 2.4477 0.2423 -0.752 -0.426 -0.503 49 49 51 0 0
0.5841 2.4510 0.2443 -0.534 -0.840 0.095 48 48 50 0 0
0.5266 2.5484 0.2426 -0.245 -0.538 -0.807 51 51 53 0 0
0.4244 2.9694 0.2131 -0.742 -0.646 -0.176 43 41 44 0 0
0.4160 2.9789 0.2134 -0.742 -0.646 -0.176 52 50 53 0 0
0.8782 2.3393 0.2252 -0.419 0.369 0.829 44 44 46 0 0
0.5620 2.3255 0.2731 -0.299 -0.950 0.087 58 58 60 0 0
0.5870 2.4534 0.2560 -0.354 -0.730 0.585 46 46 48 0 0
0.4143 2.9608 0.2281 -0.805 -0.329 -0.494 40 38 41 0 0
0.5102 3.1824 0.1908 -0.995 -0.076 -0.057 60 60 62 0 0
0.5649 2.3278 0.2847 -0.595 0.123 0.794 66 64 70 0 0
0.5582 2.3537 0.2829 -0.403 0.052 0.914 64 63 69 0 0
0.5118 2.3340 0.2917 -0.800 -0.040 -0.598 65 64 69 0 0
0.5310 2.3640 0.2858 -0.825 0.174 -0.538 63 62 68 0 0
0.3671 2.5473 0.2906 -0.770 0.638 -0.013 47 47 49 0 0
0.4244 2.6098 0.2758 -0.745 0.621 -0.245 51 51 53 0 0
0.9923 2.2475 0.2434 0.209 -0.795 -0.569 64 62 63 0 0
1.0956 2.2712 0.2390 -0.618 -0.786 0.018 102 101 99 0 0
0.6269 2.3590 0.2970 0.078 -0.601 0.795 80 77 75 0 0
0.6015 2.3555 0.3010 -0.293 -0.417 0.861 81 76 75 0 0
0.5865 2.3598 0.3027 -0.423 -0.467 0.776 85 81 80 0 0
0.3195 2.5560 0.3208 -0.594 0.529 0.606 51 51 53 0 0
0.6351 3.4025 0.1891 -0.963 -0.032 -0.268 38 37 43 0 0
0.3335 2.8249 0.3037 -0.869 0.490 -0.071 32 32 33 0 0
0.3747 2.8937 0.2908 -0.996 0.034 -0.082 25 25 27 0 0
0.3833 2.9177 0.2872 -0.974 0.164 -0.158 19 19 21 0 0
0.6489 3.4153 0.1991 -0.963 -0.266 0.052 37 36 41 0 0
1.0782 2.2439 0.2699 -0.806 -0.590 0.045 101 98 97 0 0
0.5153 2.5403 0.3191 -0.837 -0.527 -0.149 46 45 50 0 0
0.3846 2.9025 0.3010 -0.811 -0.526 0.255 19 19 21 0 0
0.3787 2.9139 0.3007 -0.985 -0.071 0.156 13 13 15 0 0
0.6444 3.4115 0.2134 -0.939 0.045 0.342 36 36 38 0 0
0.6390 3.4246 0.2128 -0.958 0.279 0.064 36 35 40 0 0
1.0623 2.2488 0.2844 0.149 -0.898 -0.414 70 68 70 0 0
0.3993 2.5584 0.3458 -0.298 -0.836 -0.461 42 42 45 0 0
0.3829 2.5609 0.3478 -0.892 0.128 0.433 45 45 48 0 0
0.3273 2.5787 0.3537 -0.108 -0.685 0.720 49 49 51 0 0
0.3258 2.5933 0.3525 -0.322 -0.604 0.729 56 56 58 0 0
0.3800 2.8987 0.3145 -0.689 -0.682 -0.247 14 14 16 0 0
0.3758 2.9116 0.3138 -0.966 -0.257 0.017 10 10 12 0 0
0.4316 3.0108 0.2962 -0.904 0.419 0.090 24 24 26 0 0
1.0857 2.2335 0.2955 -0.686 -0.727 -0.018 96 95 93 0 0
0.3502 2.5660 0.3640 -0.343 -0.470 -0.813 47 47 49 0 0
0.3469 2.5792 0.3631 0.050 -0.918 -0.393 46 46 48 0 0
0.3685 2.9055 0.3279 -0.986 -0.020 -0.163 11 11 13 0 0
0.3775 2.9300 0.3243 -0.918 -0.291 -0.268 12 12 14 0 0
0.4045 2.9706 0.3291 -0.890 0.335 -0.308 22 22 24 0 0
0.5699 3.2907 0.2753 -0.949 0.235 -0.212 25 23 28 0 0
1.1051 2.2310 0.3188 -0.997 -0.007 -0.071 101 100 100 0 0
0.9924 2.2015 0.3369 0.338 -0.866 -0.367 57 55 58 0 0
0.3483 2.6124 0.3840 -0.613 -0.790 -0.010 42 42 44 0 0
0.4852 2.3766 0.4006 -0.481 -0.144 0.865 71 69 72 0 0
0.3932 2.5226 0.3988 -0.099 -0.994 -0.052 30 31 33 0 0
0.3748 2.5235 0.4012 -0.855 -0.168 -0.491 29 29 31 0 0
0.5769 3.3152 0.2982 -0.761 -0.640 0.109 21 20 25 0 0
1.1033 2.2143 0.3464 -0.994 0.093 -0.050 116 114 113 0 0
0.9856 2.1815 0.3651 0.296 -0.862 -0.411 58 57 59 0 0
0.3528 2.8760 0.3827 -0.966 0.250 -0.059 14 14 16 0 0
0.4855 3.1281 0.3412 -0.867 0.461 0.191 38 38 40 0 0
0.5782 3.3166 0.3110 -0.920 0.037 0.390 20 21 24 0 0
1.0485 2.1467 0.3728 -0.730 0.658 0.184 173 172 170 0 0
1.1026 2.2140 0.3593 -0.994 0.093 -0.050 99 97 98 0 0
0.5649 2.3756 0.4145 0.208 -0.606 0.768 40 39 42 0 0
0.4930 3.1349 0.3524 -0.822 0.450 0.350 38 38 40 0 0
0.5824 3.3207 0.3232 -0.939 0.161 0.305 22 22 25 0 0
0.5863 3.3421 0.3207 -0.980 0.195 -0.046 21 21 22 0 0
1.1011 2.2130 0.3725 -0.992 -0.011 -0.127 88 86 87 0 0
1.0011 2.1767 0.3888 0.310 -0.891 -0.332 62 60 61 0 0
0.5669 2.3772 0.4264 0.279 -0.668 0.690 31 29 33 0 0
0.3719 2.3663 0.4527 -0.118 -0.747 -0.655 29 29 31 0 0
0.5827 3.3390 0.3346 -0.999 0.045 -0.010 21 21 23 0 0
0.6064 3.3965 0.3262 -0.951 0.267 -0.155 24 24 26 0 0
1.0980 2.2267 0.3844 -0.950 -0.237 -0.204 67 65 66 0 0
0.8506 2.2123 0.4175 -0.547 0.601 0.583 43 43 45 0 0
0.5899 2.3948 0.4341 0.279 -0.668 0.690 28 27 30 0 0
0.3668 2.3625 0.4657 -0.308 -0.951 0.040 23 23 25 0 0
0.3568 2.3853 0.4649 -0.860 -0.448 -0.244 14 14 16 0 0
0.5908 3.3288 0.3477 -0.975 0.207 0.084 25 24 28 0 0
0.5824 3.3568 0.3462 -0.998 0.021 0.067 18 18 20 0 0
1.0448 2.1290 0.4130 -0.717 0.655 0.240 173 171 171 0 0
1.0748 2.1645 0.4059 -0.717 0.655 0.240 164 161 161 0 0
1.1010 2.1975 0.3996 -0.965 0.261 -0.009 101 99 99 0 0
0.3435 2.3596 0.4810 -0.747 -0.565 0.351 16 16 18 0 0
0.3415 2.3735 0.4799 -0.995 -0.100 -0.022 15 15 17 0 0
0.5103 3.1511 0.3873 -0.850 0.326 0.415 36 36 38 0 0
0.5997 3.3371 0.3589 -0.943 0.326 0.060 26 25 29 0 0
1.1009 2.1975 0.4124 -0.965 0.261 -0.009 89 88 88 0 0
0.5423 2.3900 0.4652 0.041 -0.788 -0.615 17 17 19 0 0
0.3449 2.3762 0.4912 -0.675 -0.635 0.374 20 20 22 0 0
0.3897 2.6638 0.4595 -0.788 -0.330 0.520 37 36 41 0 0
0.3855 2.7248 0.4546 -0.468 -0.622 0.628 29 29 31 0 0
0.3571 2.7171 0.4588 -0.755 -0.332 0.566 25 25 27 0 0
1.0931 2.1924 0.4267 -0.974 0.057 -0.220 82 82 82 0 0
0.3612 2.3738 0.5014 -0.837 -0.284 0.468 24 24 26 0 0
0.3873 2.7265 0.4665 -0.442 -0.629 0.640 29 29 32 0 0
0.3317 2.7769 0.4689 -0.814 0.556 0.165 19 19 21 0 0
0.6218 3.1984 0.3950 0.084 -0.995 0.057 28 28 30 0 0
0.6025 3.1988 0.3974 -0.233 -0.926 0.298 30 30 32 0 0
0.5566 3.1929 0.4036 -0.981 0.186 -0.049 35 35 37 0 0
0.7212 3.6324 0.3437 -0.908 0.355 0.224 68 68 66 0 0
1.0902 2.1905 0.4401 -0.987 -0.001 -0.161 74 74 74 0 0
0.3826 2.3754 0.5107 -0.770 -0.634 -0.068 10 10 12 0 0
0.6174 3.1948 0.4090 0.049 -0.987 -0.151 29 29 31 0 0
0.5978 3.1949 0.4114 -0.012 -0.976 -0.218 30 30 33 0 0
0.5650 3.1832 0.4165 -0.328 -0.886 -0.327 32 32 35 0 0
0.5515 3.1886 0.4177 -0.376 -0.889 -0.261 34 34 36 0 0
0.6198 3.3741 0.3928 -0.990 0.126 -0.063 20 19 22 0 0
0.7307 3.6603 0.3537 -0.927 0.290 0.238 84 83 81 0 0
0.7396 3.6875 0.3502 -0.889 0.124 0.441 124 124 122 0 0
1.0878 2.1734 0.4547 -0.987 -0.001 -0.161 89 89 89 0 0
1.0880 2.1891 0.4533 -0.987 -0.001 -0.161 70 70 70 0 0
0.3746 2.5247 0.5105 -0.806 -0.512 0.297 19 19 21 0 0
0.3769 2.6537 0.4989 -0.743 -0.570 0.349 37 37 40 0 0
0.5670 3.1852 0.4291 -0.337 -0.940 -0.051 33 32 37 0 0
0.5576 3.1942 0.4294 -0.997 0.064 0.037 34 34 37 0 0
0.5212 3.1791 0.4352 -0.921 -0.368 0.127 37 37 39 0 0
0.7345 3.6642 0.3666 -0.927 0.372 -0.054 73 73 73 0 0
0.7483 3.6960 0.3621 -0.951 0.309 0.022 105 105 103 0 0
1.0856 2.1721 0.4679 -0.987 -0.001 -0.161 82 82 82 0 0
0.3817 2.4367 0.5295 -0.981 -0.026 -0.192 16 16 18 0 0
0.3674 2.5506 0.5213 -0.800 -0.500 0.333 30 30 32 0 0
0.3802 2.6566 0.5106 -0.743 -0.570 0.349 40 41 43 0 0
0.3685 2.6790 0.5100 -0.657 -0.698 0.286 44 43 48 0 0
0.3192 2.7020 0.5140 -0.602 -0.370 0.707 31 31 33 0 0
0.5605 3.1971 0.4418 -0.961 0.016 0.275 34 34 37 0 0
0.5146 3.1734 0.4494 -0.881 -0.168 0.443 37 37 39 0 0
0.7370 3.6668 0.3797 -0.916 0.350 -0.195 71 71 71 0 0
0.7481 3.6961 0.3758 -0.925 0.332 -0.184 102 101 99 0 0
0.7550 3.7214 0.3728 -0.878 -0.448 0.168 148 147 145 0 0
0.3963 2.6380 0.5225 -0.863 -0.470 0.183 16 16 18 0 0
0.3902 2.6490 0.5223 -0.863 -0.470 0.183 30 30 32 0 0
0.3841 2.6600 0.5221 -0.798 -0.596 0.083 44 45 47 0 0
0.3765 2.6698 0.5222 -0.881 -0.423 0.214 48 49 53 0 0
0.6582 3.4642 0.4202 -0.965 -0.178 -0.193 17 17 19 0 0
0.7539 3.7207 0.3868 -0.974 0.219 -0.066 132 131 129 0 0
0.7509 2.2045 0.5301 -0.781 0.334 -0.528 53 53 53 0 0
0.3805 2.4517 0.5526 -0.999 0.002 0.042 33 33 36 0 0
0.3930 2.6354 0.5355 -0.937 -0.281 -0.205 21 22 24 0 0
0.3885 2.6478 0.5349 -0.896 -0.374 -0.238 35 36 38 0 0
0.3834 2.6596 0.5345 -0.851 -0.461 -0.252 47 48 50 0 0
0.3820 2.6746 0.5334 -0.975 -0.222 0.026 49 50 53 0 0
0.5553 3.3161 0.4584 -0.320 -0.875 0.362 22 21 24 0 0
0.6217 3.4128 0.4423 -0.984 0.178 -0.008 17 17 19 0 0
0.7397 3.6886 0.4049 -0.948 0.318 0.005 91 91 89 0 0
0.7546 3.7216 0.4004 -0.967 0.201 0.158 117 117 113 0 0
0.4193 2.3584 0.5681 -0.958 0.244 -0.151 14 14 16 0 0
0.3967 2.5591 0.5538 -0.784 -0.616 -0.080 39 38 42 0 0
0.3907 2.6337 0.5482 -0.937 -0.281 -0.205 29 29 31 0 0
0.3833 2.6757 0.5455 -0.974 -0.224 0.029 51 51 53 0 0
0.6269 3.4178 0.4546 -0.928 0.251 0.275 17 17 19 0 0
0.6363 3.4446 0.4512 -0.095 -0.985 0.142 16 16 18 0 0
0.6498 3.4934 0.4456 -0.987 -0.159 0.037 21 21 23 0 0
0.6479 3.5100 0.4444 -0.960 -0.099 -0.260 26 26 28 0 0
0.7355 3.6849 0.4194 -0.898 0.425 0.115 81 81 80 0 0
0.7470 3.7147 0.4156 -0.906 0.349 0.238 105 105 101 0 0
0.4368 2.4030 0.5744 -0.898 -0.251 -0.361 17 16 19 0 0
0.3537 2.4462 0.5804 -0.862 -0.505 -0.052 40 40 42 0 0
0.6502 3.5123 0.4574 -0.664 -0.530 0.528 29 29 31 0 0
0.7452 3.6944 0.4312 -0.883 0.406 0.233 72 73 72 0 0
0.3978 2.5602 0.5780 -0.552 -0.765 -0.334 23 23 25 0 0
0.3859 2.5665 0.5789 -0.901 -0.247 -0.357 18 18 20 0 0
0.3826 2.5796 0.5782 -0.901 -0.247 -0.357 20 20 22 0 0
0.5502 3.3122 0.4987 -0.603 -0.523 0.602 19 19 21 0 0
0.3972 2.6076 0.5865 -0.957 -0.189 -0.219 44 42 45 0 0
0.6379 3.4287 0.4924 -0.879 0.383 0.286 16 16 18 0 0
0.4231 2.3927 0.6132 -0.891 -0.249 -0.380 37 37 37 0 0
0.4082 2.4121 0.6133 -0.606 -0.467 -0.644 36 36 36 0 0
0.3952 2.4485 0.6118 -0.654 -0.748 -0.114 33 33 33 0 0
0.3886 2.4589 0.6117 -0.833 -0.371 0.410 35 35 36 0 0
0.3935 2.5571 0.6032 -0.828 -0.558 -0.052 19 19 21 0 0
0.4956 2.9360 0.5613 -0.302 -0.269 0.915 43 43 45 0 0
0.4083 2.3968 0.6267 -0.837 -0.119 -0.535 39 39 39 0 0
0.4043 2.4092 0.6261 -0.881 0.045 -0.470 40 40 40 0 0
0.4046 2.4405 0.6236 -0.871 -0.355 -0.339 37 37 37 0 0
0.4027 2.4545 0.6227 -0.740 -0.668 0.078 33 33 33 0 0
0.4389 2.2823 0.6445 -0.303 -0.728 0.615 16 16 18 0 0
0.4299 2.3060 0.6436 -0.538 -0.197 0.819 22 22 24 0 0
0.4293 2.3208 0.6425 -0.526 -0.334 0.782 28 28 30 0 0
0.5189 2.9395 0.5840 -0.979 -0.191 -0.072 45 44 48 0 0
0.7294 3.6433 0.5057 -0.976 0.124 -0.180 36 35 38 0 0
0.7331 3.6655 0.5035 -0.819 -0.573 -0.027 42 41 46 0 0
0.6890 2.1767 0.6381 -0.766 0.639 0.065 37 37 35 0 0
0.4206 2.2837 0.6584 -0.874 -0.048 0.484 20 20 22 0 0
0.4147 2.2945 0.6582 -0.816 -0.321 0.480 22 22 24 0 0
0.4113 2.3072 0.6576 -0.824 -0.323 0.466 27 27 29 0 0
0.4330 2.3391 0.6528 -0.490 -0.409 0.770 31 31 31 0 0
0.4673 2.7796 0.6147 -0.841 0.359 0.405 47 46 51 0 0
0.5362 2.9546 0.5937 -0.987 0.137 0.080 44 43 48 0 0
0.5393 2.9742 0.5919 -0.845 0.208 0.493 43 42 47 0 0
0.7491 3.6434 0.5172 -0.992 0.025 0.120 31 31 33 0 0
0.7425 3.6559 0.5169 -0.993 -0.044 -0.113 34 34 37 0 0
0.5423 2.2838 0.6576 -0.270 -0.254 -0.929 12 12 14 0 0
0.4787 2.2668 0.6656 -0.790 -0.350 0.503 12 12 14 0 0
0.4735 2.2781 0.6653 -0.790 -0.350 0.503 13 13 15 0 0
0.4154 2.3104 0.6689 -0.819 -0.462 0.342 22 22 24 0 0
0.4356 2.3413 0.6644 -0.696 -0.602 0.392 25 25 25 0 0
0.4694 2.7652 0.6282 -0.402 -0.885 -0.234 48 47 52 0 0
0.7416 3.6553 0.5308 -0.563 -0.619 0.547 34 34 37 0 0
0.9096 2.1470 0.6420 0.155 -0.746 -0.648 52 52 52 0 0
0.6817 2.2635 0.6568 -0.592 0.607 0.530 15 15 17 0 0
0.4192 2.2829 0.6827 -0.901 -0.415 0.123 23 23 25 0 0
0.4440 2.3325 0.6763 -0.521 -0.785 -0.335 33 33 35 0 0
0.4501 2.4301 0.6683 -0.960 0.216 0.179 43 43 43 0 0
0.4367 2.4352 0.6693 -0.903 0.410 0.129 42 42 42 0 0
0.5429 2.7607 0.6334 -0.613 -0.487 -0.622 51 51 53 0 0
0.6194 3.2524 0.5880 -0.556 -0.811 0.183 30 30 32 0 0
0.6243 3.3637 0.5790 -0.526 -0.789 -0.318 24 22 25 0 0
0.7196 3.6911 0.5441 -0.820 0.569 0.055 54 56 55 0 0
0.4872 2.3041 0.6861 -0.383 -0.850 0.363 17 17 19 0 0
0.4735 2.3090 0.6872 -0.329 -0.902 0.280 18 18 19 0 0
0.4401 2.3296 0.6891 -0.521 -0.785 -0.335 36 36 36 0 0
0.4524 2.3699 0.6848 -0.517 -0.835 0.188 39 39 39 0 0
0.6206 3.2537 0.6009 -0.989 -0.145 -0.014 30 30 32 0 0
0.6107 3.3515 0.5946 -0.252 -0.944 0.215 26 26 28 0 0
0.4300 2.4146 0.6959 -0.792 0.313 0.524 47 47 47 0 0
0.4642 2.5200 0.6846 -0.580 -0.505 0.638 48 49 49 0 0
0.5222 2.7440 0.6620 -0.844 0.316 -0.433 47 47 49 0 0
0.5057 2.7467 0.6635 -0.916 0.273 -0.295 48 48 50 0 0
0.6211 3.2544 0.6140 -0.938 -0.342 0.056 30 30 32 0 0
0.6251 3.2934 0.6107 -0.885 -0.384 0.263 35 35 37 0 0
0.6056 3.3650 0.6073 -0.440 -0.701 0.561 18 18 20 0 0
0.7552 3.6128 0.5737 -0.687 -0.410 0.601 18 18 20 0 0
0.7259 3.6976 0.5704 -0.820 0.569 0.055 55 55 56 0 0
0.4462 2.3500 0.7112 -0.596 -0.800 0.069 39 39 39 0 0
0.4432 2.3631 0.7105 -0.577 -0.799 0.168 41 41 41 0 0
0.5266 2.7151 0.6763 -0.607 -0.388 -0.694 48 48 50 0 0
0.6277 3.2960 0.6235 -0.885 -0.384 0.263 36 36 38 0 0
0.7635 3.6958 0.5805 -0.399 -0.884 0.244 39 37 42 0 0
0.8078 3.9104 0.5603 -0.355 -0.929 -0.099 170 170 170 0 0
0.4828 2.3937 0.7165 -0.846 -0.171 -0.506 42 42 42 0 0
0.6321 3.3001 0.6360 -0.531 -0.781 -0.329 37 37 39 0 0
0.5960 3.3210 0.6380 -0.960 -0.003 0.281 29 28 31 0 0
0.7540 3.6309 0.5999 -0.978 0.189 0.084 23 22 26 0 0
0.7424 3.6387 0.6005 -0.972 0.175 -0.156 31 29 33 0 0
0.7543 3.6686 0.5971 -0.991 -0.046 0.126 35 33 36 0 0
0.7116 3.6846 0.6002 -0.827 0.546 -0.135 55 55 55 0 0
0.7485 3.7386 0.5926 -0.827 0.546 -0.135 71 71 68 0 0
0.4845 2.2415 0.7395 -0.843 -0.538 -0.012 12 12 14 0 0
0.5343 2.9375 0.6848 -0.824 0.398 0.403 35 35 37 0 0
0.5366 2.9902 0.6807 -0.894 -0.411 0.181 33 33 35 0 0
0.7514 3.6287 0.6140 -0.945 0.268 -0.188 22 21 25 0 0
0.7528 3.6675 0.6111 -0.993 -0.100 0.070 35 34 35 0 0
0.7327 3.7238 0.6090 -0.817 0.544 -0.190 64 64 62 0 0
0.7782 3.7862 0.6001 -0.804 0.553 -0.220 77 77 74 0 0
0.8273 3.8524 0.5906 -0.798 0.565 -0.211 98 97 95 0 0
0.4453 2.3960 0.7444 -0.357 -0.490 -0.795 45 45 45 0 0
0.5438 2.7133 0.7125 -0.995 0.085 0.058 41 41 43 0 0
0.5211 2.9770 0.6960 -0.370 -0.413 -0.832 30 30 32 0 0
0.5974 3.3049 0.6655 -0.957 -0.291 0.014 33 33 35 0 0
0.5985 3.3236 0.6640 -0.984 0.104 0.146 27 27 29 0 0
0.7436 3.6403 0.6277 -0.982 0.087 0.169 31 29 33 0 0
0.7486 3.6638 0.6255 -0.960 0.148 0.239 35 35 35 0 0
0.7279 3.6818 0.6262 -0.983 0.154 0.104 41 41 44 0 0
0.7661 3.7749 0.6160 -0.804 0.553 -0.220 82 82 80 0 0
0.8146 3.8405 0.6067 -0.798 0.565 -0.211 96 95 93 0 0
0.4402 2.4389 0.7541 -0.933 0.357 0.051 47 47 47 0 0
0.5446 2.7141 0.7250 -0.995 0.085 0.058 39 39 41 0 0
0.7882 3.7013 0.6329 -0.945 -0.068 0.320 34 33 33 0 0
0.8022 3.8290 0.6226 -0.800 0.580 -0.151 84 83 81 0 0
0.4769 2.3742 0.7674 -0.249 -0.935 -0.252 39 39 39 0 0
0.4648 2.3803 0.7681 -0.533 -0.822 -0.200 41 41 41 0 0
0.4725 2.4019 0.7659 -0.994 -0.049 -0.098 43 43 43 0 0
0.4353 2.4196 0.7681 -0.642 -0.623 0.446 45 45 45 0 0
0.5255 2.5536 0.7505 -0.913 0.295 -0.281 45 45 48 0 0
0.5391 2.5804 0.7473 -0.887 0.276 -0.370 44 44 47 0 0
0.5442 2.6651 0.7410 -0.708 -0.256 0.659 39 39 41 0 0
0.7514 3.5922 0.6577 -0.886 0.261 0.384 16 16 18 0 0
0.7660 3.6619 0.6515 -0.958 -0.064 0.281 30 28 33 0 0
0.7923 3.7055 0.6461 -0.945 -0.068 0.320 34 33 35 0 0
0.4707 2.4006 0.7784 -0.981 0.194 -0.002 42 42 42 0 0
0.5124 2.4958 0.7680 -0.974 0.133 -0.183 42 42 42 0 0
0.5252 2.5218 0.7651 -0.969 0.238 -0.066 42 42 44 0 0
0.5426 2.5994 0.7582 -0.931 0.322 -0.174 39 39 41 0 0
0.5326 2.6075 0.7586 -0.850 0.086 -0.520 39 39 41 0 0
0.5877 3.0180 0.7256 -0.840 0.524 0.140 25 25 27 0 0
0.6344 3.2679 0.7042 -0.895 -0.447 -0.004 34 34 36 0 0
0.6179 3.2885 0.7044 -0.258 -0.966 0.035 36 36 38 0 0
0.7457 3.5871 0.6723 -0.814 0.569 0.118 15 15 17 0 0
0.8017 3.6956 0.6597 -0.855 0.458 0.243 31 29 34 0 0
0.7998 3.8272 0.6509 -0.823 0.565 -0.055 71 71 71 0 0
0.9343 1.9222 0.7807 0.099 -0.613 -0.784 99 99 99 0 0
0.8551 1.9155 0.7883 0.046 -0.582 -0.812 69 68 67 0 0
0.5262 2.5068 0.7784 -0.935 0.045 0.351 39 39 42 0 0
0.5672 3.0006 0.7415 -0.760 0.361 0.540 24 24 26 0 0
0.6367 3.2702 0.7171 -0.834 -0.521 0.181 35 35 37 0 0
0.6037 3.2583 0.7209 -0.702 -0.553 -0.450 36 36 38 0 0
0.6259 3.2960 0.7164 -0.542 -0.835 -0.094 36 36 38 0 0
0.7532 3.5943 0.6848 -0.799 0.597 0.071 15 15 17 0 0
0.7896 3.6469 0.6779 -0.805 0.589 0.075 17 16 20 0 0
0.9040 1.9027 0.7971 0.009 -0.538 -0.843 88 87 88 0 0
0.4702 2.4005 0.8029 -0.619 -0.113 -0.777 38 37 41 0 0
0.4745 2.4194 0.8012 -0.831 0.275 -0.483 38 38 41 0 0
0.5108 2.4633 0.7951 -0.637 0.053 0.769 38 38 42 0 0
0.5588 2.6126 0.7809 -0.783 0.337 0.524 34 34 36 0 0
0.6388 3.2722 0.7300 -0.783 -0.585 0.213 37 37 39 0 0
0.6227 3.2933 0.7301 -0.821 -0.481 0.308 36 36 38 0 0
0.7898 3.6474 0.6917 -0.818 0.571 0.062 19 18 22 0 0
0.7962 3.7100 0.6869 -0.935 -0.277 0.221 33 32 34 0 0
0.7655 3.7188 0.6891 -0.771 -0.627 0.110 40 40 42 0 0
1.0222 1.9188 0.7980 0.009 -0.517 -0.856 164 164 164 0 0
0.7618 1.8987 0.8223 0.010 -0.907 -0.421 54 54 56 0 0
0.5381 2.2822 0.8169 -0.399 -0.667 0.630 17 17 19 0 0
0.4900 2.4472 0.8103 -0.581 0.349 -0.735 36 36 38 0 0
0.5209 2.5506 0.8008 -0.918 0.397 0.011 32 32 34 0 0
0.5430 2.6002 0.7957 -0.915 0.367 -0.167 33 33 35 0 0
0.5127 2.5920 0.7989 -0.667 -0.221 0.711 33 33 35 0 0
0.5068 2.6034 0.7986 -0.765 0.175 0.619 33 33 35 0 0
0.5740 2.9052 0.7730 -0.803 -0.223 -0.552 28 28 30 0 0
0.5935 3.2496 0.7488 -0.821 -0.379 -0.427 37 37 39 0 0
0.7996 3.6568 0.7040 -0.896 0.443 -0.024 19 18 23 0 0
1.0037 1.8922 0.8139 0.009 -0.517 -0.856 157 157 157 0 0
0.7259 1.8752 0.8391 -0.393 -0.270 -0.879 56 56 58 0 0
0.6098 2.0470 0.8381 -0.713 0.699 0.053 27 27 29 0 0
0.5683 2.2895 0.8260 -0.526 0.529 0.666 17 17 19 0 0
0.5505 2.2916 0.8274 -0.430 -0.227 0.874 19 19 21 0 0
0.4631 2.3488 0.8313 -0.182 -0.904 -0.388 34 34 36 0 0
0.5107 2.6066 0.8106 -0.413 -0.074 0.908 30 30 32 0 0
0.7980 3.6556 0.7180 -0.878 0.478 0.013 19 18 24 0 0
0.9963 1.8579 0.8292 0.076 -0.572 -0.817 167 167 167 0 0
0.9539 1.8460 0.8336 0.076 -0.572 -0.817 146 146 148 0 0
0.9040 1.8439 0.8380 -0.044 -0.542 -0.839 87 86 89 0 0
0.8972 1.8690 0.8369 -0.440 -0.250 -0.863 74 72 75 0 0
0.8914 1.8800 0.8367 -0.440 -0.250 -0.863 67 65 68 0 0
0.5303 2.6064 0.8214 -0.426 -0.216 0.879 30 30 32 0 0
0.5296 2.6220 0.8205 -0.413 -0.074 0.908 30 30 32 0 0
0.5180 2.6449 0.8200 -0.886 0.420 0.198 29 29 31 0 0
0.5304 2.7200 0.8142 -0.628 0.014 0.778 30 30 32 0 0
0.5830 2.8963 0.7985 -0.450 -0.658 0.603 28 28 30 0 0
1.0216 1.8442 0.8404 0.085 -0.605 -0.791 168 168 168 0 0
0.9818 1.8341 0.8444 0.059 -0.592 -0.804 163 163 163 0 0
0.9444 1.8253 0.8481 0.059 -0.592 -0.804 128 128 128 0 0
0.9133 1.8204 0.8510 -0.005 -0.595 -0.804 92 92 94 0 0
0.8864 1.8327 0.8525 -0.241 -0.463 -0.853 75 75 78 0 0
0.8736 1.8393 0.8531 -0.332 -0.423 -0.843 68 68 70 0 0
0.4966 2.4059 0.8493 -0.643 -0.482 0.596 32 32 34 0 0
0.6213 3.0999 0.7953 -0.759 -0.573 -0.310 19 19 21 0 0
0.7244 3.6434 0.7526 -0.868 0.496 0.026 34 33 37 0 0
1.1155 1.8578 0.8443 0.114 -0.632 -0.766 169 169 167 0 0
0.9085 1.8028 0.8648 -0.037 -0.604 -0.796 87 87 87 0 0
0.8840 1.8020 0.8669 -0.048 -0.588 -0.807 78 78 79 0 0
0.7747 1.9222 0.8685 -0.015 -0.703 -0.711 70 68 71 0 0
0.5162 2.5955 0.8483 -0.958 0.248 -0.145 28 28 30 0 0
0.5942 3.0422 0.8142 -0.858 -0.513 0.022 19 19 21 0 0
0.6167 3.0961 0.8090 -0.645 -0.692 -0.325 28 28 30 0 0
0.8101 3.8391 0.7471 -0.807 0.580 -0.107 82 82 80 0 0
0.7006 1.9320 0.8861 -0.412 -0.248 -0.877 102 101 99 0 0
0.5630 2.0000 0.8932 -0.907 -0.107 -0.407 31 31 32 0 0
0.5324 2.6086 0.8586 -0.409 -0.584 -0.701 26 26 28 0 0
0.5907 3.0393 0.8277 -0.687 -0.726 -0.033 18 18 20 0 0
0.6788 3.2382 0.8084 -0.680 -0.696 -0.231 42 41 45 0 0
0.6974 3.5628 0.7871 0.207 -0.978 0.024 20 20 22 0 0
0.6714 3.5754 0.7885 -0.905 -0.317 0.285 31 30 35 0 0
0.7408 3.6970 0.7754 -0.891 -0.144 -0.431 43 42 45 0 0
0.7271 3.7029 0.7762 -0.912 0.248 -0.327 50 48 51 0 0
0.8011 3.8307 0.7624 -0.806 0.588 -0.060 71 71 69 0 0
0.7013 1.9032 0.8999 -0.160 -0.607 -0.779 108 107 105 0 0
0.5080 2.2148 0.8967 -0.708 0.525 0.473 14 14 16 0 0
0.5382 2.5812 0.8723 -0.956 0.216 -0.200 24 24 26 0 0
0.5501 2.6390 0.8679 -0.908 -0.413 0.079 25 25 27 0 0
0.6762 3.2362 0.8220 -0.680 -0.696 -0.231 40 39 43 0 0
0.6965 3.5807 0.7997 -0.928 0.369 0.055 25 25 28 0 0
0.7282 3.6291 0.7943 -0.820 0.535 0.203 32 31 35 0 0
0.7322 3.6515 0.7926 -0.823 0.499 0.273 34 33 38 0 0
0.7427 3.6991 0.7889 -0.411 -0.576 -0.707 44 43 46 0 0
0.7234 3.6996 0.7905 -0.892 0.157 -0.423 52 51 53 0 0
0.7991 3.8291 0.7766 -0.804 0.595 -0.001 62 62 61 0 0
0.9939 1.7683 0.8970 -0.612 0.192 0.767 160 160 160 0 0
0.5279 2.2602 0.9046 -0.690 0.724 -0.025 16 16 18 0 0
0.5954 3.2352 0.8417 -0.850 -0.445 -0.283 31 31 33 0 0
0.6992 3.5835 0.8130 -0.912 0.391 0.121 27 27 29 0 0
0.7367 3.6373 0.8069 -0.820 0.535 0.203 33 33 35 0 0
0.7670 3.7794 0.7961 -0.819 0.573 0.023 56 56 57 0 0
0.8001 3.8303 0.7905 -0.805 0.592 0.030 58 58 58 0 0
1.0068 1.7616 0.9088 -0.710 0.129 0.692 160 160 160 0 0
1.0108 1.7787 0.9075 -0.658 -0.733 0.170 108 108 108 0 0
0.7736 1.7470 0.9277 -0.359 -0.898 -0.255 45 45 48 0 0
0.7155 1.8834 0.9242 -0.169 -0.936 -0.309 116 114 114 0 0
0.6813 1.8900 0.9265 -0.180 -0.836 -0.519 101 100 99 0 0
0.6648 1.8936 0.9275 -0.358 -0.723 -0.590 92 92 92 0 0
0.6503 1.8985 0.9284 -0.490 -0.766 -0.416 82 82 83 0 0
0.4974 2.2988 0.9169 -0.496 0.223 0.839 22 22 24 0 0
0.6999 3.5844 0.8265 -0.912 0.290 -0.291 29 27 31 0 0
0.7125 3.6335 0.8227 -0.971 -0.029 -0.236 34 34 36 0 0
0.8131 3.8430 0.8027 -0.819 0.572 0.039 55 55 55 0 0
1.0222 1.7711 0.9195 -0.609 -0.786 0.107 117 117 117 0 0
0.7314 1.8356 0.9379 -0.004 -0.589 -0.808 84 81 81 0 0
0.6378 1.9048 0.9410 -0.856 0.366 0.366 83 82 80 0 0
0.7451 3.6457 0.8332 -0.841 0.525 -0.129 33 31 34 0 0
0.6884 3.6111 0.8395 -0.834 0.543 0.094 35 35 37 0 0
0.8122 3.8425 0.8169 -0.822 0.569 0.023 55 55 55 0 0
1.0378 1.7660 0.9310 -0.367 -0.928 -0.063 151 149 151 0 0
0.5673 2.3517 0.9331 -0.788 0.616 0.001 17 17 19 0 0
0.6869 3.6099 0.8533 -0.853 0.513 0.092 36 35 38 0 0
0.8186 3.8489 0.8300 -0.832 0.555 0.027 60 60 59 0 0
0.7255 1.8902 0.9595 -0.519 -0.738 0.431 85 83 85 0 0
0.6977 3.3636 0.8798 -0.789 -0.124 0.602 25 25 27 0 0
0.7298 3.6319 0.8626 -0.821 0.509 -0.257 35 35 37 0 0
0.6985 3.3646 0.8932 -0.189 -0.978 -0.087 24 24 26 0 0
0.6983 3.3824 0.8922 -0.961 0.156 0.226 19 19 21 0 0
0.7208 3.6050 0.8785 -0.817 0.550 -0.175 31 32 35 0 0
0.6917 3.6150 0.8800 -0.879 0.476 0.035 36 36 38 0 0
0.6845 1.9365 0.9842 0.070 -0.377 -0.924 74 72 73 0 0
0.6974 3.3819 0.9058 -0.941 0.101 0.324 18 18 20 0 0
0.6757 3.5446 0.8986 -0.852 0.483 -0.201 34 31 36 0 0
0.7497 3.7265 0.8836 -0.933 0.334 -0.136 52 52 54 0 0
0.7010 3.5870 0.9082 -0.844 0.283 0.456 36 35 38 0 0
0.6894 3.6133 0.9076 -0.882 0.471 -0.026 36 36 38 0 0
0.7435 3.6831 0.9002 -0.998 0.055 0.024 42 42 44 0 0
0.7596 3.7362 0.8963 -0.914 0.260 -0.312 52 52 54 0 0
0.9024 4.0092 0.8720 -0.949 -0.256 0.182 166 166 166 0 0
0.6093 1.8281 1.0192 -0.990 0.132 0.050 63 61 65 0 0
0.7042 3.3885 0.9319 -0.937 0.235 0.260 18 18 20 0 0
0.6847 3.5535 0.9247 -0.537 -0.363 0.761 28 26 29 0 0
0.7244 3.6465 0.9172 -0.950 0.279 -0.138 37 37 39 0 0
0.7529 3.7301 0.9109 -0.914 0.260 -0.312 52 52 54 0 0
0.6876 3.3557 0.9482 -0.235 -0.969 -0.070 17 17 19 0 0
0.7079 3.3921 0.9450 -0.965 0.246 0.096 17 17 19 0 0
0.7204 3.6431 0.9313 -0.932 0.334 -0.143 38 37 42 0 0
0.7517 3.7293 0.9249 -0.969 0.245 0.031 53 53 55 0 0
0.7618 3.7578 0.9228 -0.902 0.423 0.090 49 49 51 0 0
0.8562 3.9062 0.9089 -0.803 0.596 0.014 65 66 67 0 0
0.5930 2.5140 1.0098 -0.451 -0.752 0.481 16 16 18 0 0
0.5910 2.5284 1.0092 0.400 -0.916 0.023 15 16 18 0 0
0.5599 2.6163 1.0069 -0.119 -0.141 -0.983 16 16 18 0 0
0.6944 3.3620 0.9608 -0.736 -0.602 0.311 19 19 21 0 0
0.6884 3.5760 0.9505 -0.818 0.576 -0.006 32 31 36 0 0
0.7123 3.6170 0.9469 -0.795 0.595 -0.119 35 35 40 0 0
0.7180 3.6411 0.9453 -0.935 0.289 -0.205 37 38 42 0 0
0.7601 3.7565 0.9368 -0.889 0.454 -0.057 48 49 51 0 0
0.8132 3.8457 0.9289 -0.816 0.578 -0.014 48 49 53 0 0
0.6993 3.3307 0.9755 0.199 -0.844 -0.498 27 27 29 0 0
0.7103 3.6341 0.9599 -0.938 0.229 -0.259 37 38 42 0 0
0.7190 3.6610 0.9580 -0.803 0.163 -0.573 44 45 49 0 0
0.7669 3.7824 0.9490 -0.837 0.544 -0.060 44 45 49 0 0
1.0213 1.7563 1.0447 -0.916 -0.393 0.081 76 74 77 0 0
0.6433 1.8801 1.0623 -0.717 -0.021 -0.697 17 17 19 0 0
0.5630 2.5387 1.0356 -0.278 -0.867 -0.415 19 18 21 0 0
0.7174 3.6224 0.9738 -0.796 0.605 0.024 35 36 40 0 0
0.7313 3.6729 0.9705 -0.591 -0.421 -0.688 43 44 48 0 0
0.7709 3.7865 0.9625 -0.838 0.519 -0.169 44 45 50 0 0
1.0222 1.7569 1.0570 -0.916 -0.393 0.081 79 77 80 0 0
0.6344 1.8742 1.0752 -0.730 0.005 -0.683 14 14 16 0 0
0.7707 3.6915 0.9810 0.039 -0.991 -0.126 38 39 43 0 0
0.7400 3.6815 0.9833 -0.360 -0.900 -0.244 43 44 48 0 0
0.7640 3.7802 0.9772 -0.838 0.519 -0.169 47 48 53 0 0
1.0240 1.7580 1.0693 -0.837 0.543 0.065 80 80 82 0 0
0.8149 3.6577 0.9937 0.175 -0.984 0.040 25 23 28 0 0
0.8004 3.6630 0.9944 -0.508 -0.833 0.218 28 29 33 0 0
0.7115 3.6548 1.0001 -0.855 -0.022 0.518 46 45 50 0 0
0.7464 3.7445 0.9938 -0.839 0.537 0.082 52 51 56 0 0
0.6886 3.3220 1.0303 -0.947 -0.117 0.299 19 20 22 0 0
0.7971 3.6039 1.0111 -0.984 0.087 0.155 16 16 18 0 0
0.7560 3.7541 1.0067 -0.837 0.513 0.191 50 51 55 0 0
0.8440 3.8961 0.9951 -0.826 0.560 0.057 65 65 64 0 0
1.0279 1.7605 1.0939 -0.957 0.239 0.165 78 78 80 0 0
0.5240 2.2899 1.0991 -0.322 -0.441 0.838 29 29 31 0 0
0.4888 2.2789 1.1016 -0.212 -0.140 0.967 31 31 33 0 0
0.8060 3.6499 1.0224 0.095 -0.983 -0.160 25 24 29 0 0
0.7703 3.7870 1.0183 -0.789 0.457 0.411 46 49 51 0 0
0.5821 1.8685 1.1265 -0.816 0.347 -0.462 14 14 16 0 0
0.5437 2.3824 1.1062 -0.494 0.180 0.851 47 47 50 0 0
0.5607 1.8397 1.1408 -0.941 -0.336 -0.035 25 23 26 0 0
0.5900 1.8884 1.1372 -0.765 0.326 -0.555 13 13 15 0 0
0.5492 2.2017 1.1260 -0.248 -0.966 -0.068 22 22 24 0 0
0.5249 2.2295 1.1261 -0.585 0.404 0.703 30 29 35 0 0
0.6926 3.3084 1.0709 -0.784 -0.543 0.301 21 21 23 0 0
0.5621 1.7976 1.1544 -0.824 -0.500 0.267 30 29 31 0 0
0.5563 1.8081 1.1543 -0.629 -0.764 0.144 31 29 32 0 0
0.5603 1.8395 1.1528 -0.941 -0.336 -0.035 27 25 28 0 0
0.6516 2.5608 1.1178 -0.436 0.079 0.897 17 17 19 0 0
0.7017 3.3167 1.0835 -0.938 0.264 0.223 21 21 23 0 0
0.7067 3.3392 1.0823 -0.913 0.349 0.211 20 20 22 0 0
0.5564 1.7939 1.1667 -0.794 -0.554 0.250 29 28 31 0 0
0.5595 1.8391 1.1647 -0.876 -0.450 0.175 30 28 31 0 0
0.5602 1.8540 1.1641 -0.970 -0.098 0.221 28 28 30 0 0
0.5078 2.1716 1.1538 -0.497 0.367 0.787 26 26 28 0 0
0.6984 2.7119 1.1219 -0.303 -0.490 0.818 14 14 16 0 0
0.7055 2.7506 1.1199 -0.601 -0.408 0.688 17 17 19 0 0
0.7161 3.3478 1.0949 -0.872 0.468 0.141 21 21 23 0 0
0.7790 3.6259 1.0803 -0.848 0.374 0.374 31 31 33 0 0
0.7867 3.8039 1.0726 -0.886 0.377 -0.269 60 61 65 0 0
1.0605 1.7512 1.1550 0.273 -0.962 0.008 166 165 166 0 0
0.5672 1.8011 1.1778 -0.592 -0.801 -0.083 40 39 42 0 0
0.5593 1.8679 1.1755 -0.937 -0.289 0.195 15 15 17 0 0
0.5792 2.2240 1.1603 -0.813 0.232 0.534 30 30 32 0 0
0.6045 2.2733 1.1570 -0.991 0.072 0.109 45 44 48 0 0
0.6816 2.5199 1.1433 -0.345 0.209 0.915 15 14 17 0 0
0.6832 2.5534 1.1418 -0.275 0.042 0.960 16 16 18 0 0
0.7434 2.7812 1.1297 -0.593 -0.777 0.213 20 20 22 0 0
0.7390 2.7944 1.1294 -0.857 -0.511 0.061 25 25 27 0 0
0.7300 2.8039 1.1295 -0.692 -0.642 0.330 23 23 25 0 0
0.7057 3.3028 1.1107 -0.843 -0.329 -0.426 20 21 23 0 0
0.7843 3.6310 1.0937 -0.837 0.391 0.383 29 30 33 0 0
0.7085 3.7103 1.0943 -0.910 0.414 -0.019 54 54 59 0 0
1.0622 1.7522 1.1674 0.230 -0.964 0.134 165 165 165 0 0
1.0255 1.7446 1.1694 0.166 -0.961 0.222 97 95 97 0 0
0.5553 1.8076 1.1900 -0.515 -0.849 -0.120 41 41 43 0 0
0.5828 2.2115 1.1729 -0.864 0.320 0.389 31 31 33 0 0
0.6162 2.2820 1.1685 -0.747 -0.301 -0.593 51 50 55 0 0
0.7610 2.6463 1.1471 -0.436 -0.286 0.853 18 18 20 0 0
0.7538 2.6571 1.1471 -0.436 -0.286 0.853 17 17 19 0 0
0.7499 2.6705 1.1467 -0.485 -0.581 0.653 18 18 20 0 0
0.7398 2.6791 1.1469 -0.485 -0.581 0.653 32 32 34 0 0
0.7385 2.6945 1.1464 -0.971 -0.100 0.215 20 20 22 0 0
0.7434 2.7149 1.1453 -0.982 0.112 0.154 23 23 25 0 0
0.7495 2.7363 1.1442 -0.979 0.171 0.110 23 23 25 0 0
0.7183 3.3322 1.1224 -0.860 0.415 0.297 20 21 23 0 0
0.8174 3.5684 1.1083 -0.914 0.373 -0.159 14 14 16 0 0
0.8289 3.5976 1.1066 -0.938 0.286 0.193 14 14 16 0 0
0.8067 3.5958 1.1078 0.169 -0.914 0.368 16 16 18 0 0
0.7858 3.6327 1.1074 -0.794 0.218 0.567 31 32 35 0 0
1.0689 1.7563 1.1794 0.169 -0.955 0.245 164 163 163 0 0
1.0338 1.7497 1.1813 0.150 -0.939 0.308 95 93 95 0 0
0.6801 1.7460 1.1983 -0.905 0.033 -0.425 18 16 19 0 0
0.6744 1.7567 1.1982 -0.824 0.074 -0.561 15 13 16 0 0
0.6327 1.7726 1.1995 -0.945 -0.153 -0.290 46 44 47 0 0
0.6244 1.7816 1.1996 -0.785 -0.616 0.064 47 45 48 0 0
0.5692 1.8026 1.2014 -0.462 -0.887 0.019 50 49 51 0 0
0.6111 2.2322 1.1830 -0.874 0.299 0.384 39 38 42 0 0
0.6226 2.2559 1.1816 -0.921 -0.280 0.272 48 47 52 0 0
0.7762 2.6582 1.1589 -0.436 -0.286 0.853 18 18 20 0 0
0.7689 2.6690 1.1588 -0.436 -0.286 0.853 19 19 21 0 0
0.7617 2.6799 1.1587 -0.436 -0.286 0.853 20 20 22 0 0
0.7523 2.6890 1.1588 -0.436 -0.372 0.819 25 25 27 0 0
0.7411 2.6967 1.1591 -0.971 -0.100 0.215 25 25 27 0 0
0.7981 2.8253 1.1515 -0.976 -0.002 -0.218 35 34 39 0 0
0.7059 3.3214 1.1369 -0.976 -0.070 -0.204 23 24 26 0 0
0.8117 3.5634 1.1226 -0.831 0.481 0.280 14 14 16 0 0
0.8270 3.5961 1.1206 -0.860 0.174 0.480 15 15 17 0 0
0.8195 3.6080 1.1205 0.084 -0.714 0.695 18 18 20 0 0
1.0886 1.7831 1.1900 0.116 -0.980 0.162 103 101 103 0 0
0.6824 1.7475 1.2101 -0.690 -0.252 -0.678 24 23 25 0 0
0.5820 1.7968 1.2129 -0.162 -0.986 -0.036 53 50 52 0 0
0.6196 2.2385 1.1947 -0.834 0.113 0.540 46 45 49 0 0
0.8108 2.6688 1.1698 -0.213 -0.193 0.958 20 21 23 0 0
0.7914 2.6702 1.1707 -0.436 -0.286 0.853 23 23 25 0 0
0.7815 2.7120 1.1696 -0.416 -0.100 0.904 37 37 39 0 0
0.7660 2.7164 1.1701 -0.074 -0.484 0.872 28 28 30 0 0
0.7487 2.7194 1.1708 -0.890 -0.056 0.453 26 26 28 0 0
0.8119 2.8535 1.1629 -0.939 -0.193 0.285 18 17 22 0 0
0.8253 3.5761 1.1353 -0.791 0.419 0.447 15 15 17 0 0
0.8320 3.6010 1.1341 -0.816 0.045 0.576 15 15 17 0 0
1.1246 1.7901 1.2007 0.164 -0.966 0.202 168 166 167 0 0
0.5427 1.8570 1.2244 -0.683 -0.519 0.514 19 19 21 0 0
0.6028 2.1351 1.2116 -0.849 -0.523 0.072 26 26 28 0 0
0.8422 2.6932 1.1806 -0.191 -0.194 0.962 27 28 30 0 0
0.8186 2.8930 1.1743 -0.804 -0.039 0.594 11 11 13 0 0
0.8305 3.5625 1.1495 -0.806 0.339 0.486 16 16 18 0 0
0.8306 3.5999 1.1481 -0.797 -0.165 0.581 15 15 17 0 0
0.8269 3.6153 1.1477 -0.087 -0.981 0.171 20 20 22 0 0
1.1306 1.7938 1.2130 0.161 -0.964 0.211 168 166 167 0 0
0.5960 2.1303 1.2243 -0.874 -0.410 -0.259 26 26 28 0 0
0.8373 3.5689 1.1628 -0.791 0.370 0.487 16 16 18 0 0
0.8480 3.5974 1.1613 -0.811 0.380 0.446 14 14 16 0 0
0.8497 3.6366 1.1598 -0.971 -0.232 -0.063 21 21 23 0 0
0.8500 3.6557 1.1592 -0.959 -0.280 -0.049 25 25 27 0 0
0.8506 3.6752 1.1584 -0.997 -0.031 0.065 28 28 30 0 0
0.6815 3.6296 1.1674 -0.949 -0.315 0.012 55 56 58 0 0
0.7986 3.8362 1.1550 -0.831 0.552 0.068 57 58 60 0 0
1.1313 1.7943 1.2256 0.088 -0.972 0.217 168 166 167 0 0
0.8513 3.5819 1.1756 -0.791 0.370 0.487 15 15 17 0 0
0.8559 3.6049 1.1746 -0.839 0.394 0.376 14 14 16 0 0
0.8570 3.6436 1.1733 -0.980 0.159 0.121 21 21 23 0 0
0.8582 3.6635 1.1725 -0.979 -0.162 0.122 24 24 26 0 0
0.6775 3.6261 1.1814 -0.809 -0.584 -0.066 57 58 60 0 0
0.8180 3.8552 1.1676 -0.828 0.560 -0.026 64 65 66 0 0
0.5875 1.8729 1.2578 -0.986 0.130 -0.101 45 44 48 0 0
0.9313 3.1779 1.1999 -0.886 0.264 0.382 39 39 41 0 0
0.7094 3.3256 1.2039 0.118 -0.698 0.707 26 27 29 0 0
0.8626 3.5925 1.1887 -0.859 0.385 0.338 15 15 17 0 0
0.8699 3.6179 1.1876 -0.924 0.248 0.290 14 15 17 0 0
0.8761 3.6425 1.1865 -0.914 0.343 0.216 16 16 18 0 0
0.8674 3.6534 1.1865 -0.710 -0.673 0.207 21 21 23 0 0
0.8577 3.6633 1.1865 -0.674 -0.710 0.204 24 24 26 0 0
0.8355 3.6616 1.1875 0.139 -0.989 0.058 29 30 32 0 0
0.6767 3.6256 1.1952 -0.809 -0.584 -0.066 56 57 59 0 0
0.6600 2.0703 1.2605 -0.188 -0.670 -0.718 28 28 30 0 0
0.9642 2.9077 1.2210 -0.822 -0.140 -0.552 23 23 25 0 0
0.7355 3.3491 1.2156 -0.050 -0.522 0.851 26 27 29 0 0
0.8863 3.6333 1.2004 -0.833 0.180 0.523 14 15 17 0 0
0.8576 3.6635 1.2005 0.114 -0.925 0.362 24 25 27 0 0
0.6748 3.6054 1.2096 -0.983 0.016 -0.184 46 47 49 0 0
0.6754 3.6247 1.2090 -0.579 -0.815 -0.027 57 58 60 0 0
0.9381 3.1840 1.2267 -0.944 0.330 -0.003 37 37 39 0 0
0.7704 3.3443 1.2280 -0.861 0.475 -0.181 26 27 29 0 0
0.7850 3.6340 1.2182 -0.430 -0.770 0.472 35 36 38 0 0
0.6722 3.6032 1.2235 -0.983 0.016 -0.184 49 50 52 0 0
0.6683 3.6181 1.2232 -0.985 0.135 -0.107 61 62 64 0 0
0.8722 2.9891 1.2488 -0.676 0.366 -0.640 12 12 14 0 0
0.8482 3.4871 1.2343 -0.770 0.632 0.086 30 31 33 0 0
0.7964 3.6261 1.2319 -0.427 -0.815 0.393 31 32 34 0 0
0.7843 3.6337 1.2321 -0.817 -0.562 0.129 35 36 39 0 0
0.6715 3.6028 1.2372 -0.990 -0.018 -0.141 49 50 52 0 0
0.6712 3.6212 1.2367 -0.670 -0.695 -0.260 64 64 66 0 0
0.6447 2.0300 1.2991 -0.846 0.457 0.273 40 39 44 0 0
0.6414 2.0426 1.2988 -0.387 -0.386 0.837 45 44 49 0 0
0.8402 3.4618 1.2492 -0.753 0.572 0.325 27 28 32 0 0
0.8237 3.6329 1.2446 0.239 -0.947 0.213 27 28 30 0 0
0.8007 3.6304 1.2455 -0.427 -0.815 0.393 31 32 36 0 0
0.7855 3.6351 1.2459 -0.817 -0.562 0.129 35 36 40 0 0
0.8073 3.6742 1.2440 -0.903 0.378 0.203 36 37 41 0 0
0.6890 3.6009 1.2504 -0.717 -0.679 -0.159 42 41 45 0 0
0.6796 3.6108 1.2504 -0.717 -0.679 -0.159 50 50 52 0 0
0.6683 3.6188 1.2505 -0.670 -0.695 -0.260 64 64 66 0 0
0.8159 3.8546 1.2382 -0.839 0.544 -0.007 51 52 54 0 0
0.5487 1.8328 1.3203 -0.718 -0.696 0.000 46 45 50 0 0
0.6354 1.9644 1.3135 -0.450 -0.581 -0.678 40 39 44 0 0
0.6338 1.9928 1.3127 -0.965 0.182 -0.186 42 41 46 0 0
0.9575 3.1475 1.2681 -0.213 -0.801 -0.559 18 18 20 0 0
0.7888 3.6195 1.2601 -0.693 -0.702 0.162 32 33 37 0 0
0.6845 3.6156 1.2638 -0.465 -0.862 0.200 52 52 54 0 0
0.7048 3.6535 1.2620 -0.802 0.591 -0.086 66 66 68 0 0
0.8178 3.8567 1.2522 -0.832 0.554 0.017 49 50 53 0 0
0.5563 1.8524 1.3314 -0.846 0.247 -0.473 45 44 49 0 0
0.7899 3.6021 1.2744 0.204 -0.932 -0.300 28 29 31 0 0
0.7730 3.6052 1.2749 -0.932 -0.356 0.066 32 33 37 0 0
0.7893 3.6391 1.2734 -0.874 0.344 0.342 36 37 41 0 0
0.7129 3.6052 1.2769 -0.398 -0.892 0.214 40 40 44 0 0
0.6995 3.6113 1.2771 -0.398 -0.892 0.214 44 43 48 0 0
0.6934 3.6242 1.2770 -0.121 -0.989 0.085 51 51 53 0 0
0.7069 3.6558 1.2757 -0.815 0.578 -0.027 67 67 69 0 0
0.8191 3.8583 1.2663 -0.832 0.554 0.017 49 50 52 0 0
0.6655 2.1656 1.3314 -0.667 0.469 0.578 31 31 36 0 0
0.9746 3.1443 1.2950 0.100 -0.958 -0.267 17 15 19 0 0
0.7816 3.5947 1.2888 0.200 -0.954 -0.222 29 30 32 0 0
0.7120 3.6046 1.2907 -0.824 -0.567 0.021 41 41 45 0 0
0.6876 3.6190 1.2911 -0.519 -0.838 0.169 52 53 54 0 0
0.7010 3.6504 1.2898 -0.819 0.574 -0.011 68 69 69 0 0
0.7364 3.7029 1.2872 -0.892 0.451 -0.029 71 72 73 0 0
0.7423 3.7465 1.2859 -0.995 -0.050 0.084 41 42 47 0 0
0.9722 3.1425 1.3088 0.165 -0.961 -0.224 18 18 20 0 0
0.8642 3.1408 1.3121 -0.390 -0.782 -0.485 15 16 18 0 0
0.7554 3.5894 1.3035 -0.862 0.035 0.505 34 35 39 0 0
0.6904 3.6219 1.3046 -0.465 -0.862 0.200 50 52 52 0 0
0.7017 3.6514 1.3035 -0.818 0.575 0.023 69 71 70 0 0
0.6913 2.1688 1.3553 -0.661 0.425 0.618 17 17 19 0 0
0.9733 2.9334 1.3278 -0.121 -0.803 0.584 29 29 31 0 0
0.7829 3.6340 1.3154 -0.982 -0.056 0.183 37 38 42 0 0
0.7058 3.6181 1.3180 -0.340 -0.940 0.013 47 48 50 0 0
0.7074 3.6571 1.3170 -0.862 0.506 -0.038 70 72 71 0 0
0.7745 1.8807 1.3726 0.155 -0.704 0.693 56 54 59 0 0
0.6948 2.1105 1.3691 -0.907 0.272 0.321 44 45 47 0 0
0.7627 3.6341 1.3299 -0.999 0.045 -0.018 38 39 43 0 0
0.7023 3.6151 1.3320 -0.981 0.036 -0.189 46 47 49 0 0
0.7073 3.6573 1.3308 -0.879 0.469 -0.081 72 74 73 0 0
0.8128 3.8533 1.3231 -0.840 0.538 -0.066 55 56 58 0 0
0.6944 2.0650 1.3826 -0.601 -0.051 0.798 41 40 45 0 0
0.6942 2.0800 1.3822 -0.615 -0.243 0.750 43 44 48 0 0
0.7060 2.1033 1.3814 -0.937 -0.097 0.336 38 39 43 0 0
0.6974 2.1125 1.3814 -0.888 0.279 0.367 29 30 35 0 0
0.6996 3.6127 1.3459 -0.981 0.036 -0.189 46 46 48 0 0
0.7046 3.6550 1.3447 -0.886 0.448 -0.121 74 76 74 0 0
0.7531 3.7770 1.3406 -0.910 0.398 0.118 46 47 50 0 0
0.8080 3.8490 1.3375 -0.843 0.538 0.027 52 52 54 0 0
0.8305 3.8901 1.3359 -0.857 0.515 -0.015 63 63 64 0 0
0.9457 4.1010 1.3279 -0.765 -0.530 0.366 171 171 171 0 0
0.7082 2.1049 1.3937 -0.993 0.114 0.007 25 26 30 0 0
0.7075 2.1196 1.3933 -0.877 0.318 0.360 22 22 26 0 0
0.7183 2.1424 1.3926 -0.816 0.439 0.376 22 22 25 0 0
0.7296 2.1656 1.3917 -0.731 0.364 0.577 45 45 47 0 0
0.7647 3.6366 1.3575 -0.995 -0.016 -0.101 38 39 43 0 0
0.7164 3.6853 1.3575 -0.905 0.387 -0.174 72 74 70 0 0
0.7499 3.7742 1.3547 -0.920 0.392 0.006 42 43 46 0 0
0.8097 3.8509 1.3515 -0.843 0.538 0.027 50 50 52 0 0
0.8417 3.9012 1.3496 -0.843 0.538 0.027 58 58 59 0 0
0.7234 2.1156 1.4055 -0.796 0.094 0.598 27 26 31 0 0
0.7361 2.1397 1.4046 -0.679 0.249 0.691 32 30 33 0 0
0.7494 3.7741 1.3687 -0.917 0.391 -0.080 41 41 45 0 0
0.7542 3.6273 1.3856 -0.751 0.656 0.068 38 38 43 0 0
0.7666 3.7908 1.3819 -0.854 0.515 -0.073 42 41 45 0 0
0.7642 3.7888 1.3961 -0.854 0.515 -0.073 50 49 53 0 0
1.0789 2.0647 1.4369 -0.522 -0.445 -0.728 168 167 165 0 0
0.8841 2.0889 1.4402 -0.431 0.188 0.883 79 79 77 0 0
0.8969 2.1130 1.4395 -0.430 0.172 0.887 76 75 73 0 0
0.7617 3.7867 1.4102 -0.854 0.515 -0.073 52 50 55 0 0
0.8329 3.8744 1.4071 -0.828 0.556 -0.073 62 61 65 0 0
1.0374 2.0838 1.4502 -0.345 -0.765 -0.544 138 137 135 0 0
1.0188 2.0869 1.4505 -0.224 -0.972 -0.068 93 92 90 0 0
0.8258 3.8679 1.4216 -0.829 0.551 -0.097 60 59 64 0 0
0.9712 2.1479 1.4630 -0.304 0.032 0.952 123 122 120 0 0
0.7367 3.7442 1.4393 -0.934 0.319 0.160 46 45 51 0 0
0.7457 3.7719 1.4387 -0.931 0.350 0.106 51 50 55 0 0
1.0103 2.1744 1.4748 -0.498 0.121 0.859 170 169 167 0 0
0.7486 3.7750 1.4526 -0.930 0.359 0.085 45 44 49 0 0
0.7397 3.7476 1.4671 -0.935 0.334 -0.119 40 41 46 0 0
0.7485 3.7752 1.4666 -0.940 0.341 -0.003 42 42 46 0 0
0.8064 3.8501 1.4646 -0.870 0.491 -0.038 46 46 51 0 0
0.8304 3.8926 1.4637 -0.884 0.464 -0.051 53 55 60 0 0
0.8223 2.5826 1.4970 -0.545 -0.684 0.485 14 13 18 0 0
0.7385 3.7468 1.4811 -0.926 0.344 -0.157 38 41 44 0 0
0.7581 3.7847 1.4803 -0.873 0.457 -0.170 39 41 45 0 0
0.8054 3.8494 1.4788 -0.870 0.491 -0.038 45 47 52 0 0
0.6591 3.1440 1.5041 -0.557 0.223 -0.800 30 31 33 0 0
0.7053 3.6023 1.4974 -0.451 -0.744 -0.493 42 43 47 0 0
0.7350 3.7437 1.4952 -0.926 0.344 -0.157 37 41 44 0 0
0.7449 3.7722 1.4947 -0.897 0.390 -0.208 40 44 47 0 0
0.7871 3.8321 1.4934 -0.874 0.472 -0.113 50 54 55 0 0
0.8328 3.8955 1.4920 -0.883 0.466 0.050 61 63 64 0 0
0.8584 3.9398 1.4911 -0.840 0.531 0.108 71 72 71 0 0
1.1273 2.5784 1.5201 -0.155 -0.798 -0.583 62 59 62 0 0
0.6946 3.5926 1.5114 -0.765 -0.556 -0.326 42 43 47 0 0
0.6872 3.6042 1.5113 -0.817 -0.510 -0.268 48 49 52 0 0
0.7315 3.7406 1.5092 -0.926 0.344 -0.157 46 48 51 0 0
0.7609 3.7879 1.5083 -0.864 0.483 -0.141 51 53 56 0 0
0.8776 4.0778 1.5035 -0.960 0.155 -0.235 172 172 170 0 0
1.1178 2.5717 1.5337 -0.476 -0.738 -0.479 57 54 57 0 0
1.0940 2.5710 1.5339 -0.574 -0.402 -0.714 61 59 62 0 0
0.6989 3.5968 1.5251 -0.583 -0.811 0.048 42 43 47 0 0
0.7233 3.7140 1.5235 -0.897 0.437 -0.074 54 53 56 0 0
0.7279 3.7375 1.5232 -0.926 0.344 -0.157 49 49 53 0 0
0.7563 3.7838 1.5224 -0.864 0.483 -0.141 49 50 54 0 0
0.7792 3.8250 1.5217 -0.862 0.473 -0.181 59 59 63 0 0
1.1255 2.5774 1.5470 -0.528 -0.758 -0.382 56 56 57 0 0
0.8908 2.8363 1.5458 -0.301 0.191 -0.934 24 24 25 0 0
0.7325 3.5725 1.5389 -0.994 0.108 0.010 37 38 42 0 0
0.7244 3.7344 1.5372 -0.926 0.344 -0.157 50 49 54 0 0
0.7375 3.7660 1.5368 -0.914 0.378 -0.146 51 51 56 0 0
0.7507 3.7979 1.5363 -0.914 0.378 -0.146 60 60 65 0 0
0.6417 3.1297 1.5576 -0.679 0.066 -0.731 30 30 32 0 0
0.7327 3.5729 1.5527 -0.994 0.108 0.010 37 38 42 0 0
0.6834 3.6202 1.5525 -0.916 0.373 0.147 59 61 59 0 0
0.6940 3.6490 1.5521 -0.940 0.314 0.134 79 81 79 0 0
0.7177 3.7093 1.5514 -0.930 0.364 0.049 51 50 55 0 0
0.7224 3.7327 1.5512 -0.952 0.300 -0.067 48 47 52 0 0
0.7519 3.7802 1.5505 -0.852 0.516 -0.091 51 51 56 0 0
0.7807 3.8270 1.5499 -0.846 0.520 -0.117 60 61 66 0 0
0.9093 2.9198 1.5716 -0.432 0.104 -0.896 16 15 21 0 0
0.7144 3.7064 1.5654 -0.945 0.304 0.120 47 46 51 0 0
0.7266 3.7370 1.5650 -0.885 0.448 -0.127 45 44 49 0 0
0.7555 3.7838 1.5645 -0.828 0.558 -0.044 47 47 52 0 0
0.7822 3.8288 1.5640 -0.836 0.544 -0.065 51 52 57 0 0
0.6159 3.1252 1.5843 -0.687 0.568 -0.453 30 31 33 0 0
0.6452 3.6032 1.5803 -0.935 -0.020 -0.353 79 80 82 0 0
0.6862 3.6609 1.5797 -0.934 -0.354 -0.044 62 61 66 0 0
0.7574 3.7860 1.5785 -0.814 0.572 -0.102 43 42 47 0 0
0.7872 3.8339 1.5780 -0.828 0.544 -0.139 47 48 53 0 0
1.1790 2.5333 1.6009 0.355 -0.924 0.143 78 83 81 0 0
1.1355 2.5189 1.6011 0.179 -0.887 -0.426 69 69 71 0 0
0.6283 3.1537 1.5973 -0.668 0.532 -0.520 31 32 34 0 0
0.7523 3.4805 1.5947 -0.466 0.093 -0.880 17 18 20 0 0
0.6425 3.6009 1.5940 -0.897 -0.040 -0.441 79 79 80 0 0
0.6816 3.6757 1.5934 -0.940 -0.272 -0.204 43 44 48 0 0
0.7444 3.7737 1.5926 -0.820 0.538 -0.195 41 41 46 0 0
0.7788 3.8260 1.5922 -0.820 0.538 -0.195 45 46 50 0 0
0.6762 2.6673 1.6136 -0.537 0.013 0.844 86 86 89 0 0
0.6645 2.6744 1.6136 -0.472 -0.193 0.860 90 90 90 0 0
0.7508 3.4794 1.6085 -0.577 0.235 -0.782 18 19 21 0 0
0.7963 3.8432 1.6062 -0.821 0.570 0.034 47 48 52 0 0
0.6873 3.6440 1.6213 -0.538 -0.815 -0.215 80 80 81 0 0
0.6834 3.6591 1.6212 -0.857 -0.479 -0.189 64 65 68 0 0
0.6873 3.7005 1.6210 -0.984 0.177 0.018 46 45 50 0 0
0.7505 3.7802 1.6206 -0.822 0.567 0.058 50 50 54 0 0
0.7987 3.8458 1.6203 -0.821 0.570 0.034 58 59 61 0 0
0.6883 3.6452 1.6351 -0.423 -0.878 -0.222 82 81 83 0 0
0.6813 3.6574 1.6350 -0.857 -0.479 -0.189 65 65 68 0 0
0.6886 3.7021 1.6349 -0.918 0.189 0.350 46 47 50 0 0
0.7536 3.7834 1.6347 -0.816 0.572 0.090 50 50 53 0 0
0.9528 4.1145 1.6337 -0.918 0.396 0.002 172 171 171 0 0
0.6256 3.0477 1.6508 -0.502 -0.108 -0.858 55 54 59 0 0
0.6838 3.6600 1.6489 -0.851 -0.392 0.350 61 62 64 0 0
0.6932 3.7068 1.6487 -0.903 0.170 0.395 48 49 51 0 0
0.7466 3.7770 1.6487 -0.824 0.531 0.198 52 53 55 0 0
0.7828 3.8311 1.6486 -0.832 0.555 -0.019 62 62 64 0 0
0.6416 2.9754 1.6643 -0.555 -0.673 -0.489 41 40 44 0 0
0.6172 3.1101 1.6638 -0.379 -0.019 -0.925 38 39 41 0 0
0.6925 3.6497 1.6628 -0.633 -0.697 0.337 78 77 79 0 0
0.6882 3.6644 1.6627 -0.890 -0.286 0.356 55 56 59 0 0
0.6978 3.7114 1.6626 -0.824 0.139 0.550 48 49 52 0 0
0.7684 3.8175 1.6627 -0.853 0.521 -0.031 60 60 62 0 0
0.6421 2.9760 1.6774 -0.923 -0.383 0.046 41 39 45 0 0
0.5966 3.0403 1.6770 -0.630 -0.776 0.025 52 51 56 0 0
0.5848 3.0474 1.6769 -0.823 -0.525 -0.215 60 60 64 0 0
0.7309 3.6109 1.6769 -0.646 -0.763 0.012 40 41 45 0 0
0.6959 3.6532 1.6766 -0.633 -0.697 0.337 71 70 72 0 0
0.6934 3.6697 1.6766 -0.955 -0.200 0.219 51 51 55 0 0
0.6963 3.6914 1.6766 -0.986 0.104 0.128 47 47 51 0 0
0.7031 3.7168 1.6766 -0.922 0.158 0.354 45 46 50 0 0
0.7579 3.7884 1.6768 -0.842 0.527 0.111 45 46 49 0 0
0.6906 2.7959 1.6911 -0.310 -0.151 0.938 14 15 17 0 0
0.5669 3.0840 1.6899 -0.730 -0.567 0.382 54 55 57 0 0
0.7308 3.6112 1.6908 -0.646 -0.763 0.012 39 40 44 0 0
0.6957 3.6532 1.6905 -0.974 -0.223 0.025 64 64 65 0 0
0.6922 3.6689 1.6904 -0.980 -0.176 0.089 48 47 51 0 0
0.6989 3.6941 1.6905 -0.990 0.134 0.038 43 42 47 0 0
0.7060 3.7198 1.6905 -0.974 0.202 -0.104 44 43 48 0 0
0.7653 3.7959 1.6909 -0.851 0.522 0.052 43 42 47 0 0
0.7758 3.8252 1.6910 -0.859 0.460 -0.226 46 45 50 0 0
0.6467 2.9631 1.7038 -0.842 -0.256 0.474 64 64 70 0 0
0.5527 3.1414 1.7029 -0.037 -0.692 0.721 36 37 41 0 0
0.5351 3.1432 1.7027 -0.013 -0.888 0.460 33 34 36 0 0
0.6977 3.6933 1.7043 -0.964 0.176 -0.197 40 39 44 0 0
0.7208 3.7343 1.7046 -0.898 0.374 -0.232 40 39 44 0 0
0.7553 3.8057 1.7049 -0.873 0.423 -0.242 43 42 47 0 0
0.6471 3.0325 1.7170 -0.621 -0.105 0.777 77 76 76 0 0
0.7238 3.6052 1.7184 -0.768 -0.253 -0.588 38 39 43 0 0
0.7483 3.7993 1.7189 -0.873 0.423 -0.242 43 42 47 0 0
0.8046 3.8924 1.7196 -0.901 0.393 -0.185 61 61 63 0 0
0.8174 3.9244 1.7198 -0.872 0.483 -0.077 65 67 67 0 0
0.7748 2.5815 1.7309 -0.333 -0.706 0.625 37 36 41 0 0
0.6644 3.0301 1.7304 -0.592 -0.149 0.792 46 44 49 0 0
0.6570 3.0412 1.7304 -0.658 -0.121 0.743 59 57 59 0 0
0.5982 3.1821 1.7299 -0.998 -0.040 -0.053 44 44 49 0 0
0.5976 3.1992 1.7299 -0.984 -0.169 0.047 47 48 51 0 0
0.5791 3.2004 1.7297 0.020 -0.946 0.325 48 49 52 0 0
0.5628 3.2211 1.7296 0.303 -0.866 -0.397 33 33 38 0 0
0.6919 3.7072 1.7321 -0.808 0.241 -0.537 45 44 49 0 0
0.8062 3.8943 1.7338 -0.896 0.439 0.061 72 72 73 0 0
1.0801 2.6126 1.7481 -0.309 -0.220 -0.925 44 43 48 0 0
0.6741 3.0386 1.7438 -0.866 -0.300 0.401 24 22 27 0 0
0.6613 3.0623 1.7437 0.001 -0.911 0.412 40 37 37 0 0
0.6499 3.0699 1.7436 -0.070 -0.967 0.243 51 49 50 0 0
0.5885 3.1562 1.7430 -0.864 -0.427 0.265 47 46 50 0 0
0.5914 3.2116 1.7432 -0.893 -0.220 -0.392 48 48 52 0 0
0.6312 3.5190 1.7446 -0.881 0.283 -0.379 39 40 44 0 0
0.6817 3.6788 1.7458 -0.904 0.140 -0.404 45 44 49 0 0
0.6927 3.7083 1.7460 -0.847 0.364 -0.388 48 47 52 0 0
0.7169 3.7505 1.7465 -0.888 0.394 -0.235 60 59 63 0 0
0.7728 3.8622 1.7475 -0.838 0.512 0.189 80 80 80 0 0
1.1604 2.5214 1.7624 -0.627 -0.776 0.059 57 57 59 0 0
1.1515 2.5648 1.7624 -0.420 -0.875 -0.241 44 43 48 0 0
0.6364 2.9552 1.7562 -0.554 0.292 -0.780 14 15 18 0 0
0.6566 3.0586 1.7569 -0.122 -0.966 -0.230 24 25 29 0 0
0.5949 3.1445 1.7563 -0.850 -0.504 -0.154 67 68 70 0 0
0.5902 3.1579 1.7563 -0.870 -0.269 -0.413 62 63 65 0 0
0.5746 3.1969 1.7562 -0.932 -0.184 -0.313 46 46 51 0 0
0.5603 3.2017 1.7560 -0.842 -0.494 0.217 49 48 53 0 0
0.5525 3.2124 1.7559 -0.753 -0.469 0.461 50 49 54 0 0
0.6243 3.5128 1.7582 -0.910 0.286 -0.300 39 40 44 0 0
0.6332 3.5397 1.7584 -0.893 0.396 -0.213 39 40 43 0 0
0.6755 3.6731 1.7595 -0.934 0.117 -0.339 48 47 52 0 0
0.6820 3.6983 1.7597 -0.870 0.368 -0.328 48 47 52 0 0
0.7112 3.7453 1.7603 -0.922 0.383 -0.052 53 52 56 0 0
1.1507 2.5643 1.7759 -0.455 -0.843 -0.286 50 49 55 0 0
1.1580 2.5862 1.7761 -0.913 -0.252 0.321 62 60 66 0 0
0.5958 2.8032 1.7680 -0.312 -0.004 -0.950 37 38 42 0 0
0.6000 2.8402 1.7682 -0.315 -0.143 -0.938 28 29 31 0 0
0.5941 2.8521 1.7682 -0.351 -0.148 -0.925 16 17 19 0 0
0.6020 2.9434 1.7687 -0.608 0.299 -0.735 13 14 18 0 0
0.6428 3.0643 1.7700 -0.380 -0.309 -0.872 18 21 24 0 0
0.5955 3.1453 1.7696 -0.816 -0.367 -0.446 67 68 70 0 0
0.5894 3.1574 1.7696 -0.658 -0.379 -0.650 67 68 70 0 0
0.5769 3.1639 1.7694 -0.694 -0.145 -0.705 66 67 70 0 0
0.5632 3.1869 1.7693 -0.968 -0.094 -0.234 63 63 67 0 0
0.5616 3.2031 1.7693 -0.968 -0.094 -0.234 49 48 53 0 0
0.5467 3.2074 1.7691 -0.853 -0.048 0.520 48 47 52 0 0
0.6336 3.4849 1.7718 -0.509 -0.711 0.485 39 40 44 0 0
0.6181 3.5073 1.7717 -0.908 0.357 -0.217 41 41 45 0 0
0.6763 3.6931 1.7735 -0.897 0.388 -0.212 52 51 56 0 0
0.7070 3.7415 1.7742 -0.918 0.394 -0.032 56 55 59 0 0
