ply
format ascii 1.0
element vertex 732
property float x
property float y
property float z
property uchar diffuse_red
property uchar diffuse_green
property uchar diffuse_blue
end_header
1.8348362550756077 3.561665533265353 1.3472054199855907 33 31 34
1.8208001089324974 3.5556281266047614 1.3520611603336463 28 28 30
1.82344908193861 3.530586133222278 1.3512305704567584 26 27 29
1.8973866189755144 3.4248383446657007 1.3261030446869486 30 31 33
1.881975307764277 3.4206503809431767 1.3314265168190187 30 31 33
1.8796423874261707 3.4016940698403917 1.33229242078699 31 32 34
1.8555875989112782 3.4071706016072225 1.3405622032926998 35 36 39
1.8327408625159616 3.411190144583945 1.34842054410328 37 38 42
1.797268134737985 3.4291906628702327 1.3605831659605785 37 38 42
1.791302892878675 3.414211863391014 1.3626874977608034 35 36 40
1.8165527902102858 3.364685897620908 1.3541503307510947 32 33 35
1.853849608361044 3.3021146694435046 1.341505326320703 27 28 30
1.8774458268785708 3.2549599536368685 1.3335301387718272 24 25 27
1.8971430190501906 3.2123216040820886 1.3268835022638463 23 23 25
1.912722444067712 3.174395481778796 1.321640138862103 23 23 25
1.8875038338953525 3.181102769278369 1.3303068655766244 25 25 27
1.8574176351162122 3.192984054098379 1.3406336921494166 26 26 28
1.7690244992481357 3.2678335840364667 1.3708429567071516 15 15 17
1.6888649753987959 3.3332400757944876 1.39824639825809 16 16 18
1.5714859387212652 3.438172417640513 1.4383437415806812 16 16 18
1.4295965067446341 3.568617042006726 1.486802172530007 20 20 22
1.4039390582353115 3.5739608988338194 1.4956245633688365 22 22 24
1.335363398137154 3.624896479059715 1.5190843797618723 21 21 23
1.364793202904124 3.571408829785144 1.5091200701791614 21 21 23
1.4173960897021183 3.4936845535719776 1.4912512440613928 23 23 25
1.416513208191798 3.472790481768636 1.4916239090301902 26 26 28
1.398601054639234 3.4698568262729164 1.4978048994549944 25 25 27
1.3801644982171621 3.467418860270042 1.5041649407241522 20 20 22
1.3613256953038815 3.4653438995458337 1.510662380487313 13 13 15
1.3590243894842995 3.4460006040854454 1.5115186604774178 12 12 14
1.350161308843505 3.4335168928459767 1.514613223306908 12 12 14
1.400485559667853 3.3598554554865787 1.4975161524420697 12 12 14
1.6933401131136017 2.975882622214765 1.3978758014544073 11 11 13
1.6750361482672458 2.974350602811833 1.404187190938353 11 11 13
1.6617009702570806 2.9677237873757774 1.4088033545831111 12 12 14
1.633769069781931 2.9758180963466137 1.4184003605140143 19 19 21
1.6310376338681465 2.958415381306313 1.4193984753527322 30 30 32
1.6205765482769547 2.948815675109259 1.4230341554456816 34 33 36
1.6190914178873852 2.930231305219656 1.4236067465143956 36 35 40
1.6163476044044258 2.912955113533275 1.424608711183507 37 36 42
1.6393126039477197 2.870175369917457 1.4168366619918522 37 36 41
1.7187115166762685 2.771711017405291 1.389803626013115 33 33 36
1.7169914422277026 2.75390900940064 1.3904545994738313 29 29 31
1.7173405632934657 2.7341206005397023 1.3903991718090323 32 32 34
1.7129169631064605 2.719075842292505 1.3919725692895848 32 32 34
1.7070765982229394 2.705447723390251 1.394029449632936 31 31 33
1.7284702427626446 2.6653078788024867 1.3867901359115689 31 31 33
1.644941950791398 2.7272543825200186 1.4153655783392565 29 29 31
1.630841495752379 2.721526969985449 1.4202424593807668 25 25 27
1.5799671650664213 2.751245767580696 1.4376730754201503 22 22 24
1.5386563866472796 2.771505329195112 1.451839709726108 19 19 21
1.4743317939800014 2.8136188446883095 1.4738637964076924 15 15 17
1.459910856945608 2.807717737227443 1.478851664208067 12 12 14
1.4768311195334016 2.771947502640921 1.4731392685013682 11 11 13
1.3517093385746062 2.87113080991551 1.5159231057836458 10 11 13
1.317777767338438 2.883343790249538 1.527573713079191 11 12 14
1.3646765236061178 2.819209087274373 1.5116256230750347 11 12 14
1.3424772305240225 2.8203490594985023 1.5192703344512433 12 12 14
1.1700550982559554 2.9620900332035456 1.5782113447980077 12 12 14
1.151301790763574 2.959394567334974 1.5846813620620737 13 13 15
1.1694283966691286 2.9223357588883534 1.578557561419396 16 17 19
1.1731562983656763 2.898800385471387 1.5773503041718884 20 21 26
1.1863287995247849 2.8666203633977716 1.5729173788420514 20 21 28
1.2012518349476562 2.8329688744300756 1.5678861548363663 22 24 27
1.2544165264274585 2.764360181714928 1.5497938904388542 28 30 33
1.204892345462715 2.7900969260304187 1.5667723830544034 30 30 34
1.1785515698877846 2.7944496431270434 1.575833452905778 40 39 43
1.2648473966343217 2.6963177574361916 1.546423094569811 54 53 57
1.2102348028342722 2.726423711042737 1.5651404065727548 62 61 66
1.1654734383537484 2.7473647633842018 1.580493657155537 60 59 64
1.1215716371717752 2.767322867606752 1.5955539791826951 57 56 60
1.0946937223090971 2.7718071468594574 1.604799681464531 48 47 50
1.074152821516458 2.770524725064469 1.6118809570455208 44 44 46
1.27579646083236 2.571196816945811 1.5430608386096223 40 40 42
1.2576180238231318 2.568346551310178 1.5493332998634761 37 37 39
1.2295586455004077 2.5741919595411153 1.5589815972824335 31 31 33
1.2118763545639009 2.570773872212101 1.5650849795805342 26 26 28
1.1954258125132247 2.5662254844797214 1.570767685073932 32 32 34
1.1533126802352625 2.5841276579202463 1.5852184852769629 39 38 43
1.111856346615308 2.601267100470207 1.5994454948024321 45 44 49
1.0738670302532773 2.6152038617388818 1.6124884901808352 45 47 49
1.0499257836007645 2.6167878747463256 1.6207319112919647 57 60 61
1.0238277816877803 2.620155317622861 1.62971256622412 66 68 67
0.9903995416415432 2.629747061985535 1.641198349149559 79 82 81
0.9716946496949028 2.6265552904172305 1.6476533121864074 75 79 78
0.9466012434370605 2.628782706619205 1.6562915845757933 68 70 69
0.9067188935158377 2.6435433028967745 1.6699840973451343 99 101 100
0.8468329465198283 2.6751463634258563 1.6905133606655838 162 162 162
0.776282550772436 2.7155060733513143 1.7146882065393876 174 174 174
0.7573788119929181 2.711890623985249 1.7212130680113362 174 174 172
0.6612929864136357 2.7732141504534535 1.7541170701477162 174 174 172
0.5699733406124674 2.830054652940364 1.7853936466998586 175 175 173
1.8303254172920222 3.9833063097970487 1.3637887300294693 171 171 173
1.9082555318155001 3.865396298095966 1.3370797665079996 171 171 171
1.8454059269222427 3.918186520919382 1.3587076922406667 171 171 169
1.7928272688190359 3.958195391312713 1.3768097531687995 165 165 165
1.7351027224886635 4.004041309603247 1.3966794937130294 128 128 128
1.6825521609536112 4.043325939440362 1.414773335231094 78 80 80
1.638204332768252 4.072502739817461 1.4300510927347378 61 64 66
1.6447898001979995 4.04091344199573 1.4278387882976444 47 50 54
1.8298120986227848 3.7982019578371613 1.3643491434725397 44 44 49
1.8085894969893201 3.8003859555816213 1.3716846597544134 40 39 45
1.8017928684144606 3.7855161700332456 1.3740660941028047 36 37 41
1.8019017945199376 3.762576368068702 1.3740758706234202 32 33 37
1.79864564439238 3.7436467850219843 1.3752411950912073 34 33 38
1.7647931385721574 3.760401803852492 1.3869147416640042 35 34 38
1.754153663262395 3.7500295252897224 1.3906159573954766 34 34 36
1.7217092145489046 3.764880469520457 1.4018064528148757 27 27 30
1.8858173266748959 3.552904254150304 1.3454865993481133 25 25 27
1.8400299950151002 3.583496331038062 1.3612592950732663 23 21 24
1.8062780192712433 3.6000292052840686 1.3728985318790337 20 19 22
1.7798237477412375 3.6080496869993235 1.3820313973299885 17 18 20
1.7862432712866514 3.578532738315964 1.3798721995937293 20 21 23
1.874120912457499 3.4567353646813945 1.3497308324319621 24 25 27
1.8621827901664956 3.4485214643307103 1.3538767327974437 26 27 29
1.8813451449945928 3.40524348415423 1.347338772470382 28 29 31
1.862922864511634 3.404395478812434 1.3537120432104826 33 34 37
1.835966622732126 3.4130373649006205 1.3630172343930211 36 37 41
1.8046081788170745 3.4264649130971665 1.3738350691837529 37 38 42
1.7986464924906713 3.411487870613633 1.3759279528606456 36 37 41
1.8186411326505871 3.3677647797451016 1.369103059611902 34 35 37
1.8526258739169807 3.308800442469055 1.3574710856643868 29 30 32
1.85933845028817 3.28018772116508 1.3552086625474513 24 25 27
1.8895570396867698 3.2258913341296864 1.344869591799581 23 23 25
1.8790101835711366 3.2164825220383566 1.348536781449641 21 21 23
1.8519200667806772 3.225106884997937 1.3578883107928321 20 20 22
1.748538915214493 3.316527158894253 1.3934545441566983 18 18 20
1.7188979356596477 3.327392756406788 1.403683677201475 15 15 17
1.6692398975243734 3.3597310982902515 1.4207914806410926 15 15 17
1.5623426409807977 3.453390163511409 1.457569160738466 15 15 17
1.4155545892924946 3.589155019962683 1.5080563492406995 19 19 21
1.4149143079298367 3.567697086088198 1.5083221809613245 22 22 24
1.3609809312929122 3.6030999302427844 1.5269023111613156 22 22 24
1.3480487659653106 3.5946461481541574 1.5313925067184042 21 21 23
1.4077671439230106 3.5092589706679105 1.5109149697588837 22 22 24
1.410238524708581 3.484766692082098 1.5101108806074799 25 25 27
1.396414289822819 3.4775011075591378 1.5149071489845165 26 26 28
1.3811805707181763 3.4716877812345777 1.5201878966504685 21 21 23
1.373616635049773 3.457825677002251 1.5228326269496377 15 15 17
1.3680807924294742 3.4418693456224956 1.524780254229543 13 13 15
1.3736104178739432 3.414458579834048 1.522924479496176 13 13 15
1.4413639798339388 3.322777526258813 1.4996809180819017 13 13 15
1.7362085301546744 2.9369884093337664 1.3985041757560612 11 11 13
1.7024211912094982 2.951349353850763 1.410160135761565 11 11 13
1.6818015628214484 2.9521906481616638 1.417289885452757 13 13 15
1.6571005664603953 2.9570843836254257 1.4258228319034405 18 18 20
1.64011800071743 2.9540992792665817 1.4317025844010915 29 29 31
1.6408887322120023 2.933233376708479 1.4314791796469457 35 35 37
1.6409270464959291 2.91316900588611 1.4315074302619755 36 35 40
1.6270581380395883 2.9070446683739823 1.4363167888060113 37 36 42
1.6527013431074966 2.8615956845503536 1.4275418568643894 38 37 42
1.671572901450215 2.8230894229912353 1.4210946011827492 36 36 39
1.6862069933348498 2.7889547772541627 1.4161038701765434 30 30 32
1.7147769696045223 2.741253284208586 1.4063213464322672 31 31 33
1.652115982812481 2.783342316780152 1.4279061716238337 30 30 32
1.6603662684258187 2.7557156543706185 1.4251098778887048 30 30 32
1.7102988473376208 2.687560075936645 1.407981207811273 30 30 32
1.673978398309444 2.7036106357661867 1.4205097725805458 30 30 32
1.6519514091675678 2.705642949573727 1.4281238074973768 27 27 29
1.6353735215930487 2.7023335119576783 1.4338642691586385 23 23 25
1.5802274296952892 2.7360916392318053 1.4528672301870933 21 21 23
1.5196566111622662 2.7747624573527663 1.4737362216610728 18 18 20
1.4806862346096845 2.792461228599994 1.4871778792319739 14 14 16
1.4869453623912636 2.7668800009008914 1.485066015052995 11 12 14
1.4749304818781135 2.758752287668403 1.4892382846890737 11 12 14
1.438104067114852 2.774093824666346 1.5019433089757805 11 12 14
1.4530905914686971 2.7403848126048747 1.4968298055308882 11 12 14
1.4161508360165125 2.755654433728796 1.5095741785005656 12 12 14
1.663888059305712 2.503959967313998 1.4244125755916075 12 12 14
1.6175757063366945 2.5285261840557696 1.4403793189452652 15 15 17
1.1374003566230646 2.9567913456987203 1.6055665791969154 19 21 23
1.1594246735922449 2.9161550560745884 1.5980333185192528 22 25 29
1.16230595410531 2.893419721982729 1.5970838276067225 26 29 35
1.2112964752701825 2.8282590328923387 1.580274782193078 28 32 34
1.3044122070009232 2.7229170354879884 1.5482877358202864 45 45 46
1.253689228183726 2.749916449499069 1.5657749021358838 63 62 64
1.3522098397335345 2.6404540604117566 1.5319270506991411 74 72 74
1.2890594504938755 2.6787127787890306 1.553689063048232 75 73 74
1.2330778573263652 2.7101491990101 1.5729857922594062 73 72 72
1.179745247777364 2.7389136937281124 1.5913718726196762 70 69 70
1.1283449503340193 2.765676777854749 1.6090937847030542 62 61 62
1.120609662420651 2.7529943210815784 1.6117953387354662 60 59 61
1.0909614115468014 2.7599300806258156 1.622035115271091 61 60 62
1.073188843353939 2.7561583682939417 1.6281897245005579 59 58 60
1.2700559836869116 2.5615722513490935 1.5605038866847196 51 50 53
1.2408072925903801 2.568506155763745 1.5706054756000762 43 43 45
1.2182143798862914 2.569448081105916 1.5784174958376354 43 43 45
1.1899264613990717 2.575325282219651 1.5881889783570182 46 46 48
1.1469202108003125 2.594001974991409 1.6030244576527912 44 44 48
1.1022409401218942 2.6139467478540057 1.618435943522468 45 45 50
1.0767480058373704 2.616972793983747 1.6272466522593976 46 47 50
1.0489143147379993 2.6219402154942317 1.6368629178461522 63 64 65
1.0178802553841693 2.6295730711972523 1.647580547204715 77 78 77
1.0029228674750381 2.623216658692664 1.6527668465036158 81 83 82
0.983135724307548 2.6209829184406463 1.6596150339819133 73 75 74
0.9591961096132107 2.6222501884783562 1.6678921506459108 62 65 64
0.9265592607088753 2.6308642366346477 1.6791620901081572 80 82 81
0.8747111649247181 2.655699850620073 1.6970428642620603 142 142 142
0.8028042275370753 2.697313044708142 1.7218264715270584 172 172 172
0.7204654370227754 2.74739541644946 1.7502005140253394 175 175 173
0.6588990828543704 2.779566461734656 1.7714272651350003 175 175 173
0.6010887772219848 2.8082939494311345 1.7913620747922145 175 175 173
1.8368684712788332 3.9815346218113126 1.3779427573356795 172 172 174
1.9173530370181444 3.860440916490052 1.3501037523328 171 171 171
1.847545503980274 3.921712096788335 1.3742872141390028 171 171 169
1.798459793885815 3.9575460778166835 1.3912982262997982 167 167 166
1.7467055131656295 3.996275320088312 1.409233238134582 138 138 138
1.691410841214031 4.0389131067210755 1.4283940619876063 83 85 84
1.688114037021018 4.019175329526208 1.4295556024125302 69 71 73
1.6640687648032295 4.024159491758404 1.437899457204757 54 56 61
1.8452521998049705 3.7858543878956743 1.3752000323978157 47 47 52
1.8175577697798926 3.7957339999385047 1.3848066140640896 42 41 47
1.804303897594493 3.7884776997888503 1.3894143748726606 37 38 42
1.783212131444374 3.7903927813274665 1.3967354541776758 32 33 37
1.7707109960979661 3.782176703557322 1.4010827006884934 31 30 35
1.7824413305914832 3.74569817971578 1.3970414295770714 30 29 34
1.8028168994102491 3.699343123261113 1.3900071496331154 26 26 28
1.809403144208565 3.6691875548631 1.3877463964243975 22 22 24
1.7979200716609485 3.660012634384943 1.391741010913633 22 22 24
1.8036130867071303 3.6310678325365195 1.3897893334426126 22 21 24
1.7911716722045872 3.6230337693557066 1.394115689592776 20 19 21
1.8054939783598327 3.5843953194342815 1.3891763815309117 16 17 19
1.83621932395159 3.527255225471948 1.378558082789985 23 24 26
1.8599218337005405 3.4783922172961956 1.3703708950877513 26 27 29
1.932122041051835 3.3749003003994806 1.3453929772415671 27 28 30
1.9314907774838432 3.3541616703737995 1.3456299438063848 28 29 31
1.8879829549246305 3.381690020032085 1.3607115323285144 33 34 37
1.8624144143255372 3.3888679034016143 1.3695823584089921 36 37 41
1.8238439806516458 3.410449399582594 1.3829548693924942 37 38 42
1.8036193215801977 3.411398180735964 1.3899757324844813 36 37 41
1.8108512886673682 3.3818081807310225 1.3874903093629878 33 34 37
1.8330718462779783 3.3357673012252333 1.3798152091886435 28 29 31
1.8466982302686965 3.2994310709740033 1.375115537932295 24 25 27
1.8618805378752163 3.2615543500092836 1.369876997282792 23 24 26
1.87569838748195 3.2253508841934835 1.3651107382683203 20 20 22
1.8221300770555318 3.2628598983265182 1.3836765995863902 18 18 20
1.7259784376542289 3.346375833682388 1.4169872181257888 16 16 18
1.6789662970159713 3.3759956586149302 1.4332836544117311 16 16 18
1.6331544747281224 3.404053439144599 1.4491647002555816 15 15 17
1.551516020392948 3.4704457339555144 1.4774512723941893 16 16 18
1.3955395376882418 3.616138970320125 1.5314787450290284 18 18 20
1.3952317610987885 3.594228612303004 1.5316044079062514 21 21 23
1.5037324170189612 3.456338992046878 1.4940530829168521 22 22 24
1.3632049077148722 3.5840092430440142 1.5427323904320627 21 21 23
1.3701949357313672 3.5544658657555632 1.5403309246579688 22 22 24
1.4139361081137827 3.4862306458543637 1.5252032634571653 25 25 27
1.3919538069598116 3.4875509102395483 1.532834032833433 25 25 27
1.3812947308807193 3.47690967460259 1.5365438276336199 22 22 24
1.3696834043695676 3.467260908557825 1.5405833765911203 16 16 18
1.3704144281997344 3.444738244870225 1.54034891021091 14 14 16
1.371893708697058 3.4215129853615927 1.5398552642128207 13 13 15
1.4421622567110763 3.3271404298630562 1.5155401595039013 13 13 15
1.7549225982710732 2.92271529661876 1.4073019381790113 12 12 14
1.7752811767917225 2.8819936511586937 1.400268721293246 12 12 14
1.698856682652397 2.9397244435832484 1.4267525250118491 12 12 14
1.6611765344228917 2.9578045252071536 1.4398189487586617 15 15 17
1.6486722717167346 2.950306790659683 1.4441666644152626 28 28 30
1.6435908692479 2.9353280351870703 1.445943703634523 32 32 34
1.6744033018370854 2.8844169259184915 1.4352898227441886 33 32 37
1.6486006107824709 2.89030796613776 1.4442430467323115 36 35 41
1.6615682842416493 2.857503001135277 1.4397690379902464 38 37 42
1.6850873134935218 2.8143779249002647 1.4316406263547918 41 41 44
1.7052594405225627 2.7747776883734225 1.424671179825309 34 34 36
1.7268117695134806 2.7340099285873762 1.4172235514909077 30 30 32
1.7470271504362176 2.694756179488176 1.4102387904790505 29 29 31
1.7590776528498224 2.663687387882339 1.4060817185006274 29 29 31
1.6569287249187097 2.7441944971685754 1.4414770822751517 30 30 32
1.6408869722503567 2.7403560019456394 1.4470498166784194 29 29 31
1.5949612626561736 2.7654445746340035 1.4629729511279654 27 27 29
1.645898483915098 2.6967100511461926 1.4453473656768976 25 25 27
1.5942111111684145 2.7271902666161782 1.4632662290723522 24 24 26
1.5642813826449848 2.736517771961993 1.4736493444823624 21 21 23
1.5041142025131373 2.774643327653025 1.4945056983758171 15 15 17
1.4917208811915144 2.7668951850389027 1.4988151119110227 12 13 15
1.5127944974793808 2.7273226976801834 1.4915326589377564 11 12 14
1.4737897650272902 2.74485147197014 1.5050594303400968 11 12 14
1.4680536719014543 2.730786145742587 1.5070629835792368 12 12 14
1.4664240657811483 2.7128803906642727 1.5076441269491159 14 14 16
1.6357499314598973 2.5346848017473227 1.4490098623841665 15 15 17
1.6101968173593404 2.539770531959357 1.4578771285287973 19 19 21
1.5791153871876253 2.549906462652146 1.4686594023450825 25 25 26
1.5517531355134095 2.5564544443445008 1.4781535168714899 32 32 36
1.527924237663766 2.5596213278484927 1.4864238098965146 50 50 55
1.4963023174494916 2.5698886973965047 1.497393620367368 68 68 70
1.4688210887531339 2.576213121002974 1.5069292337107243 86 86 86
1.4350566228317532 2.5881856201712163 1.5186414380385296 87 84 85
1.3556102465380535 2.6417355073950004 1.5461779796893924 89 85 86
1.3170812027700745 2.657612879186613 1.5595410171620299 87 83 84
1.246560822051421 2.702342807023401 1.5839861672148223 76 73 75
1.18979751486517 2.7342656473058398 1.6036660753598264 68 65 67
1.1745363536244313 2.7284989208744657 1.6089694561158512 68 65 66
1.162796094952749 2.7195364314302717 1.613053179155782 71 67 70
1.1340318764399282 2.7258051582547083 1.6230342738129944 74 70 74
1.127124088859762 2.7124563890955837 1.6254440054996977 74 70 74
1.2816271831659494 2.555558623182953 1.5719376876357305 59 57 60
1.2540943863919907 2.561004656694364 1.5814919585963354 49 49 51
1.2286916513380794 2.564462946410552 1.5903084125352915 45 45 47
1.20334476827091 2.5677792972596056 1.599105597399344 43 43 45
1.153363922087352 2.592624646268659 1.61643681907016 41 43 47
1.111654042367879 2.609999447982555 1.6309029064223668 46 47 51
1.0854627742605938 2.6136579327846636 1.6399929545541547 58 59 61
1.0549143502013518 2.621007295607899 1.650592569170276 75 75 76
1.020332612519512 2.6317296936915766 1.6625895902388181 82 81 82
1.0184935182234347 2.61404604927272 1.6632432738871625 75 74 74
1.0018652240201018 2.6091318300601816 1.6690205695096996 62 63 62
0.9799038328479335 2.6087515270119463 1.6766455390367367 56 58 57
0.9531301099928609 2.6124145512619465 1.6859378022262737 62 64 63
0.9213468427693303 2.620248049782106 1.6969657190197993 108 109 109
0.8310154551680116 2.677658926465023 1.728278047900284 161 161 161
0.6801434716124248 2.7858359983772063 1.7805655239812093 174 174 172
0.541996574384142 2.882487138110995 1.8284449478345461 175 175 173
0.40899541068178125 2.974093249756809 1.8745421861049536 175 175 173
0.25579921017790075 3.081926867935689 1.927636887883485 175 175 173
0.6502655898738277 2.731759663547221 1.7909850646614314 176 176 174
1.7755248998811755 4.06242104529063 1.415776501819158 172 172 171
1.8975873609389693 3.890505977337688 1.3731759285547973 171 171 170
1.8306086466322735 3.948319090470239 1.3965390470968566 172 172 170
1.7954139057343212 3.967358621162895 1.4088114699695082 166 168 167
1.7472551053085856 4.0017782278546115 1.425607416784523 149 150 150
1.887881443420402 3.809784413005543 1.3765300719337044 90 92 91
1.895786458593518 3.7774210377396997 1.3737636856485305 72 74 75
1.891645812561817 3.7595310937488744 1.3752004328700873 61 62 67
1.8632017551953082 3.7705094515673183 1.385117334456016 51 51 57
1.8417225076120503 3.773111025103544 1.3926039783871298 44 44 49
1.8240958159006309 3.771084501280057 1.3987463372314024 40 40 44
1.809876751409215 3.764997582784243 1.403699673126956 36 35 40
1.8014910737236804 3.7520508719938066 1.4066175981808264 34 33 38
1.8131634165059505 3.7157177518913325 1.4025368618285765 31 30 35
1.8366919875063552 3.665765464661595 1.3943193124290851 27 27 29
1.8530655089046866 3.624361640002337 1.3885983816461405 24 24 26
1.8374250099072846 3.62013809537455 1.3940477583295716 23 23 25
1.845683798558081 3.5883554133322937 1.3911582833065061 24 24 27
1.8455867269294775 3.5662988699099554 1.3911843363549028 24 22 27
1.848141502858238 3.5412830625593834 1.390285151283932 25 26 29
1.846785964451064 3.5208184052744826 1.3907503535536447 29 30 34
1.883860917090197 3.4567503750059143 1.3778067811116117 31 32 35
1.8852379081119872 3.433461415673264 1.3773186744342758 31 32 35
1.9405452709487891 3.3493783444148937 1.3580138722908723 32 33 36
1.9041769850303214 3.368921751429938 1.370695464683459 34 35 38
1.8782369463116013 3.376573264718993 1.3797385183495083 37 38 42
1.8370482236324888 3.4011487182574975 1.3941018541643189 37 38 42
1.813295868176003 3.4060680211810728 1.402381515541518 37 38 42
1.805091662099597 3.3936203640721008 1.4052363719467769 33 34 37
1.7980054269131438 3.3799468629332163 1.4077011723838226 27 28 30
1.7970484149541617 3.359531690488505 1.4080275017609711 24 25 27
1.837520816604644 3.2936292596192915 1.393899238482657 23 24 26
1.862455850420833 3.2451165649346017 1.385192030733865 21 21 23
1.8214212075814662 3.2689101539827865 1.3995013925334188 17 17 19
1.7603643795197814 3.3142763040453636 1.4207962872266204 16 16 18
1.6713578509451104 3.389603640162698 1.4518424888715964 15 15 17
1.5921173196340133 3.4538036815572157 1.479481221936018 15 15 17
1.5278609600873665 3.5013580654697316 1.5018919560486699 15 15 17
1.5242327138885687 3.4833857732022353 1.50315009791041 17 17 19
1.5158075984452433 3.4705961467242803 1.5060818227957595 20 20 22
1.5007407916839504 3.46490753536865 1.5113307455606544 22 22 24
1.4889148720209333 3.455735876755412 1.515448959508667 22 22 24
1.4819297880762152 3.4414187114678 1.5178782807922238 21 21 23
1.38221077532838 3.525136350596611 1.5526608458162303 23 23 25
1.3986425391327733 3.485871570391062 1.5469203712370483 25 25 27
1.3810501809708404 3.482516484707355 1.5530502960413548 22 22 24
1.3737553273532674 3.468333413856368 1.5555876223503229 17 17 19
1.371670542149673 3.448735580194246 1.5563072798685387 14 14 16
1.6092109191057105 3.180059594041328 1.473427411443614 13 13 15
1.64600585186023 3.1211015991657725 1.4605832305031374 13 13 15
1.6581320936062407 3.0879400720972487 1.4563454242849379 13 13 15
1.7748739738572663 2.907153909397927 1.415595997118273 13 13 15
1.781986946847907 2.8799613849478 1.4131074685271399 13 13 15
1.7195524098924762 2.923539477866952 1.434881877676181 13 13 15
1.6647275762128522 2.959057237823239 1.4540013891029104 15 15 17
1.6655055242948502 2.9381520207262923 1.45372289524496 22 22 24
1.6880423104857294 2.8954260873218622 1.4458535405777284 25 25 27
1.6905757344518173 2.8729696936150844 1.4449626993481715 30 30 33
1.6680643028976236 2.875622263860812 1.4528090874093376 41 41 44
1.6735094050552426 2.8503415469964315 1.4509025021399637 39 39 42
1.6757129147655312 2.828377137378616 1.4501268127142788 39 39 41
1.6856229543170818 2.7988630277726 1.4466626606212292 40 39 42
1.6946847207675604 2.7703117577896776 1.4434944794571536 36 32 37
1.7457264377508794 2.700612262067438 1.4256813681541791 34 31 36
1.7416929396997807 2.68526741198258 1.427081670688441 33 29 34
1.7531395564941117 2.6548389617361443 1.4230816840830065 30 28 32
1.6269786779213167 2.758486270369141 1.4670865237987267 29 28 32
1.594938372240076 2.770071870372407 1.4782569670024328 27 26 30
1.682496520917734 2.665866131024953 1.4477053570179423 27 26 30
1.6462168949730223 2.6816303579047647 1.4603547179710608 26 26 28
1.5920182782388137 2.7144361275767284 1.4792550304297303 24 24 26
1.5491065595568476 2.73615147441512 1.4942178385991682 19 19 21
1.5195140278272028 2.7449453173521046 1.5045342243835842 15 15 17
1.5006678203592934 2.7433915463842924 1.511101763021731 14 14 16
1.523228873885443 2.7025260555484465 1.5032246069629056 14 15 17
1.5035079442987596 2.701811526389903 1.5100972906879904 14 15 17
1.4985915775218066 2.68709125438911 1.511805501788377 18 17 19
1.6159775514792964 2.5576043394140235 1.4708496903314294 23 21 24
1.5832064360638558 2.5693788359755794 1.482274894438785 38 37 39
1.5534809432583372 2.5781683984861137 1.4926376169413837 60 57 60
1.5335525573989286 2.577727403820622 1.4995826976452684 83 79 83
1.5140142007425168 2.576860235764868 1.506391699107295 93 89 93
1.4903300154168497 2.579758309541023 1.514646889825582 96 92 95
1.460816184595914 2.587933289738437 1.5249356293610408 95 92 92
1.4345801895995476 2.592979776619415 1.5340809081085776 92 89 89
1.4148845941660126 2.591945958317817 1.5409446500504624 86 83 83
1.3337927018750606 2.6467850943794473 1.5692252996652534 74 71 72
1.2679555167024417 2.6873404231791005 1.592184498939488 61 58 61
1.234484666392957 2.6982652168586148 1.6038532678460566 63 60 63
1.2631079376183658 2.6530371839034954 1.5938618317100501 68 65 69
1.24196514795972 2.652779636877672 1.6012302086290982 62 61 64
1.2303380396928807 2.6439271275662897 1.6052792474080622 55 53 56
1.3300679076084228 2.5356128690456705 1.5704842262385486 44 43 45
1.305081974188076 2.538958138860182 1.5791932465083895 35 34 37
1.2637763693801396 2.556690111129097 1.5935949038013986 35 34 38
1.2337334856037758 2.5642763103885753 1.60406781582489 37 37 41
1.2035534391151232 2.5718632309347194 1.6145885306413552 42 41 44
1.1603210172156584 2.5907942082280884 1.6296621252032089 46 48 49
1.1312465433552488 2.597134853601267 1.6397970977619696 58 59 60
1.0990336628666286 2.606100990562096 1.6510267613148382 74 74 76
1.062429303202937 2.6187554729309337 1.6637881985988536 81 80 82
1.0255779006506476 2.6314686980654187 1.6766357534444247 76 77 76
1.02214738566872 2.615155831580176 1.6778255691849993 65 65 65
1.0156048998248473 2.6015591207500623 1.6801008947672036 62 60 61
1.0050003692698755 2.591466863857068 1.6837931181253374 61 61 62
0.9865934152842399 2.588042982273131 1.6902069132350608 60 61 62
0.961774146225135 2.590035847974223 1.6988573724835865 81 81 82
0.8905247755428014 2.6313872106389224 1.723703051711263 134 134 135
0.7541613419772721 2.727522074750074 1.7712609320615764 171 171 172
0.6161988093695823 2.8242916021211775 1.8193763377621135 175 175 174
0.48649927004383064 2.9133909067562507 1.864609305379103 175 175 173
0.33634903566117913 3.018961650954561 1.9169753470263404 175 175 173
0.17774400408919755 3.130813034929852 1.9722901823025958 176 176 174
1.9439085452884015 3.8634802999240137 1.3731773779846794 172 172 170
1.8976545446783728 3.8965324038179614 1.3894104293910727 171 171 169
1.8231943444249168 3.9634432000936153 1.4155640142410004 172 172 170
1.785061705376233 3.9860044238948076 1.428939502935381 168 170 168
1.753283645196344 4.0007008301784275 1.4400796227168802 151 153 152
1.8920699193608341 3.810761087950808 1.3912299391964487 95 97 96
1.897746976295417 3.7810384048153827 1.3891973938188054 81 83 82
1.894619702318415 3.761924080165947 1.3902615225802335 70 71 71
1.8711393381846309 3.767021903791143 1.398483787477556 58 59 63
1.8540834792421133 3.764413726950337 1.4044464691624916 49 50 55
1.8335418549523967 3.7658609416663866 1.4116349438610272 44 43 48
1.809876633294674 3.7708976151699254 1.4199217829974802 41 40 45
1.8043005531046545 3.7546389251868506 1.421847061478873 40 39 44
1.7911537297163906 3.747254109499076 1.4264347463235638 38 37 42
1.8065361142782108 3.706645287378806 1.4209898906388974 37 36 39
1.8364348416757028 3.649393614061861 1.4104406489777475 36 35 38
1.8384139295820732 3.6247238803170703 1.4097096939707774 37 37 40
1.814923664669297 3.6294927723134514 1.417934907882303 38 37 41
1.8260039426685573 3.594454658429646 1.4140038020178534 37 36 41
1.845018083507029 3.5504932194422905 1.40728317990778 36 37 41
1.8607823605530203 3.5104574063497074 1.4017056208028933 36 37 41
1.9035586838958345 3.43989537128945 1.3866305006260096 35 36 40
1.9037780705990857 3.4179636553692214 1.3865194372174905 33 34 38
1.9518645750947494 3.3420282091987743 1.3695782145981183 34 35 39
1.906692526865348 3.371534519022157 1.385427211866815 34 35 39
1.8938070147293973 3.3645413471152374 1.389924093249696 38 39 43
1.8491429257815883 3.3930736082510937 1.405593863832344 37 38 42
1.8192285623235247 3.4049031627133552 1.416077509013624 37 38 42
1.8139131036404905 3.3892478802932438 1.4179125566527213 34 35 37
1.8121770988576769 3.3696603379850583 1.4184892282499617 28 29 31
1.8040124639589337 3.3572285867529814 1.4213260652622075 24 25 27
1.8127023386224521 3.3262617591659898 1.4182375796426065 23 24 26
1.6932460084556638 3.4359763252868283 1.4601994240510523 22 22 24
1.5483147441718725 3.5727486799471047 1.5111156649092339 18 18 20
1.6969363292982433 3.3887005271161357 1.4588344482645264 17 17 19
1.5280388414058663 3.550616123735846 1.5181742880726465 15 15 17
1.52646829785083 3.530276007743196 1.518691897827457 15 15 17
1.5643818936989107 3.4673980395586153 1.5053299596672853 15 15 17
1.5316841405675174 3.4807914587801516 1.5167897830053496 16 16 18
1.509851807983525 3.4823791180439017 1.5244300143423142 19 19 21
1.4953043225485172 3.4761016492966963 1.5295094344601488 21 21 23
1.4850800074824742 3.4651896775019164 1.5330692006370188 22 22 24
1.479004112104881 3.44987419033761 1.5351708084420936 22 22 24
1.3830035986937177 3.52970766685545 1.5688802001169635 23 23 25
1.3972598666254197 3.4926991218120236 1.5638349340804993 25 25 27
1.3842870620612242 3.4844737534908625 1.5683604256729142 24 24 26
1.3674002898241098 3.4803285954614376 1.574261549922533 19 19 21
1.5660939838541141 3.2510826407241016 1.504392565224288 15 15 17
1.5940780378424602 3.2008965034712227 1.494524200848362 13 13 15
1.645470647076873 3.12669241747713 1.4764290908947604 12 12 14
1.638189852272328 3.113555518890861 1.4789556251021554 12 12 14
1.7470970504717869 2.940418513292569 1.4405850228511765 13 13 15
1.7886881749776489 2.8779303815886697 1.4259371607831117 13 13 15
1.7471404655003413 2.90032053996828 1.4405070981959587 14 14 16
1.705512208149186 2.922577272795312 1.4551050054419452 16 16 18
1.6918810241138136 2.9163390469264323 1.45986393126288 20 20 22
1.6955944334301627 2.892610937012441 1.4585277205302862 24 24 26
1.700454599115821 2.8678197235503973 1.4567886692262069 28 28 30
1.701260351126555 2.8471784550414205 1.4564744928257873 38 38 40
1.7011584476889903 2.8275096752453486 1.4564793689878672 38 38 40
1.7005758042700327 2.8083799430472656 1.4566532689365952 36 36 38
1.7037460981296446 2.7855915079484133 1.4555085300234416 48 47 50
1.7032788804625412 2.76647570848131 1.4556420716273681 60 56 61
1.733193279740025 2.7175280571178577 1.4451003396780195 55 51 56
1.7282807301903076 2.702985692411028 1.4467961762358421 51 47 52
1.7327124910116762 2.6793392561120575 1.445208787695467 44 42 45
1.7424795928940071 2.6505841509447965 1.4417469090682864 42 40 43
1.7445891782030802 2.629386284339232 1.440975733318078 42 42 45
1.7018511848698537 2.6516607457789454 1.4559618944791457 33 33 36
1.662593477068674 2.6703646667033825 1.4697249382544004 31 31 33
1.6288879093310593 2.683540507072449 1.481536991530428 31 31 33
1.5950763607698146 2.6966633953001993 1.4933860379214146 23 23 25
1.5698424206254167 2.7014401860715447 1.5022212654712108 18 18 20
1.5508330626834006 2.7001924412564655 1.5088694809584404 23 23 25
1.5543729856172828 2.677491935042946 1.5075955698669887 29 30 32
1.55392355902208 2.6586451506073168 1.507723308399759 42 43 45
1.5362944422242941 2.6560455866101087 1.5138865500949599 63 61 64
1.5404884399270342 2.632895701117588 1.5123831166707955 83 81 84
1.5506108928467173 2.6042800773755523 1.5087971415021852 92 90 93
1.5494376098498672 2.5863259218755275 1.50917950803105 95 93 96
1.5231123379400917 2.5918151652882693 1.518397637980169 97 94 98
1.503483377617722 2.590992839289928 1.5252632786115192 92 90 93
1.4784650798920433 2.5950870741039176 1.5340219986538794 92 89 92
1.450373082442464 2.601916360668125 1.5438602903275653 89 88 87
1.4325335684781983 2.599222202726782 1.5500969886360987 80 79 78
1.4175671608897407 2.5938489829318865 1.5553243777933892 66 65 66
1.3972152807370508 2.5933526801075337 1.5624434322738578 51 49 51
1.3168013139427468 2.647370037926663 1.5906596892905727 42 40 43
1.3629354792893729 2.586345400391775 1.5744247953655321 39 37 42
1.415870150465532 2.5195167625490695 1.5558017553038932 36 34 39
1.4026876813769027 2.5125481255420348 1.5604025614613517 31 31 34
1.3434992969131567 2.546811627648541 1.5811624280698746 26 26 29
1.323499375890537 2.5457545794788388 1.5881574770610665 28 27 30
1.3061653951481242 2.5422605874777875 1.5942160699806005 31 30 34
1.2713825929584965 2.554211881979722 1.606403063311471 35 34 39
1.2347501517385406 2.5676510198626334 1.6192394557794334 43 42 46
1.2059543694314048 2.5740197058268177 1.6293232364539691 53 53 55
1.1757831660431923 2.5814849807128497 1.6398899053582041 65 66 66
1.135606159013961 2.5975961503428553 1.6539704970116813 72 73 73
1.1008854549232145 2.6087653510773823 1.6661345425111902 77 75 78
1.0665799637172895 2.6194279713825583 1.6781525387931544 74 73 75
1.0299568086605388 2.6319586452770865 1.6909842612573591 57 59 58
1.0288562560659287 2.613626167308405 1.6913405921193794 55 55 55
1.0333216276881938 2.590548509098359 1.6897423351921883 62 60 61
1.0163214530238842 2.585985790863124 1.6956824784462163 63 62 64
1.0097622182601629 2.5724459705515974 1.6979559541945763 63 63 65
0.9971474252497341 2.564090149430718 1.702355996166023 66 66 68
0.9478097716295284 2.5869384054347218 1.7196518572814345 100 100 102
0.8333773474225641 2.664718023127619 1.759806191111807 153 153 155
0.6982363555592677 2.7593938865564445 1.8072315737746707 175 175 176
0.5652804392255499 2.8515245628966728 1.8538885550629463 176 176 174
0.4182273065393951 2.954789946484647 1.905494678643565 175 175 173
0.2639130223612167 3.0633591528808717 1.9596493164698303 176 176 174
1.944000108029471 3.869468644087391 1.3893290769148074 171 171 169
1.8848015913538407 3.9182765714375645 1.4102530520888001 171 171 169
1.8141819635547434 3.9805297756236415 1.435225059130672 171 171 169
1.7840578123122053 3.9933920200203152 1.4458393131118534 167 168 167
1.7506019140877032 4.010106459539038 1.4576342574869487 138 140 139
1.896413753179117 3.8115528918867128 1.405878847864598 82 84 83
1.9003796355744564 3.783858063781752 1.4044092484323936 79 81 79
1.8779537898942902 3.787729765166995 1.4122951603434752 78 80 77
1.8763568376671833 3.76675962424573 1.4127977082035745 70 72 72
1.842167327526039 3.7844471689943333 1.4248529737671065 63 64 68
1.8229208634695657 3.7843108379886488 1.431611267730564 56 55 60
1.7770544199664928 3.815415778889049 1.4478043233808164 50 49 54
1.7461363739855478 3.828717778494121 1.4586985863425475 48 47 52
1.7818244757780544 3.7640260912743644 1.4459865140634367 47 46 51
1.798453960412554 3.721884753087651 1.4400297832003093 43 42 47
1.7913874615863012 3.707456353021258 1.4424712107856554 41 40 45
1.7571473233823962 3.7244922861267478 1.4545424452604183 40 39 45
1.8343108006127304 3.6128666306939787 1.4271353386678982 40 39 44
1.8268480998986674 3.599177675292526 1.4297179520622691 39 38 43
1.8632542161898062 3.5352473629820222 1.4167558533968125 36 36 40
1.876116597101187 3.4985511357474337 1.4121371190553291 34 35 39
1.9190556285177718 3.4277931671329127 1.3968619293805484 36 37 41
1.9408343176033873 3.3814346963777484 1.3890852681782877 36 37 41
1.9470598883267225 3.3528969400638666 1.3868198054488605 37 38 42
1.9231150552979583 3.358478642642022 1.3952438811648367 36 37 41
1.8954588104482635 3.368123241801917 1.4049825572691008 38 39 43
1.8469299500364649 3.4010035099347533 1.4221154899012847 38 39 43
1.8176769562222788 3.412087957484088 1.4324188865666638 37 38 42
1.8231881628286313 3.384363466061122 1.4304065419251075 35 36 39
1.8247715927490846 3.3611050503876383 1.429785897141734 30 31 33
1.8046426541002125 3.361920023587219 1.436856727010252 26 27 29
1.789397227593346 3.357281322742701 1.4421974937023418 24 24 26
1.7212543255138189 3.4106675599874197 1.4662751347585843 22 22 24
1.6307023644811847 3.4881498077037527 1.498288966145481 19 19 21
1.7199807007354506 3.368950483877411 1.4666065166135134 16 16 18
1.674188878019749 3.397269937427212 1.4827656313685371 15 15 17
1.4891897937571483 3.5761390062507106 1.548227531671013 15 15 17
1.5660003185202795 3.4710687628565955 1.5209625771676674 15 15 17
1.5256910284393772 3.4926619630875053 1.535177739478159 16 16 18
1.5052382350660596 3.492741385816955 1.5423602525879154 20 20 22
1.4827008121951437 3.494976487087283 1.5502808007528182 22 22 24
1.470443957977497 3.486168834820428 1.5545605079839846 22 22 24
1.3768656487642932 3.5637204977716674 1.5876372778563699 21 21 23
1.389449185784925 3.5283019852862383 1.5831200124287794 22 22 24
1.4724198340950139 3.4187726952468083 1.5536794568884404 25 25 27
1.487992696496257 3.3807717753226756 1.548105274190636 24 24 26
1.5053859833394647 3.3410399924699803 1.5418870157740403 22 22 24
1.5350412218033627 3.2886861323290884 1.5313277387063844 16 16 18
1.5721986577042553 3.228792251359512 1.5181130146039645 14 14 16
1.6138734067350666 3.1645322117351915 1.5032998439645084 13 13 15
1.528738941319319 3.2318098343438777 1.5333829003614385 12 12 14
1.5397851099280626 3.157640555286791 1.529297873127413 13 13 15
1.8332800710628874 2.8372108706774983 1.4253428987274877 13 13 15
1.8037301568155595 2.8475522493184484 1.4357484993878147 14 14 16
1.5483005782776325 3.0868586527029263 1.5261109461705078 17 17 19
1.7308434185542243 2.881767003523544 1.4614387576573278 18 18 20
1.7143210950439045 2.8785318148194587 1.4672318233703487 23 23 25
1.722995748623784 2.8499450623968254 1.4641061938896862 27 27 29
1.7261106758781994 2.8270434158888964 1.4629487327256603 32 32 34
1.7208765191335484 2.8125541875346824 1.464746538087804 36 36 38
1.7208926587842566 2.792871655301478 1.4646862018904758 40 40 42
1.7110798109983245 2.782992505789846 1.4681046850178276 75 74 77
1.7045344257034372 2.7698829106361593 1.4703667790931436 88 86 89
1.719791315729303 2.7353256351606574 1.4649131194125808 84 82 85
1.7128443435235559 2.722717967475372 1.4673176306176474 81 79 82
1.706954856840706 2.7090915555568245 1.4693479609970026 76 74 76
1.7173428582799757 2.679618840332997 1.4656182040020282 75 73 74
1.7116780178004436 2.665871053501072 1.4675693095159585 71 71 71
1.678092319491245 2.6791869818666436 1.4794003956419441 66 66 66
1.6970418639868616 2.6416372283566414 1.4726416955901809 59 58 60
1.66109283434649 2.657084688621792 1.4853086198603542 56 55 58
1.6347375830097874 2.6631633962908143 1.4945805290669427 60 60 62
1.6117794181879015 2.665887678358588 1.5026501855253191 66 64 67
1.5885169526742071 2.6688160812436226 1.510827268496198 77 75 78
1.5822407928869353 2.6555297529137323 1.5129943292839165 83 83 85
1.5668118018992627 2.650924458323865 1.5183996500695394 88 88 90
1.5568258744839265 2.6411477561863226 1.5218791971468169 92 90 93
1.544247735334638 2.633804348936955 1.5262757951643064 89 87 90
1.543054275802085 2.6157744326228447 1.526644817280042 92 90 93
1.5345744981408271 2.6045998648644937 1.5295915756195582 94 93 95
1.5103270854435498 2.6081069869423574 1.5381161443590563 102 102 104
1.4876459922723346 2.610069679779928 1.5460863877974564 88 88 90
1.4618847097582135 2.614799009576066 1.5551459683933286 69 69 71
1.4607135286704813 2.5967674421994906 1.5555071625269423 46 46 46
1.4395320074195181 2.59716608523087 1.5629464655494671 35 36 36
1.4229546232204422 2.5932785439090056 1.5687570546960115 33 33 35
1.3990209112140635 2.5960600646809704 1.5771694475583142 26 26 29
1.379193246117136 2.5950202090852987 1.5841293290719909 21 20 25
1.4635115051620295 2.4995217673830865 1.5542545115335318 19 18 23
1.475805805997328 2.469652543059176 1.5498542287823964 18 17 23
1.4657475056501281 2.46003919713069 1.5533596443797553 20 19 24
1.3356953550619308 2.558103572945012 1.5993017025245677 25 24 29
1.3133273490884398 2.5591344112395267 1.607159412651281 32 31 36
1.288229147896224 2.562522867249225 1.615982418408662 40 39 44
1.2554848910921965 2.572612695261046 1.6275090597080033 49 49 53
1.2294644908692256 2.5766115591669707 1.636657604333642 63 63 65
1.2018391806981576 2.5819303231713624 1.6463734022089795 69 69 70
1.1668384382470438 2.593631349134562 1.6586969160187561 68 69 69
1.1340691234185267 2.603227759933949 1.6702309863300728 68 69 69
1.100245599096054 2.613610767804255 1.682137442250221 62 61 63
1.0734536531069068 2.6177298468316463 1.6915572601660653 47 45 48
1.039250867037768 2.6281828314023734 1.7035970936638123 43 44 46
1.0339630961746633 2.6134800376318603 1.705413133213512 49 49 51
1.0467994843114414 2.583176354036463 1.700821281993934 57 55 58
1.0200997659920414 2.5869783831364948 1.7102078322263752 62 61 64
1.027721589313119 2.5612876345448434 1.7074599629250287 64 64 67
1.0129115684680612 2.554845007632643 1.712642820226114 64 64 67
1.012099973463981 2.5364642613760813 1.7128767706859216 75 74 78
0.9108705100644257 2.603282505193535 1.748610541145576 119 119 121
0.7803260785568049 2.694356806476424 1.7947060557781458 168 168 168
0.6431998576490414 2.7902933500272744 1.843126365357626 175 175 174
0.4974395065235886 2.892762355581505 1.8945968179357653 175 175 173
0.34598579553650377 2.9992337920968426 1.9480776925136833 176 176 174
0.20524923303246734 3.0959791928258484 1.9977680720756499 176 176 176
1.9503944939763422 3.867772666442809 1.4032555698939135 172 172 170
1.8538312458325568 3.962103372629624 1.4376699804712676 172 172 170
1.825975696461391 3.972412615467836 1.4475300233307615 171 171 169
1.7813115065661345 4.002898431065939 1.4633955323618595 164 165 164
1.7490992538599763 4.018107633756784 1.4748108417118684 122 124 123
1.8902304289364624 3.824987193902863 1.424292224835246 79 80 80
1.8854596766838883 3.807690625575618 1.4259048452265546 68 70 70
1.8840002196144536 3.786485467197658 1.4263346554604304 64 66 66
1.8710319512121403 3.7790316190254503 1.4308761317176955 65 67 66
1.838777186865255 3.7944107419882656 1.4423071043584352 63 65 65
1.8118589279293202 3.8033129636915177 1.451831142617879 60 59 63
1.7821755657887113 3.815339389173596 1.4623423312129258 53 52 57
1.7464582000113396 3.8342943201853044 1.4750081201775733 48 48 52
1.7094652070280159 3.8545434386910324 1.4881287248195325 45 44 49
1.6650364520575638 3.8832539180809524 1.5039041585137247 43 42 48
1.6574475493347056 3.868898810281716 1.50652189864185 41 40 46
1.6470295830834836 3.8578403756124295 1.5101500230876792 39 38 43
1.8625755511353965 3.585965381465072 1.4330863484739662 39 38 43
1.8449119136372711 3.584098378573985 1.4393052102768968 39 39 43
1.8225131254844713 3.5876020503609376 1.44721461753157 41 42 46
1.9062408410500955 3.469721473855888 1.4172306488112072 43 44 48
1.9161314271427592 3.4366544122021225 1.413612299145488 43 44 48
1.9427015827295302 3.384797026109412 1.4040395130738696 43 44 48
1.9537095563286042 3.350821503880855 1.4000236657603669 41 42 46
1.9228676386302483 3.3642031508362384 1.4109486466736432 37 38 42
1.903894213069087 3.3640847674473044 1.417636179453925 36 37 41
1.847669728411275 3.4056378744131752 1.4376207890378048 38 39 43
1.8276398681103432 3.4064248095658134 1.4446843214831444 37 38 42
1.845471476945079 3.3649905705061682 1.4382334176621328 35 36 39
1.8508933622142547 3.3375269689203977 1.4362126208123647 32 33 35
1.858729958961541 3.3075036121159487 1.4333304373100364 29 30 32
1.8631668211279835 3.2813550464765586 1.4316621033544683 27 27 29
1.7590447570411463 3.3745703695956255 1.4687364939142529 23 23 25
1.7802663688975575 3.329854855188124 1.4610775398240703 19 19 21
1.739738192872648 3.352755034005619 1.4754548542687576 16 16 18
1.667368075176963 3.410071674577659 1.5011936100578074 15 15 17
1.5041678980640736 3.5654198188444997 1.5593406372584107 15 15 17
1.5446544656020664 3.4995616205009377 1.5448065262215531 15 15 17
1.5151850785054817 3.5094124669825506 1.5552336064085015 16 16 18
1.4956851915360156 3.508423191473949 1.562103237213098 19 19 21
1.4889416433668827 3.493718064833893 1.5644215984583303 23 23 25
1.4715096549381972 3.490436000827809 1.570553157420577 22 22 24
1.3860125041744449 3.55945566738885 1.6009658159914777 20 20 22
1.3229131972273216 3.6042178883107034 1.623386563245309 21 21 23
1.4608934413548489 3.436268616601021 1.574079096992476 23 23 25
1.4642383509893684 3.411059096412981 1.5727994171036705 25 25 27
1.4819981261969566 3.3708203164317188 1.5663786057284907 24 24 26
1.499624923369327 3.33091271859703 1.560005990104688 17 17 19
1.548411862336127 3.2587206274099936 1.5425207725933314 14 14 16
1.5886726773978976 3.1957882040165257 1.528077915774195 13 13 15
1.6615954686595011 3.0993822597194707 1.501988324606083 12 12 14
1.5545878964736741 3.147507129879738 1.53989986269137 13 13 15
1.6282691772113342 3.0514657406213663 1.5135443641590869 13 13 15
1.5831783029620135 3.076945638879625 1.529540295868122 13 13 15
1.8603863119082866 2.7750338544658373 1.4306212759597268 15 15 17
1.844215342160294 2.7718581889543628 1.4363087589724888 19 19 21
1.7481769727968175 2.8491740918812583 1.4704702401495826 23 23 25
1.783238276610868 2.794149492557226 1.4578917395951976 28 28 30
1.7634860712370126 2.794329340671988 1.4648549774037485 31 31 33
1.7461816176805622 2.791996564392169 1.4709453701803676 36 36 38
1.7487979344418356 2.7697870551976997 1.4699344886846926 70 69 71
1.7106665518745556 2.788073415041744 1.483448533837001 93 93 95
1.696858518252997 2.782125133515896 1.4882920310456473 87 85 88
1.685665902385699 2.773571039756219 1.4922032101523997 86 84 87
1.6677531511520853 2.7716053100149733 1.4985094888169557 84 82 85
1.6824098182041625 2.7377032502330545 1.4932077947441214 83 81 82
1.6843845033796079 2.7163298248719743 1.4924264212384175 82 80 81
1.6796386126471794 2.7015648312277136 1.4940403826769866 79 79 79
1.639936355460728 2.720709817254522 1.5081115777340282 81 81 81
1.6808228395081026 2.661810620308629 1.493464275074986 85 82 86
1.6688410942293466 2.654135267284299 1.4976571244277226 85 82 86
1.6343512514446406 2.668042982384901 1.5098700742319318 86 83 86
1.6233362409190693 2.6593380819922308 1.5137180467145988 86 83 87
1.5973550697075982 2.6648904025116043 1.5228983969866436 85 83 86
1.590300513788707 2.652354638446796 1.5253350452058254 85 83 86
1.5740077229512828 2.648582550026168 1.5310630887641858 84 83 86
1.5676597342439775 2.635380430158459 1.533248017075787 91 89 92
1.566624733666233 2.6171991020769854 1.5335402786053356 92 90 93
