ply
format ascii 1.0
element vertex 859
property float x
property float y
property float z
property float nx
property float ny
property float nz
property uchar diffuse_red
property uchar diffuse_green
property uchar diffuse_blue
property uchar class
property uchar detection
end_header
1.0633 2.9912 -0.3006 0.381 -0.662 -0.645 175 175 175 0 0
1.1854 3.0063 -0.2594 0.964 0.173 -0.201 66 66 67 0 0
1.1788 2.9777 -0.2551 0.281 -0.282 -0.917 58 58 59 0 0
0.7293 2.6832 -0.1435 0.267 -0.092 -0.959 173 173 172 0 0
1.2712 2.9538 -0.2209 0.196 -0.552 -0.810 61 61 63 0 0
0.9158 2.6960 -0.1404 0.560 -0.814 -0.155 61 61 63 0 0
1.2175 3.1762 -0.2253 0.865 -0.088 -0.494 82 82 84 0 0
1.2165 3.1453 -0.2215 0.865 -0.088 -0.494 45 43 48 0 0
0.9196 2.6972 -0.1261 0.476 -0.857 -0.198 69 67 71 0 0
1.2271 3.1597 -0.2099 0.787 -0.074 -0.613 46 45 47 0 0
1.2243 3.1451 -0.2078 0.865 -0.088 -0.494 44 44 46 0 0
0.9306 2.7118 -0.1143 0.519 -0.763 -0.385 98 97 99 0 0
1.2257 3.1628 -0.1953 0.501 -0.484 -0.717 42 42 44 0 0
1.2340 3.1442 -0.1943 0.838 -0.074 -0.540 40 40 42 0 0
0.9610 2.7050 -0.1029 0.971 -0.204 0.128 82 81 84 0 0
0.9643 2.6885 -0.1014 0.879 0.048 -0.474 79 78 81 0 0
1.2295 3.1953 -0.1849 0.537 -0.419 -0.732 59 59 61 0 0
1.2476 3.1575 -0.1830 0.452 -0.233 -0.861 40 40 42 0 0
1.2620 3.1367 -0.1827 0.651 0.194 -0.734 37 37 39 0 0
1.0252 2.7345 -0.1007 0.434 -0.664 -0.609 48 47 51 0 0
1.2119 3.2043 -0.1685 0.544 -0.835 0.078 55 54 57 0 0
1.2538 3.1734 -0.1710 0.446 -0.576 -0.686 49 49 52 0 0
1.2294 3.1849 -0.1540 0.952 0.302 -0.047 52 51 56 0 0
0.8621 2.5693 -0.0271 0.520 -0.710 -0.475 53 52 55 0 0
1.0286 2.6631 -0.0480 0.658 -0.500 -0.563 22 21 27 0 0
0.8044 2.4782 0.0073 0.862 -0.336 0.379 75 75 74 0 0
1.2907 3.2770 -0.1443 0.737 -0.381 -0.558 112 112 113 0 0
1.2853 3.2009 -0.1346 0.701 -0.218 -0.679 45 44 49 0 0
1.4176 2.8933 -0.1189 0.486 -0.332 -0.809 58 56 60 0 0
0.8158 2.4773 0.0209 0.470 -0.692 -0.548 63 62 63 0 0
1.4288 2.9373 -0.1112 0.648 0.161 -0.744 33 32 35 0 0
1.1119 2.7043 -0.0356 0.926 0.066 -0.372 50 50 52 0 0
1.1099 2.6895 -0.0336 0.955 -0.289 0.062 55 55 57 0 0
1.1066 2.6752 -0.0314 0.998 -0.056 0.026 52 52 54 0 0
0.9879 2.5714 -0.0012 0.808 -0.207 -0.552 28 28 30 0 0
1.3045 3.2771 -0.1167 0.698 -0.209 -0.685 60 59 63 0 0
1.0066 2.5837 0.0095 0.842 -0.450 -0.296 31 31 33 0 0
1.0065 2.5683 0.0113 0.899 -0.049 -0.435 27 27 29 0 0
1.0004 2.5546 0.0138 0.842 -0.091 -0.532 26 26 28 0 0
1.4803 2.8493 -0.0802 0.753 -0.352 -0.556 56 54 57 0 0
1.4772 2.8354 -0.0781 0.753 -0.449 -0.481 31 29 33 0 0
0.9662 2.5357 0.0363 0.397 -0.866 -0.305 28 28 30 0 0
1.3420 3.2527 -0.0902 0.702 0.268 -0.660 58 58 61 0 0
1.4549 3.0723 -0.0873 0.773 0.077 -0.630 63 61 64 0 0
1.4836 2.8806 -0.0699 0.916 0.376 -0.142 35 34 36 0 0
1.4895 2.8186 -0.0638 0.908 -0.249 -0.336 27 26 31 0 0
1.4381 2.7757 -0.0507 0.797 -0.465 -0.386 16 16 18 0 0
1.4318 2.7627 -0.0482 0.797 -0.465 -0.386 31 31 33 0 0
1.0119 2.5404 0.0436 0.490 -0.380 -0.785 42 42 44 0 0
0.8707 2.4868 0.0721 0.666 -0.174 -0.725 34 32 35 0 0
1.4876 2.8817 -0.0563 0.915 0.396 -0.077 30 29 33 0 0
1.4926 2.8649 -0.0552 0.989 0.131 -0.072 39 39 43 0 0
1.4948 2.8492 -0.0537 0.998 -0.042 -0.043 64 64 65 0 0
1.4398 2.7475 -0.0333 0.913 -0.348 -0.213 32 32 34 0 0
1.0171 2.5566 0.0559 0.913 0.336 -0.234 41 41 43 0 0
1.0294 2.5377 0.0561 0.432 -0.233 -0.871 40 40 42 0 0
0.8619 2.4758 0.0899 0.233 -0.835 -0.499 28 29 31 0 0
1.3406 3.3525 -0.0716 0.687 -0.688 -0.234 52 52 54 0 0
1.4798 2.9319 -0.0463 0.759 0.086 -0.645 19 19 21 0 0
1.4875 2.7643 -0.0285 0.883 -0.375 -0.283 19 19 21 0 0
1.0177 2.5433 0.0724 0.563 0.692 -0.452 43 44 46 0 0
1.0123 2.5294 0.0748 0.632 0.229 -0.740 43 44 46 0 0
1.3503 3.3672 -0.0600 0.668 -0.740 -0.072 63 64 68 0 0
1.3449 3.3536 -0.0576 0.724 -0.292 -0.625 55 56 58 0 0
1.3542 3.3342 -0.0569 0.544 0.069 -0.836 48 48 49 0 0
1.4797 2.9344 -0.0321 0.805 0.083 -0.587 20 20 22 0 0
1.4944 2.8692 -0.0271 0.886 0.460 -0.053 29 29 31 0 0
1.5019 2.7768 -0.0179 0.919 -0.305 -0.248 20 19 22 0 0
1.3520 3.3693 -0.0456 0.705 -0.709 0.025 54 54 59 0 0
1.3520 3.3535 -0.0439 0.683 -0.237 -0.691 56 56 59 0 0
1.4884 2.7388 0.0030 0.899 -0.263 -0.351 18 17 19 0 0
0.7100 2.4288 0.1659 0.700 -0.689 0.185 69 71 69 0 0
1.3592 3.3535 -0.0302 0.886 -0.327 -0.329 51 51 53 0 0
1.5048 2.8555 0.0016 0.880 0.398 -0.260 23 23 25 0 0
1.5210 2.8051 0.0046 0.743 -0.444 -0.501 41 41 43 0 0
1.5167 2.7916 0.0068 0.884 -0.324 -0.336 38 38 40 0 0
1.5139 2.7776 0.0088 0.850 -0.339 -0.402 38 37 39 0 0
1.5009 2.7520 0.0139 0.744 -0.395 -0.539 23 21 24 0 0
1.4951 2.7390 0.0163 0.762 -0.422 -0.491 18 16 20 0 0
1.5216 2.7924 0.0203 0.895 -0.278 -0.349 44 44 46 0 0
1.5176 2.7787 0.0225 0.886 -0.211 -0.413 37 36 39 0 0
1.5161 2.7643 0.0243 0.819 -0.319 -0.477 43 41 44 0 0
1.4298 2.6874 0.0474 0.938 -0.342 0.058 50 48 53 0 0
0.7804 2.4776 0.1797 0.190 -0.560 -0.806 49 49 51 0 0
0.7983 2.4414 0.1807 0.315 -0.093 -0.945 52 53 55 0 0
0.7966 2.4262 0.1827 0.323 -0.135 -0.937 55 57 56 0 0
0.7884 2.4127 0.1856 0.310 -0.483 -0.819 57 59 56 0 0
1.5051 3.1482 -0.0022 0.660 -0.179 -0.730 48 48 49 0 0
1.4323 2.6740 0.0630 0.462 -0.857 -0.228 60 58 63 0 0
0.8120 2.4087 0.1974 0.357 -0.418 -0.835 58 60 57 0 0
1.5273 3.1273 0.0110 0.827 -0.250 -0.504 55 55 57 0 0
1.5090 2.7863 0.0519 0.815 -0.281 -0.507 30 28 31 0 0
1.5064 2.7722 0.0539 0.927 -0.219 -0.306 46 43 47 0 0
1.5033 2.7583 0.0560 0.976 -0.137 -0.166 43 40 43 0 0
1.4988 2.7448 0.0583 0.933 -0.002 -0.361 60 57 60 0 0
1.4671 2.6803 0.0708 0.453 -0.786 -0.419 25 22 28 0 0
1.4488 2.6711 0.0750 0.515 -0.823 -0.239 51 49 53 0 0
0.8386 2.3882 0.2105 0.449 -0.590 -0.671 57 59 58 0 0
1.5569 2.9525 0.0398 0.832 0.110 -0.544 23 23 25 0 0
1.5204 2.7849 0.0646 0.834 -0.372 -0.408 11 10 12 0 0
1.5140 2.7720 0.0671 0.822 -0.451 -0.348 27 26 28 0 0
1.5087 2.7588 0.0695 0.863 -0.394 -0.315 49 48 51 0 0
1.5104 2.7434 0.0709 0.912 -0.185 -0.366 49 49 51 0 0
1.5193 2.7256 0.0713 0.808 -0.010 -0.589 61 61 61 0 0
1.4670 2.6826 0.0851 0.530 -0.816 -0.230 29 27 30 0 0
1.4471 2.6590 0.0911 0.583 -0.740 -0.336 49 47 50 0 0
0.8791 2.4420 0.2129 0.049 -0.772 -0.633 47 47 48 0 0
0.8719 2.3352 0.2259 0.139 -0.862 -0.487 66 69 69 0 0
0.8311 2.3301 0.2335 0.073 -0.852 -0.519 72 72 72 0 0
1.5620 3.1501 0.0316 0.787 -0.230 -0.573 33 33 35 0 0
1.5501 3.1240 0.0365 0.547 -0.267 -0.793 33 32 36 0 0
1.5562 3.1065 0.0374 0.592 -0.070 -0.803 37 36 41 0 0
1.5463 3.0950 0.0404 0.692 0.177 -0.700 48 47 50 0 0
1.5956 3.0014 0.0421 0.833 -0.313 -0.456 29 28 34 0 0
1.5638 2.9525 0.0530 0.828 0.021 -0.560 23 23 25 0 0
1.5260 2.7854 0.0780 0.822 -0.451 -0.348 10 10 12 0 0
1.5199 2.7725 0.0805 0.822 -0.451 -0.348 9 9 11 0 0
1.5147 2.7592 0.0828 0.830 -0.485 -0.274 27 27 29 0 0
1.5106 2.7456 0.0850 0.990 -0.134 -0.039 52 52 54 0 0
1.4616 2.6716 0.1017 0.984 -0.162 0.074 32 30 32 0 0
0.8822 2.4122 0.2309 -0.022 -0.435 -0.900 47 46 49 0 0
0.8934 2.3628 0.2344 0.401 0.289 -0.870 51 51 54 0 0
1.6272 3.0980 0.0404 0.572 -0.227 -0.788 33 31 36 0 0
1.5296 2.7866 0.0917 0.987 -0.161 -0.001 14 14 16 0 0
1.5251 2.7731 0.0939 0.860 -0.503 -0.082 10 10 12 0 0
1.5174 2.7607 0.0966 0.806 -0.591 -0.030 9 9 11 0 0
1.4918 2.6793 0.1100 0.523 -0.358 -0.774 33 32 32 0 0
1.4504 2.6775 0.1175 0.878 -0.170 0.448 27 26 27 0 0
0.9137 2.3596 0.2465 0.410 0.245 -0.878 46 44 50 0 0
1.6325 3.0985 0.0539 0.890 0.077 -0.449 31 30 34 0 0
1.5753 3.0743 0.0667 0.887 -0.175 -0.427 32 29 36 0 0
1.5706 3.0608 0.0690 0.921 -0.287 -0.265 31 28 35 0 0
1.6027 3.0039 0.0695 0.954 0.110 -0.278 30 32 34 0 0
1.5933 2.9922 0.0724 0.908 -0.380 -0.177 21 21 23 0 0
1.5156 2.8687 0.0997 0.922 -0.264 -0.284 29 29 31 0 0
1.5134 2.8544 0.1016 0.773 -0.452 -0.445 29 29 31 0 0
1.5118 2.7200 0.1165 0.915 -0.332 -0.228 15 15 15 0 0
1.4731 2.6876 0.1269 0.931 -0.212 0.297 29 29 31 0 0
1.4472 2.6808 0.1323 0.915 -0.285 0.286 21 21 23 0 0
1.0179 2.3959 0.2393 -0.042 -0.547 -0.836 63 61 62 0 0
0.9354 2.3716 0.2566 0.200 0.075 -0.977 54 52 54 0 0
0.9440 2.3539 0.2570 0.200 0.075 -0.977 48 46 50 0 0
0.9557 2.3354 0.2569 0.164 -0.170 -0.972 43 41 46 0 0
0.7676 2.2900 0.2951 -0.134 -0.913 -0.386 86 86 87 0 0
1.5762 3.0008 0.0890 0.805 -0.448 0.388 24 24 26 0 0
1.5681 2.9886 0.0918 0.805 -0.448 0.388 23 23 25 0 0
1.6037 2.8860 0.0966 0.852 -0.422 -0.308 19 19 21 0 0
1.5871 2.8767 0.1005 0.532 -0.834 -0.146 22 22 24 0 0
1.5198 2.8246 0.1182 0.993 -0.089 -0.080 32 32 34 0 0
1.0991 2.4221 0.2371 0.007 -0.363 -0.932 91 89 90 0 0
1.0600 2.4022 0.2462 -0.025 -0.398 -0.917 71 71 71 0 0
1.0691 2.3844 0.2465 -0.027 -0.592 -0.806 60 58 59 0 0
0.9863 2.3450 0.2656 0.176 0.077 -0.981 59 57 59 0 0
1.6360 3.1478 0.0768 0.888 -0.078 -0.452 74 74 74 0 0
1.6273 3.0754 0.0862 0.710 -0.414 -0.570 32 30 36 0 0
1.5115 2.8147 0.1353 0.938 -0.082 -0.337 34 34 36 0 0
1.5125 2.7544 0.1416 0.948 -0.204 -0.243 25 25 27 0 0
1.5225 2.7212 0.1434 0.882 -0.205 -0.424 15 15 19 0 0
1.4850 2.6735 0.1554 0.888 -0.208 -0.411 14 14 16 0 0
1.0212 2.3074 0.2785 0.251 -0.194 -0.948 60 59 60 0 0
1.5144 2.7861 0.1524 0.909 -0.337 -0.246 37 37 39 0 0
1.5248 2.7228 0.1573 0.658 -0.468 -0.589 30 30 32 0 0
1.4500 2.7018 0.1732 0.646 -0.410 -0.644 15 15 17 0 0
1.0654 2.2830 0.2882 0.327 -0.181 -0.928 49 49 51 0 0
1.4465 3.4909 0.1038 0.324 -0.811 0.487 44 44 48 0 0
1.6575 3.1448 0.1022 0.879 -0.133 -0.458 36 34 40 0 0
1.6563 3.1302 0.1040 0.895 -0.242 -0.376 44 43 46 0 0
1.5123 2.7892 0.1670 0.945 -0.175 -0.277 34 34 36 0 0
1.5126 2.7741 0.1686 0.810 -0.411 -0.418 38 38 40 0 0
1.5276 2.7243 0.1712 0.793 -0.442 -0.419 34 34 36 0 0
1.4060 2.6728 0.1990 0.921 -0.351 -0.168 14 14 16 0 0
1.2966 2.4797 0.2397 0.372 0.244 -0.895 25 24 27 0 0
1.6631 3.1453 0.1156 0.934 -0.196 -0.300 34 32 37 0 0
1.6603 3.1313 0.1177 0.933 -0.312 -0.181 35 34 38 0 0
1.6577 3.1171 0.1197 0.858 -0.241 -0.454 35 34 37 0 0
1.6548 3.1031 0.1217 0.858 -0.241 -0.454 37 36 39 0 0
1.5041 2.6893 0.1937 0.635 -0.196 -0.747 36 36 38 0 0
1.4181 2.6563 0.2132 0.479 -0.254 0.840 11 11 13 0 0
1.2409 2.4071 0.2725 0.961 -0.237 0.141 27 27 29 0 0
1.6638 3.1325 0.1314 0.878 -0.235 -0.418 32 31 34 0 0
1.4962 3.5105 0.1374 0.554 -0.826 0.106 47 47 49 0 0
1.6653 3.2105 0.1373 0.997 0.058 -0.042 35 34 40 0 0
1.6702 3.1327 0.1446 0.878 -0.235 -0.418 33 32 35 0 0
1.5701 2.8821 0.1900 0.761 0.243 -0.602 29 29 31 0 0
1.5545 2.7226 0.2098 0.875 0.006 -0.484 15 15 17 0 0
1.4049 2.6048 0.2504 0.948 0.026 -0.316 11 11 13 0 0
0.8288 2.2428 0.3971 -0.133 -0.964 -0.230 68 66 69 0 0
1.6892 3.1584 0.1528 0.905 -0.053 -0.422 41 41 43 0 0
1.5721 2.9291 0.1992 0.679 -0.731 0.067 23 23 25 0 0
1.5745 2.8981 0.2020 0.761 0.243 -0.602 28 28 30 0 0
1.5610 2.7228 0.2231 0.725 -0.329 -0.605 11 11 13 0 0
1.5382 2.7152 0.2282 0.828 0.245 -0.504 13 13 15 0 0
1.5215 2.7057 0.2324 0.914 0.403 0.046 14 14 16 0 0
1.4373 2.5972 0.2598 0.908 -0.317 0.276 11 11 13 0 0
1.4225 2.5867 0.2637 0.940 -0.200 0.276 11 11 13 0 0
1.5788 2.8991 0.2157 0.823 0.220 -0.524 25 25 27 0 0
1.5160 2.7097 0.2476 0.805 0.592 -0.046 14 14 16 0 0
1.5727 2.9187 0.2294 0.986 0.146 -0.083 23 23 25 0 0
1.4650 2.6682 0.2763 0.759 -0.443 0.478 18 18 20 0 0
1.3853 2.6327 0.2954 0.979 -0.193 -0.060 14 14 16 0 0
1.3887 2.6166 0.2965 0.999 -0.018 0.046 14 14 16 0 0
1.3986 2.5985 0.2964 0.973 -0.125 0.193 13 13 15 0 0
1.3927 2.5852 0.2990 0.734 -0.673 0.092 12 12 14 0 0
1.3815 2.5735 0.3023 0.734 -0.673 0.092 12 12 14 0 0
1.3729 2.5460 0.3069 0.877 0.233 -0.421 13 13 15 0 0
0.7948 2.2418 0.4502 -0.103 -0.979 -0.177 66 66 66 0 0
1.5788 2.9191 0.2428 0.992 0.095 -0.079 22 22 24 0 0
1.5169 2.7141 0.2761 0.796 0.583 -0.162 20 20 22 0 0
1.2471 2.4486 0.3562 0.370 -0.923 -0.102 13 13 15 0 0
1.2481 2.4332 0.3576 0.749 0.316 -0.583 12 12 14 0 0
1.7260 3.3066 0.1884 0.927 -0.249 -0.279 31 31 34 0 0
1.5657 2.7755 0.2748 0.919 -0.195 -0.342 12 12 14 0 0
1.4998 2.7520 0.2902 0.935 0.298 0.195 16 16 18 0 0
1.5084 2.7342 0.2903 0.826 0.564 0.020 20 20 22 0 0
1.5247 2.7139 0.2892 0.670 0.700 -0.247 23 23 25 0 0
1.3073 2.4791 0.3562 0.777 -0.629 0.017 19 20 22 0 0
1.3048 2.4647 0.3582 0.538 -0.782 -0.316 18 19 21 0 0
1.2585 2.4476 0.3690 0.740 0.400 -0.541 12 12 14 0 0
1.5679 2.7772 0.2888 0.972 -0.216 -0.094 14 14 16 0 0
1.5182 2.7334 0.3031 0.858 0.415 0.304 21 21 23 0 0
1.2951 2.4848 0.3729 0.957 -0.267 -0.116 23 24 26 0 0
1.2953 2.4696 0.3744 0.898 -0.362 -0.249 22 23 25 0 0
1.2537 2.4511 0.3845 0.723 0.422 -0.548 14 14 16 0 0
1.2593 2.4344 0.3852 0.806 0.456 -0.378 14 14 16 0 0
1.5498 3.5713 0.2255 0.509 -0.835 0.207 51 51 51 0 0
1.7146 3.2860 0.2219 0.757 -0.227 -0.612 27 25 28 0 0
1.2985 2.4860 0.3870 0.881 -0.444 -0.162 28 28 30 0 0
1.2849 2.4596 0.3924 0.430 -0.472 -0.770 24 24 26 0 0
1.2647 2.4502 0.3974 0.687 0.401 -0.606 21 21 23 0 0
0.6576 2.2361 0.5403 -0.093 -0.971 -0.222 87 87 89 0 0
1.5491 3.5745 0.2403 0.509 -0.835 0.207 50 50 50 0 0
1.5130 2.7398 0.3329 0.996 -0.082 0.025 25 25 27 0 0
1.3012 2.4874 0.4012 0.965 -0.231 -0.127 31 31 33 0 0
1.3043 2.4714 0.4022 0.881 -0.268 -0.389 32 32 34 0 0
1.2908 2.4601 0.4061 0.647 -0.281 -0.708 31 31 33 0 0
1.2682 2.4211 0.4146 0.888 -0.009 -0.460 17 17 19 0 0
1.7084 3.4168 0.2391 0.773 -0.033 -0.633 29 29 32 0 0
1.4688 2.6809 0.3625 0.657 -0.607 0.447 35 35 37 0 0
1.3009 2.4897 0.4159 0.956 -0.042 -0.290 35 35 37 0 0
1.5532 3.5944 0.2675 0.179 -0.954 0.239 40 40 42 0 0
1.5322 2.8287 0.3494 0.558 0.527 -0.642 16 16 18 0 0
1.3742 2.5462 0.4102 0.539 -0.781 -0.316 31 31 33 0 0
1.5807 3.6014 0.2762 0.162 -0.961 0.225 44 44 46 0 0
1.5184 2.8509 0.3647 0.674 -0.160 -0.721 16 16 18 0 0
1.4955 2.7828 0.3763 0.780 0.002 0.626 23 23 25 0 0
0.9457 2.2524 0.5428 0.416 -0.719 0.557 35 35 37 0 0
0.9196 2.2455 0.5644 0.562 -0.643 0.520 35 35 37 0 0
1.6594 3.0187 0.3481 0.714 -0.689 0.120 15 15 17 0 0
1.4539 2.6496 0.4279 0.401 -0.916 0.018 36 36 38 0 0
1.2302 2.4274 0.4968 0.705 -0.044 0.708 39 39 41 0 0
1.3352 2.5820 0.4744 0.630 -0.727 0.273 33 33 35 0 0
1.3279 2.5689 0.4772 0.962 0.139 0.235 34 34 36 0 0
1.3382 2.5507 0.4769 0.926 0.376 0.032 35 35 37 0 0
1.3466 2.5961 0.4856 0.563 -0.794 0.231 33 33 35 0 0
1.3325 2.5851 0.4897 0.756 -0.633 0.169 34 34 36 0 0
1.3285 2.5710 0.4919 0.885 0.401 -0.238 35 35 37 0 0
1.3444 2.5990 0.5008 0.563 -0.794 0.231 33 33 35 0 0
1.3291 2.5883 0.5051 0.833 -0.400 -0.382 34 34 36 0 0
1.2098 2.4243 0.5468 0.841 0.541 -0.001 41 41 43 0 0
1.1798 2.4173 0.5539 0.878 -0.472 -0.087 43 43 45 0 0
1.1093 2.4212 0.5685 0.985 -0.056 0.164 46 46 48 0 0
1.1033 2.4074 0.5712 0.773 -0.633 0.048 47 47 49 0 0
1.0918 2.3951 0.5749 0.735 -0.673 0.088 47 47 49 0 0
1.6121 3.0461 0.4143 0.711 0.701 0.049 17 17 19 0 0
1.3361 2.5733 0.5201 0.799 -0.516 -0.308 36 36 38 0 0
1.0882 2.4291 0.5876 0.750 -0.057 -0.660 45 45 47 0 0
1.0624 2.4207 0.5940 0.849 -0.240 0.471 46 46 48 0 0
1.0679 2.4037 0.5945 0.972 0.117 0.203 46 46 48 0 0
1.0710 2.3874 0.5954 0.970 0.026 0.243 45 45 47 0 0
0.7731 2.3240 0.6658 0.464 0.013 0.886 30 30 32 0 0
1.4151 2.6733 0.5083 0.598 -0.787 -0.151 31 31 33 0 0
1.3552 2.6155 0.5269 0.656 -0.755 -0.002 32 32 34 0 0
1.3503 2.6018 0.5293 0.841 -0.507 -0.189 32 32 34 0 0
1.3339 2.5762 0.5353 0.923 -0.369 0.113 35 35 37 0 0
1.0901 2.4153 0.6039 0.917 0.380 0.118 45 45 47 0 0
0.6599 2.2109 0.7172 0.070 -0.985 -0.157 44 43 49 0 0
1.5102 2.7667 0.4934 0.614 0.657 0.437 25 25 27 0 0
1.4388 2.7595 0.5097 0.621 0.646 -0.443 28 28 30 0 0
1.3411 2.5916 0.5473 0.797 -0.597 -0.094 33 33 35 0 0
1.3339 2.5785 0.5502 0.954 -0.292 0.072 33 33 35 0 0
1.3299 2.5644 0.5524 0.995 -0.096 0.027 33 33 35 0 0
1.1738 2.4408 0.5986 0.884 0.402 0.240 42 42 44 0 0
0.6162 2.2233 0.7416 0.187 -0.982 -0.014 40 39 45 0 0
1.3447 2.6233 0.5586 0.657 -0.338 -0.674 30 30 32 0 0
1.3390 2.6098 0.5611 0.757 -0.275 -0.593 31 31 33 0 0
1.3387 2.5946 0.5626 0.488 -0.714 -0.502 32 32 34 0 0
1.3459 2.5772 0.5627 0.736 -0.521 -0.432 32 32 34 0 0
1.3411 2.5634 0.5651 0.691 -0.494 -0.527 32 32 34 0 0
1.1803 2.4874 0.6079 0.732 -0.667 0.139 39 39 41 0 0
1.1723 2.4742 0.6109 0.631 -0.597 -0.496 39 39 41 0 0
1.1510 2.4648 0.6165 0.573 -0.463 -0.676 40 40 42 0 0
1.1323 2.4545 0.6216 0.437 -0.194 -0.878 41 41 43 0 0
1.1025 2.4318 0.6304 0.741 0.375 -0.557 41 41 43 0 0
1.4279 2.7525 0.5428 0.740 -0.404 -0.539 26 26 28 0 0
1.3432 2.6261 0.5737 0.887 -0.103 0.451 29 29 31 0 0
1.3228 2.6170 0.5791 0.836 -0.284 0.469 30 30 32 0 0
1.3341 2.5983 0.5784 0.671 -0.704 0.233 29 29 31 0 0
1.1626 2.4792 0.6279 0.899 -0.385 -0.210 37 37 39 0 0
1.1517 2.4668 0.6315 0.625 -0.379 -0.683 37 37 39 0 0
1.1527 2.4511 0.6328 0.134 -0.123 -0.983 37 37 39 0 0
1.4299 2.7390 0.5587 0.835 -0.099 -0.541 23 23 25 0 0
1.1182 2.4319 0.6577 0.766 -0.446 0.464 36 36 38 0 0
1.5649 3.1252 0.5065 0.373 -0.914 -0.158 13 13 15 0 0
1.4447 2.7519 0.5691 0.971 -0.100 0.218 22 22 24 0 0
1.4319 2.7407 0.5731 0.884 0.018 -0.467 22 22 24 0 0
1.2242 2.4970 0.6430 0.856 -0.003 -0.518 31 31 33 0 0
0.2808 2.1131 0.8920 0.200 -0.902 -0.383 171 171 171 0 0
1.4521 2.7519 0.5825 0.836 0.109 -0.538 19 19 21 0 0
1.4535 2.7362 0.5837 0.698 -0.119 -0.707 20 20 22 0 0
1.3716 2.6550 0.6100 0.682 -0.731 -0.027 20 20 22 0 0
1.2331 2.4967 0.6563 0.945 0.212 -0.249 28 28 30 0 0
1.7165 2.9528 0.5182 0.956 -0.229 -0.185 18 18 20 0 0
1.4431 2.7419 0.6006 0.698 0.066 -0.713 18 18 20 0 0
1.4049 2.6623 0.6168 0.595 0.077 -0.800 19 19 21 0 0
1.2152 2.4886 0.6765 0.842 -0.200 -0.500 27 27 29 0 0
1.4468 2.6820 0.6204 0.864 -0.420 -0.278 20 20 22 0 0
1.3086 2.5714 0.6626 0.948 -0.309 0.077 16 16 18 0 0
1.3035 2.5575 0.6650 0.942 -0.336 -0.001 17 17 19 0 0
1.2899 2.5485 0.6842 0.315 -0.723 -0.615 16 16 18 0 0
1.2512 2.5290 0.6950 0.246 -0.698 -0.672 18 18 20 0 0
1.5849 2.9309 0.5952 0.753 -0.627 0.202 25 25 27 0 0
1.7965 3.3900 0.5180 0.776 0.629 0.046 38 38 40 0 0
1.7687 3.3860 0.5249 0.807 0.566 0.171 31 31 33 0 0
1.7840 3.3643 0.5233 0.817 0.548 0.181 31 31 33 0 0
1.5825 2.9037 0.6132 0.485 -0.874 0.041 25 25 27 0 0
1.4717 2.7575 0.6528 0.728 -0.344 -0.593 12 12 14 0 0
1.7532 3.4108 0.5412 0.835 0.505 0.220 34 34 36 0 0
1.7624 3.3914 0.5408 0.824 0.512 0.243 32 32 34 0 0
1.7724 3.3719 0.5403 0.791 0.502 0.350 29 29 31 0 0
1.8171 3.3870 0.5431 0.606 0.678 -0.415 31 31 33 0 0
1.7710 3.3907 0.5538 0.977 -0.028 0.210 30 30 32 0 0
1.7903 3.4164 0.5617 0.694 0.586 -0.418 23 23 25 0 0
1.7836 3.4038 0.5645 0.995 0.039 -0.095 26 26 28 0 0
1.7772 3.3909 0.5672 0.901 -0.381 0.210 27 27 29 0 0
1.7723 3.3775 0.5696 0.857 -0.182 0.482 26 26 28 0 0
1.7735 3.3615 0.5708 0.845 0.138 0.516 24 24 26 0 0
1.5479 2.8772 0.6689 0.741 -0.669 -0.057 26 26 28 0 0
1.7864 3.4209 0.5772 0.480 0.466 -0.744 20 20 22 0 0
1.7843 3.4063 0.5790 0.916 0.181 -0.357 20 20 22 0 0
1.7727 3.3956 0.5828 0.943 -0.179 -0.282 21 21 23 0 0
1.7705 3.3811 0.5847 0.943 -0.179 -0.282 22 22 24 0 0
1.7667 3.3671 0.5868 0.973 -0.166 -0.159 21 21 23 0 0
1.5304 2.8703 0.6888 0.715 -0.693 -0.092 25 25 27 0 0
1.5680 2.8422 0.6823 0.234 -0.970 0.060 19 19 21 0 0
1.8187 3.3948 0.5867 0.267 -0.128 -0.955 21 21 23 0 0
1.7681 3.4004 0.5985 0.825 -0.091 -0.558 20 20 22 0 0
1.7674 3.3851 0.6000 0.825 -0.091 -0.558 21 21 23 0 0
1.5140 2.8630 0.7086 0.508 -0.859 -0.057 25 25 27 0 0
1.5443 2.8374 0.7035 0.131 -0.991 0.003 18 18 20 0 0
1.7830 3.3843 0.6262 0.607 -0.726 -0.323 34 34 36 0 0
1.6103 2.9368 0.7689 0.989 -0.064 0.131 21 21 23 0 0
1.6115 2.9389 0.7836 0.584 -0.786 -0.202 16 16 17 0 0
1.5940 2.9297 0.7888 0.948 0.247 0.203 26 26 26 0 0
1.5671 2.8162 0.8055 0.735 -0.354 0.578 38 38 40 0 0
1.8044 3.3923 0.7102 0.503 -0.296 -0.812 21 21 23 0 0
1.8207 3.3700 0.7079 0.902 -0.126 -0.413 17 17 19 0 0
1.8649 3.3364 0.6995 0.993 0.112 0.036 13 13 15 0 0
1.6170 2.9395 0.7972 0.291 -0.906 -0.307 15 15 16 0 0
1.8363 3.3818 0.7179 -0.168 -0.305 -0.937 28 28 30 0 0
1.6264 2.9387 0.8100 0.242 -0.925 -0.294 15 15 17 0 0
1.4193 2.7775 0.8773 0.787 -0.283 -0.548 40 40 42 0 0
1.6855 3.7659 0.7393 0.760 -0.283 -0.585 70 70 72 0 0
1.7500 2.9583 0.7914 0.742 -0.641 0.196 25 23 28 0 0
1.5476 2.9072 0.8483 0.722 0.282 0.632 37 36 40 0 0
1.2369 2.6501 0.9509 -0.173 -0.046 -0.984 36 36 38 0 0
1.7007 3.8426 0.7443 0.858 -0.053 -0.511 169 169 167 0 0
1.8229 3.4086 0.7491 0.957 0.127 0.262 33 33 35 0 0
1.8380 3.3867 0.7470 0.910 -0.318 -0.266 33 33 35 0 0
1.6597 2.9474 0.8309 0.011 -0.999 -0.032 14 14 16 0 0
1.8139 3.4152 0.7660 0.975 0.148 0.166 34 34 36 0 0
1.8385 3.3894 0.7617 0.995 -0.089 0.038 34 34 36 0 0
1.8375 3.3743 0.7633 0.989 -0.143 -0.040 36 36 38 0 0
1.5381 3.1651 0.8596 0.820 0.487 0.299 13 13 15 0 0
1.5509 3.1446 0.8580 0.820 0.487 0.299 13 13 15 0 0
1.5521 2.8028 0.8865 0.500 0.273 0.822 39 36 40 0 0
1.3726 2.7688 0.9366 -0.014 -0.891 -0.454 44 43 49 0 0
1.1989 2.6821 0.9895 0.658 0.250 0.711 43 42 47 0 0
1.1375 2.6375 1.0095 0.629 0.224 0.744 43 43 45 0 0
1.8276 3.3502 0.7829 0.924 0.263 0.278 15 15 17 0 0
1.7247 2.9445 0.8442 0.509 -0.859 0.053 15 15 17 0 0
1.8234 3.4013 0.7949 0.915 -0.141 0.378 16 16 18 0 0
1.8229 3.4044 0.8099 0.958 0.190 -0.216 18 17 19 0 0
1.7154 2.9274 0.9084 0.819 -0.569 -0.077 14 13 16 0 0
1.7166 3.8411 0.8488 0.410 -0.600 -0.687 171 169 170 0 0
1.7457 3.8114 0.8433 0.665 -0.740 -0.103 171 170 171 0 0
1.7338 3.8008 0.8474 0.698 -0.702 -0.138 153 153 155 0 0
1.7066 2.9178 0.9267 0.685 -0.714 -0.143 14 14 16 0 0
1.7648 3.8378 0.8514 0.663 -0.721 -0.202 170 169 167 0 0
1.7540 3.8268 0.8553 0.663 -0.721 -0.202 170 169 167 0 0
1.7431 3.8157 0.8591 0.663 -0.721 -0.202 171 170 169 0 0
1.7323 3.8047 0.8630 0.663 -0.721 -0.202 161 161 163 0 0
1.8994 3.3374 0.8549 0.497 0.806 -0.322 25 25 27 0 0
1.7699 3.8386 0.8654 0.663 -0.721 -0.202 171 170 168 0 0
1.7591 3.8276 0.8693 0.663 -0.721 -0.202 170 169 167 0 0
1.7482 3.8165 0.8732 0.663 -0.721 -0.202 169 168 167 0 0
1.7374 3.8054 0.8771 0.663 -0.721 -0.202 158 158 160 0 0
1.8720 3.3515 0.8764 0.542 0.833 -0.111 15 15 17 0 0
1.9425 3.2916 0.8617 0.536 0.831 -0.151 17 17 19 0 0
1.7278 2.9153 0.9513 0.999 0.047 -0.006 18 18 20 0 0
1.2958 2.8766 1.0738 0.769 0.572 0.286 44 44 46 0 0
1.3094 2.8562 1.0717 0.898 0.403 0.177 56 56 58 0 0
1.3090 2.8405 1.0731 0.954 -0.246 0.173 60 59 62 0 0
1.7512 3.8183 0.8878 0.838 -0.542 -0.073 168 167 166 0 0
1.7423 3.8063 0.8912 0.870 -0.489 -0.060 128 128 130 0 0
1.8692 3.3555 0.8919 0.541 0.837 -0.078 13 13 15 0 0
1.3011 2.8615 1.0894 0.856 0.338 0.391 50 49 54 0 0
1.3026 2.8451 1.0903 0.941 -0.190 0.280 57 56 59 0 0
1.2965 2.8313 1.0931 0.682 -0.700 0.213 56 56 55 0 0
1.8657 3.3442 0.9089 0.515 0.827 -0.224 12 12 14 0 0
1.6144 2.9142 1.0134 0.180 -0.954 -0.239 15 15 17 0 0
1.5502 3.1114 1.0313 0.721 0.685 0.104 22 22 24 0 0
1.5618 3.0966 1.0602 0.743 0.654 0.144 25 25 27 0 0
1.8104 3.8127 0.9802 0.493 -0.715 -0.496 167 167 165 0 0
1.8021 3.8036 0.9989 0.748 -0.472 -0.466 91 92 94 0 0
1.7957 3.7905 1.0017 0.748 -0.472 -0.466 61 62 64 0 0
1.8318 3.8089 1.0053 0.489 -0.870 0.061 152 152 151 0 0
1.8286 3.8135 1.0215 0.396 -0.833 0.387 146 146 145 0 0
1.8740 3.3817 1.0405 0.523 0.712 -0.468 24 22 25 0 0
1.9134 3.3343 1.0324 0.654 0.668 -0.356 20 18 18 0 0
1.1860 2.7986 1.3034 0.827 -0.548 -0.124 52 53 58 0 0
1.1837 2.7832 1.3052 0.918 -0.390 0.067 51 52 57 0 0
1.7983 3.8243 1.0923 0.503 -0.861 0.074 86 85 90 0 0
1.5941 3.0170 1.2128 0.828 -0.424 -0.366 44 44 46 0 0
1.6004 3.0174 1.2266 0.828 -0.424 -0.366 42 42 44 0 0
2.0166 3.2469 1.0986 0.787 0.609 -0.105 28 28 30 0 0
1.6066 3.0177 1.2403 0.828 -0.424 -0.366 40 40 43 0 0
1.7965 3.8022 1.1415 0.908 -0.179 -0.378 66 65 71 0 0
1.9889 3.2457 1.1223 0.424 -0.906 0.000 28 28 30 0 0
1.6125 3.0182 1.2541 0.988 0.141 -0.059 38 38 40 0 0
1.6039 3.0240 1.2720 0.961 0.276 -0.007 34 34 37 0 0
1.9865 3.3137 1.1485 0.964 -0.051 -0.262 28 28 30 0 0
1.9907 3.2504 1.1517 0.854 0.519 0.041 29 29 31 0 0
1.6038 3.0266 1.2876 0.883 0.441 0.157 25 25 27 0 0
1.9773 3.3203 1.1661 0.713 -0.312 -0.628 25 25 27 0 0
1.9550 3.2370 1.1789 0.633 -0.297 -0.715 29 29 31 0 0
1.6857 2.8446 1.2905 0.942 -0.215 -0.258 30 29 34 0 0
1.9698 3.3417 1.1822 0.871 0.488 -0.059 28 28 30 0 0
1.1798 2.7609 1.4706 0.343 -0.889 -0.303 39 38 44 0 0
2.0093 3.2819 1.1892 0.983 0.165 -0.084 21 21 23 0 0
1.9804 3.2322 1.2017 0.914 -0.246 -0.321 30 30 32 0 0
1.6786 2.8366 1.3243 0.883 -0.400 -0.247 34 34 38 0 0
1.8309 3.8051 1.2251 0.888 -0.318 -0.332 49 48 53 0 0
1.9902 3.3234 1.2076 0.949 0.298 0.104 16 16 18 0 0
1.9961 3.3055 1.2070 0.939 0.331 0.089 17 17 19 0 0
1.2125 2.7074 1.4966 0.831 0.555 -0.027 45 44 49 0 0
1.1789 2.6375 1.5120 0.090 -0.663 -0.744 57 57 59 0 0
1.0511 2.5785 1.5566 0.799 -0.580 -0.160 148 148 148 0 0
1.9891 3.3267 1.2230 0.963 0.093 0.252 17 17 19 0 0
1.9968 3.3080 1.2218 0.979 0.165 0.118 20 20 22 0 0
2.0110 3.2867 1.2187 0.993 -0.101 0.055 21 21 23 0 0
1.9919 3.2330 1.2285 0.831 -0.459 -0.314 31 31 33 0 0
1.0638 2.5934 1.5681 0.224 -0.943 -0.247 76 76 76 0 0
1.0417 2.5836 1.5758 0.480 -0.857 -0.190 110 110 110 0 0
1.1786 2.7228 1.5391 0.044 -0.861 -0.507 45 44 49 0 0
1.0745 2.5927 1.5812 0.264 -0.959 -0.103 69 68 71 0 0
1.0487 2.5840 1.5901 0.469 -0.866 -0.174 93 93 93 0 0
2.0282 3.2545 1.2458 0.958 -0.086 0.274 33 33 35 0 0
2.0004 3.2505 1.2550 0.666 -0.719 0.202 32 32 34 0 0
1.5522 2.9215 1.4217 0.725 0.374 0.578 56 56 58 0 0
1.6717 2.8180 1.3901 0.858 -0.482 -0.180 38 39 42 0 0
1.0741 2.5952 1.5977 0.290 -0.957 -0.028 70 69 71 0 0
1.0639 2.5658 1.6030 0.944 0.023 -0.328 156 156 155 0 0
2.0085 3.2499 1.2677 0.639 -0.754 -0.156 32 32 34 0 0
1.5558 2.9859 1.4321 0.550 -0.819 -0.162 42 42 44 0 0
1.5349 2.7416 1.4551 0.170 -0.119 -0.978 12 13 15 0 0
1.8331 3.8525 1.3003 0.965 -0.261 0.015 68 69 74 0 0
1.8291 3.8381 1.3026 0.965 -0.261 0.015 55 55 60 0 0
2.0458 3.2528 1.2706 0.806 -0.234 -0.544 29 29 31 0 0
2.0406 3.2396 1.2732 0.685 -0.361 -0.633 31 31 33 0 0
1.5600 2.9871 1.4465 0.844 -0.527 -0.099 35 34 39 0 0
1.6694 2.8083 1.4227 0.963 0.203 -0.178 34 35 39 0 0
1.6766 2.7904 1.4215 0.589 -0.618 -0.521 18 18 20 0 0
1.8336 3.8555 1.3158 0.965 -0.261 0.015 62 63 68 0 0
1.8297 3.8411 1.3181 0.965 -0.261 0.015 50 51 56 0 0
1.5957 2.8827 1.4576 0.600 0.791 -0.120 50 49 54 0 0
1.1920 2.6963 1.6021 0.152 -0.983 -0.099 57 57 59 0 0
1.8268 3.8620 1.3336 0.923 -0.372 0.099 64 65 69 0 0
1.8265 3.8295 1.3358 0.995 -0.099 0.027 46 47 51 0 0
1.2413 2.6996 1.6021 0.606 0.677 -0.418 59 59 61 0 0
1.8293 3.8640 1.3485 0.910 -0.412 0.038 75 76 80 0 0
1.8253 3.8496 1.3508 0.973 -0.222 -0.069 66 67 71 0 0
1.5401 3.0020 1.5000 0.798 0.424 0.428 16 17 19 0 0
1.5612 2.9786 1.4945 0.513 -0.821 0.250 29 30 33 0 0
1.7035 2.7888 1.4596 0.495 0.061 -0.867 53 53 54 0 0
1.6808 2.7193 1.4717 0.760 -0.561 -0.329 55 53 54 0 0
1.7633 3.6374 1.4010 0.957 -0.290 0.001 23 24 27 0 0
1.5403 2.9595 1.5346 0.801 -0.587 0.116 36 36 40 0 0
1.7305 2.7538 1.4841 0.593 -0.521 -0.614 85 83 83 0 0
1.8284 3.6791 1.4084 -0.143 -0.291 -0.946 29 28 33 0 0
1.3577 2.6123 1.6502 0.095 0.118 -0.989 44 44 49 0 0
1.3553 2.5814 1.6530 0.085 -0.137 -0.987 83 83 85 0 0
1.8537 3.8782 1.4673 0.690 -0.724 0.021 68 69 71 0 0
1.8441 3.8665 1.4713 0.770 -0.635 -0.070 54 55 59 0 0
1.8395 3.8523 1.4738 0.766 -0.584 -0.268 46 47 51 0 0
1.4565 2.6075 1.6813 0.028 -0.122 -0.992 54 55 58 0 0
1.3247 2.6001 1.7273 0.110 -0.982 -0.153 49 49 53 0 0
1.8603 3.8947 1.4801 0.819 -0.551 0.160 113 113 116 0 0
1.8514 3.8826 1.4839 0.819 -0.551 0.160 75 76 79 0 0
1.8427 3.8704 1.4876 0.901 -0.407 0.154 64 64 68 0 0
1.9773 2.9295 1.4974 0.828 -0.547 -0.126 13 13 15 0 0
1.8519 3.8856 1.4996 0.931 0.244 0.272 90 90 94 0 0
1.9515 2.9569 1.5202 0.511 0.275 -0.814 12 12 14 0 0
1.9742 2.9332 1.5137 0.631 -0.528 -0.569 13 13 15 0 0
1.9644 2.9216 1.5178 0.795 -0.556 -0.241 23 23 25 0 0
1.9609 2.9076 1.5198 0.819 -0.521 0.242 21 21 23 0 0
1.9319 2.8724 1.5320 0.590 -0.575 0.566 20 20 22 0 0
1.8111 2.8539 1.5753 0.022 -0.466 -0.884 84 84 82 0 0
1.8677 2.7754 1.5757 0.458 -0.855 -0.244 87 86 84 0 0
2.0614 3.2881 1.4930 0.947 -0.283 -0.154 38 38 40 0 0
1.9473 2.8872 1.5566 0.995 -0.005 -0.098 48 48 50 0 0
1.9755 2.9100 1.5608 0.657 -0.646 -0.388 40 40 42 0 0
1.9596 2.9005 1.5670 0.906 -0.163 -0.391 60 59 62 0 0
1.9566 2.8863 1.5688 0.799 0.114 -0.591 82 80 83 0 0
1.9119 2.7804 1.5908 0.502 -0.672 -0.545 56 54 56 0 0
1.9987 2.9193 1.5674 0.478 -0.861 -0.171 63 63 65 0 0
1.9829 2.9098 1.5736 0.657 -0.646 -0.388 79 79 81 0 0
1.9320 2.7911 1.5985 0.400 -0.913 0.085 45 43 46 0 0
2.0452 2.9048 1.5670 0.518 -0.771 -0.371 83 83 85 0 0
2.0334 2.8940 1.5718 0.560 -0.755 -0.340 86 86 88 0 0
2.0219 2.8830 1.5766 0.848 -0.476 -0.232 90 88 91 0 0
2.0183 2.8692 1.5787 0.891 0.229 -0.392 87 85 88 0 0
1.9545 2.8617 1.6019 0.779 -0.476 -0.407 82 80 83 0 0
1.9442 2.8502 1.6062 0.742 -0.655 -0.145 70 68 72 0 0
1.9445 2.7438 1.6122 0.876 -0.371 0.307 25 23 26 0 0
2.0609 2.9167 1.5760 0.537 -0.772 -0.341 79 79 81 0 0
2.0520 2.8897 1.5808 0.936 -0.249 -0.247 80 80 82 0 0
1.9491 2.7598 1.6250 0.778 -0.615 0.125 24 22 25 0 0
1.9259 2.7526 1.6338 0.517 -0.841 0.160 23 21 25 0 0
2.0546 2.9823 1.5900 0.687 -0.535 0.491 69 66 70 0 0
2.0468 2.9700 1.5935 0.632 -0.713 0.303 72 69 72 0 0
2.0325 2.9602 1.5992 0.535 -0.825 0.182 76 75 78 0 0
2.0589 2.9985 1.6029 0.685 -0.612 0.395 67 66 71 0 0
2.0463 2.9880 1.6080 0.747 -0.481 0.459 69 67 72 0 0
2.0366 2.9764 1.6122 0.770 -0.444 0.459 69 68 73 0 0
2.0256 2.9653 1.6168 0.741 -0.431 0.516 67 66 71 0 0
1.9874 2.9337 1.6324 0.745 -0.131 0.654 49 49 51 0 0
1.0593 2.6222 1.9864 0.118 0.161 -0.980 49 48 53 0 0
1.9319 3.9254 1.6136 0.263 -0.895 0.360 175 174 175 0 0
2.1574 3.2677 1.5676 0.628 -0.720 -0.296 55 54 59 0 0
2.0534 2.9879 1.6209 0.772 -0.596 0.223 61 59 65 0 0
2.0288 2.9820 1.6302 0.776 -0.404 0.483 54 53 59 0 0
1.9468 2.8746 1.6660 0.427 -0.759 -0.492 19 18 24 0 0
1.9155 2.8551 1.6784 0.281 -0.495 -0.822 19 17 23 0 0
0.9785 2.5657 2.0359 -0.051 -0.931 0.362 109 111 108 0 0
2.0273 3.0004 1.6452 0.719 -0.518 0.464 41 39 45 0 0
2.0217 2.9873 1.6480 0.985 -0.160 0.071 36 33 40 0 0
1.9659 2.8856 1.6739 0.231 -0.611 -0.757 15 13 19 0 0
1.9513 2.8755 1.6798 0.302 -0.597 -0.743 16 14 20 0 0
2.1419 3.1113 1.6125 0.297 -0.952 0.073 57 56 61 0 0
2.0232 3.0199 1.6611 0.919 0.023 0.393 37 35 38 0 0
1.9971 2.8921 1.6776 0.385 -0.788 -0.481 16 13 19 0 0
2.0665 2.8845 1.6679 0.431 -0.337 -0.837 22 21 25 0 0
2.1703 3.2149 1.6426 0.878 -0.149 0.455 61 61 66 0 0
2.0916 3.0170 1.6824 0.926 0.376 0.016 15 15 17 0 0
2.0555 3.0155 1.6959 0.183 0.303 -0.935 15 15 17 0 0
2.0797 2.9303 1.6914 0.904 -0.253 -0.343 32 31 34 0 0
2.0810 2.9146 1.6917 0.864 -0.441 -0.243 40 40 41 0 0
1.9181 3.8535 1.7195 0.948 0.259 -0.187 46 45 50 0 0
2.0757 3.0717 1.7010 0.928 -0.305 0.215 14 14 17 0 0
2.0798 3.0548 1.7003 0.949 0.264 -0.175 14 14 16 0 0
2.1011 3.0313 1.6935 0.687 0.458 -0.564 14 14 16 0 0
2.1175 3.0097 1.6885 0.660 0.174 -0.731 14 14 16 0 0
2.1405 2.9706 1.6819 0.656 -0.754 0.030 19 19 20 0 0
2.0956 2.9421 1.7002 0.778 -0.520 -0.352 43 43 43 0 0
2.0955 2.9269 1.7010 0.764 -0.638 0.099 45 45 47 0 0
2.0901 2.9138 1.7038 0.884 -0.464 0.063 48 48 49 0 0
2.0839 2.9009 1.7067 0.678 -0.731 0.079 48 48 49 0 0
2.1144 2.9679 1.7072 0.744 -0.316 -0.589 41 41 41 0 0
2.0977 2.9287 1.7155 0.774 -0.623 -0.112 49 49 49 0 0
2.0949 2.9146 1.7173 0.851 -0.479 -0.217 48 48 49 0 0
2.0729 2.8924 1.7267 0.517 -0.853 -0.072 32 32 34 0 0
2.1374 3.0225 1.7112 0.450 0.031 -0.893 26 25 30 0 0
2.1289 2.9802 1.7165 0.687 -0.453 -0.568 45 46 47 0 0
2.1263 2.9660 1.7182 0.751 -0.547 -0.371 47 48 47 0 0
2.1003 2.9303 1.7299 0.768 -0.549 -0.330 41 41 42 0 0
2.0905 2.9036 1.7350 0.924 -0.340 -0.175 29 28 31 0 0
2.1236 2.9545 1.7352 0.580 -0.514 -0.631 41 42 45 0 0
2.1011 2.9326 1.7449 0.875 -0.393 -0.283 27 27 29 0 0
2.0960 2.9193 1.7475 0.968 -0.187 -0.166 26 26 28 0 0
2.1409 3.1948 1.7321 -0.177 -0.401 -0.899 20 21 23 0 0
2.1368 3.1811 1.7344 -0.064 -0.530 -0.846 15 16 19 0 0
2.1597 3.0648 1.7314 0.580 -0.148 -0.801 34 35 39 0 0
2.1641 3.0327 1.7313 0.832 -0.364 -0.419 44 44 49 0 0
2.1843 3.0882 1.7362 0.709 -0.340 -0.617 33 37 40 0 0
2.1684 3.0033 1.7465 0.732 -0.668 -0.136 39 40 44 0 0
1.8915 3.9687 1.8217 0.941 -0.328 -0.082 176 176 178 0 0
1.8867 3.9545 1.8243 0.941 -0.328 -0.082 157 157 160 0 0
2.1925 3.0876 1.7485 0.591 -0.208 -0.780 42 43 45 0 0
2.1904 3.0733 1.7500 0.552 -0.194 -0.811 44 47 46 0 0
2.1857 3.0144 1.7547 0.922 -0.173 -0.345 29 30 34 0 0
1.9045 3.9657 1.8333 0.376 -0.885 0.275 177 177 179 0 0
2.1711 3.0227 1.7754 0.934 -0.242 0.261 22 23 27 0 0
1.0761 3.0364 2.1993 0.749 -0.248 0.614 18 17 23 0 0
1.0821 3.0174 2.1979 0.676 -0.320 0.664 18 17 23 0 0
1.9026 3.9700 1.8502 0.460 -0.839 0.290 176 176 178 0 0
2.2021 3.0436 1.7777 0.931 -0.110 0.349 24 23 28 0 0
2.1866 3.0193 1.7849 0.881 0.036 0.471 26 27 31 0 0
2.2847 3.1042 1.7580 0.035 0.265 -0.964 43 44 48 0 0
2.1975 3.0785 1.7933 0.383 -0.280 0.880 27 29 32 0 0
2.1784 3.0708 1.8011 0.432 -0.170 0.886 27 29 32 0 0
2.2965 3.1324 1.7673 0.162 0.206 -0.965 41 42 45 0 0
1.8883 3.9705 1.9052 0.588 -0.795 -0.152 124 124 127 0 0
2.3331 3.1654 1.7667 0.163 -0.958 -0.236 46 47 51 0 0
1.9312 3.9361 1.9063 0.767 -0.436 -0.471 92 90 95 0 0
1.9316 3.9194 1.9069 0.954 0.053 -0.296 76 74 79 0 0
1.9364 3.9005 1.9058 0.905 0.196 -0.377 65 62 69 0 0
1.9363 3.9204 1.9214 0.876 -0.254 -0.411 86 85 91 0 0
1.9895 3.7961 1.9058 0.947 0.164 -0.275 33 33 38 0 0
1.5588 2.5375 2.1342 0.494 -0.558 -0.667 58 57 61 0 0
2.3453 3.3206 1.8008 0.471 0.528 -0.707 45 49 52 0 0
2.0804 3.6625 1.9077 0.797 0.349 0.493 49 51 53 0 0
1.6459 2.5363 2.1647 0.881 -0.160 -0.445 49 50 54 0 0
1.0740 2.5159 2.4324 -0.146 -0.964 -0.223 76 76 76 0 0
2.0983 2.7846 2.0486 0.471 -0.881 -0.042 19 20 22 0 0
1.0456 2.5170 2.5138 -0.049 -0.968 -0.246 75 75 76 0 0
2.0602 2.7954 2.1431 0.436 -0.769 0.467 41 42 46 0 0
1.1488 2.4810 2.5415 0.012 -0.975 -0.222 75 76 78 0 0
2.3192 3.3107 2.0294 0.986 0.022 -0.167 30 31 33 0 0
2.3247 3.2929 2.0278 0.770 -0.503 -0.394 32 33 37 0 0
2.3138 3.3005 2.0478 0.926 0.170 -0.336 33 34 38 0 0
2.1684 2.8682 2.1259 0.174 -0.767 -0.617 46 45 51 0 0
2.1946 2.8611 2.1306 0.105 -0.780 -0.617 46 45 50 0 0
1.1580 2.4879 2.6069 0.173 -0.967 0.186 100 100 101 0 0
1.1616 2.4892 2.6228 0.177 -0.891 0.418 114 114 114 0 0
1.1890 2.5264 2.6969 0.966 0.086 -0.245 188 188 188 0 0
1.2048 2.5078 2.7080 0.830 0.482 -0.280 206 205 205 0 0
2.2971 3.4461 2.2085 0.720 -0.158 0.675 24 25 27 0 0
2.2543 3.4497 2.2275 0.645 -0.182 0.742 23 24 26 0 0
2.2789 3.4229 2.2174 0.687 -0.282 0.670 21 22 24 0 0
1.2951 2.5497 2.6838 0.256 -0.967 -0.013 70 72 72 0 0
1.2606 2.5434 2.6994 0.276 -0.959 -0.059 71 73 71 0 0
2.3740 3.4924 2.1886 0.724 -0.666 -0.178 46 47 52 0 0
2.3570 3.4846 2.1965 0.788 -0.560 -0.256 39 40 44 0 0
2.3398 3.4769 2.2044 0.947 -0.149 0.283 35 36 41 0 0
2.3214 3.4726 2.2287 0.882 -0.268 -0.386 43 44 49 0 0
2.2808 3.4498 2.2799 0.816 0.505 0.280 53 52 57 0 0
2.2579 2.9626 2.3044 0.362 -0.469 -0.806 32 31 37 0 0
1.4225 2.5705 2.6950 0.285 -0.942 0.175 52 51 55 0 0
1.4013 2.5606 2.7049 0.168 -0.982 0.089 56 56 58 0 0
1.3631 2.5557 2.7224 0.168 -0.982 0.089 61 61 63 0 0
2.2791 3.4693 2.2961 0.903 -0.221 0.368 56 56 59 0 0
2.2732 3.4562 2.2992 0.848 0.494 0.190 55 54 59 0 0
2.3634 3.1987 2.2654 0.656 -0.512 0.555 42 43 47 0 0
2.3524 3.1880 2.2708 0.707 -0.379 0.597 40 41 45 0 0
2.2283 2.9459 2.3342 0.189 -0.980 -0.059 42 43 47 0 0
2.2034 2.9401 2.3458 0.158 -0.982 0.101 42 43 48 0 0
2.3633 3.2170 2.2808 0.820 -0.337 0.463 46 47 51 0 0
2.0605 3.7710 2.4205 0.282 -0.017 -0.959 64 62 67 0 0
2.2508 3.4723 2.3413 0.844 -0.145 0.516 26 24 29 0 0
2.2936 3.4373 2.3226 0.299 0.326 -0.897 26 24 29 0 0
2.3036 3.4171 2.3186 0.299 0.326 -0.897 24 22 26 0 0
2.3171 3.3953 2.3129 0.380 0.439 -0.814 22 20 23 0 0
2.3594 3.2215 2.2983 0.901 -0.275 0.335 44 44 47 0 0
2.3553 3.2078 2.3006 0.831 -0.542 0.123 44 45 48 0 0
2.3349 3.1701 2.3110 0.262 -0.827 -0.497 45 46 50 0 0
1.3498 2.5342 2.7811 0.051 -0.887 0.458 103 103 102 0 0
2.1450 3.6849 2.4006 0.681 0.702 0.211 53 52 57 0 0
2.2347 3.4986 2.3642 0.706 -0.299 0.642 41 40 45 0 0
2.2392 3.4806 2.3626 0.844 -0.145 0.516 38 37 42 0 0
2.3477 3.1830 2.3206 0.917 -0.370 -0.151 31 30 34 0 0
2.3505 3.1665 2.3198 0.797 -0.474 -0.374 31 30 35 0 0
2.3443 3.1536 2.3230 0.797 -0.474 -0.374 30 29 34 0 0
2.3468 3.0759 2.3239 0.504 0.316 -0.804 32 33 37 0 0
2.3481 3.0601 2.3237 0.447 -0.074 -0.892 31 32 35 0 0
2.3069 3.2495 2.3536 0.831 0.347 0.434 23 23 25 0 0
2.3491 3.2161 2.3350 0.957 -0.231 0.176 25 25 27 0 0
2.3526 3.1069 2.3362 0.973 -0.066 0.223 40 41 44 0 0
2.3610 3.0729 2.3333 0.563 0.273 -0.780 27 28 31 0 0
2.3004 3.0820 2.3611 0.536 -0.840 -0.088 26 27 29 0 0
2.2923 3.0699 2.3652 0.226 -0.944 -0.241 29 30 31 0 0
2.1896 2.8636 2.4182 -0.045 -0.356 -0.933 45 44 49 0 0
2.3524 3.1098 2.3521 1.000 -0.008 -0.022 24 25 27 0 0
2.3222 3.0760 2.3671 0.360 -0.742 -0.566 18 19 21 0 0
2.2704 3.0506 2.3918 0.921 -0.069 0.382 15 16 18 0 0
2.2655 2.8382 2.3996 0.570 -0.161 -0.805 51 50 52 0 0
2.2634 2.8238 2.4009 0.570 -0.161 -0.805 50 48 49 0 0
2.2074 3.5362 2.4249 0.799 0.562 -0.215 45 44 49 0 0
2.1804 3.5164 2.4380 0.854 0.105 0.509 39 38 43 0 0
2.3530 3.1123 2.3677 0.991 -0.112 0.078 27 28 30 0 0
2.3440 3.0853 2.3725 0.567 -0.489 -0.663 26 27 29 0 0
2.1212 3.7582 2.4762 0.750 0.556 0.359 77 78 82 0 0
2.1457 3.7301 2.4654 0.778 0.474 0.412 80 78 81 0 0
2.2720 3.5257 2.4113 0.785 0.513 -0.348 53 52 57 0 0
2.2296 3.5131 2.4314 0.831 0.261 -0.491 46 45 50 0 0
2.3636 3.0954 2.3790 0.643 -0.368 -0.672 31 32 34 0 0
2.3558 3.0832 2.3829 0.370 -0.645 -0.669 30 31 33 0 0
2.3421 3.0734 2.3896 0.246 -0.813 -0.528 26 27 29 0 0
2.2388 3.5600 2.4424 0.896 0.378 0.234 58 58 60 0 0
2.2485 3.5395 2.4383 0.896 0.378 0.234 56 56 58 0 0
2.2013 3.5452 2.4604 0.817 0.576 -0.018 53 53 56 0 0
2.2272 3.5013 2.4492 0.877 0.480 0.017 50 49 54 0 0
2.1097 3.7374 2.5156 0.697 0.656 0.289 41 39 44 0 0
2.2261 3.5851 2.4641 0.895 0.446 0.006 61 61 63 0 0
2.3250 3.1321 2.4281 0.911 0.159 0.380 31 32 36 0 0
2.3013 2.8808 2.4453 0.549 0.126 -0.826 17 15 19 0 0
2.2343 3.5523 2.4774 0.647 -0.744 -0.167 56 56 58 0 0
2.2499 3.5291 2.4706 0.964 0.154 0.218 56 56 59 0 0
2.3153 3.1388 2.4486 0.911 0.159 0.380 37 38 42 0 0
2.3188 3.1220 2.4473 0.911 0.159 0.380 36 37 41 0 0
2.3499 2.8047 2.4399 0.292 -0.329 -0.898 30 31 35 0 0
2.3443 2.7917 2.4429 0.292 -0.329 -0.898 33 34 38 0 0
2.2370 3.5381 2.4929 0.524 -0.396 -0.754 50 50 53 0 0
2.2032 3.5728 2.5247 0.899 0.356 0.253 28 27 32 0 0
2.2275 3.5456 2.5137 0.658 -0.010 -0.753 31 30 35 0 0
2.2927 2.9557 2.5116 0.761 0.233 0.606 45 44 49 0 0
2.3305 2.8828 2.5109 0.478 -0.694 -0.538 46 47 49 0 0
2.3459 3.2022 2.5129 0.956 -0.142 0.258 27 26 31 0 0
2.3315 2.8851 2.5264 0.917 -0.330 -0.223 41 42 44 0 0
2.3436 3.2429 2.5616 0.927 -0.288 0.241 45 45 49 0 0
2.3433 3.1187 2.5641 0.797 -0.240 0.554 43 44 46 0 0
2.3447 3.2454 2.5773 0.679 -0.734 -0.022 48 50 49 0 0
2.2542 3.2052 2.6225 0.653 -0.044 0.756 54 55 57 0 0
1.3437 2.9736 3.1464 0.685 0.342 0.643 56 56 59 0 0
2.0522 4.0507 2.7926 0.107 -0.128 -0.986 56 57 62 0 0
1.9664 4.1499 2.8516 0.445 0.844 -0.300 98 98 98 0 0
2.0707 4.0446 2.8007 -0.004 -0.234 -0.972 55 56 61 0 0
1.3243 2.5152 3.1991 0.204 -0.319 -0.926 62 62 65 0 0
1.9659 4.1538 2.8694 0.462 0.845 -0.269 98 97 102 0 0
2.0949 4.0357 2.8059 -0.003 -0.198 -0.980 61 60 65 0 0
2.0061 4.0472 2.8506 -0.037 -0.259 -0.965 48 48 54 0 0
2.0657 3.9660 2.8216 -0.214 0.036 -0.976 44 43 48 0 0
2.1028 4.0183 2.8194 0.021 -0.197 -0.980 56 56 62 0 0
2.0407 4.0160 2.8509 0.036 -0.438 -0.898 49 49 54 0 0
2.1703 3.8936 2.8381 -0.223 -0.386 -0.895 40 41 45 0 0
1.4294 2.9632 3.2293 -0.201 -0.583 -0.787 43 41 46 0 0
1.3717 2.5136 3.2644 0.367 -0.918 -0.150 84 82 85 0 0
1.3681 2.4651 3.2668 0.455 0.720 -0.524 135 134 133 0 0
1.4193 2.5186 3.2577 0.315 -0.934 0.168 79 79 81 0 0
1.4247 3.0553 3.2669 0.391 0.891 -0.232 29 28 33 0 0
1.4236 2.9538 3.2685 -0.180 -0.469 -0.865 31 32 36 0 0
1.3944 2.9470 3.2837 0.720 -0.062 0.691 34 35 40 0 0
1.3494 2.9823 3.3248 0.858 -0.149 0.491 21 21 24 0 0
1.3649 3.1857 3.3329 -0.271 -0.816 -0.511 32 34 34 0 0
1.3515 3.1044 3.3407 0.480 0.874 -0.078 29 29 31 0 0
1.4381 2.5039 3.3016 0.280 -0.896 0.344 95 94 92 0 0
2.3303 3.6507 2.8425 0.686 0.241 0.686 38 38 40 0 0
2.3256 3.8592 2.8937 0.697 0.410 -0.588 71 71 73 0 0
2.3301 3.8603 2.9083 0.655 0.469 -0.592 72 72 74 0 0
2.3425 3.8573 2.9186 0.826 0.340 -0.449 73 73 75 0 0
2.3530 3.8390 2.9301 0.521 -0.142 -0.842 72 72 74 0 0
1.9917 2.5129 3.1310 -0.173 -0.669 -0.723 70 70 72 0 0
2.1571 4.0942 3.0507 0.516 0.715 -0.472 64 64 66 0 0
2.1663 4.0723 3.0459 0.666 0.563 -0.490 63 61 64 0 0
2.4591 3.6594 2.8910 0.601 0.689 -0.404 59 59 61 0 0
2.1634 4.0944 3.0647 0.629 0.660 -0.410 75 74 77 0 0
2.1737 4.0720 3.0593 0.733 0.597 -0.325 60 58 62 0 0
2.4352 3.6905 2.9204 0.283 0.081 -0.956 61 61 63 0 0
2.4680 3.6262 2.9031 0.812 -0.436 -0.388 57 56 61 0 0
2.4606 3.6137 2.9071 0.725 -0.650 -0.227 55 54 59 0 0
2.1773 4.0737 3.0748 0.782 0.544 -0.303 70 70 73 0 0
2.1759 4.0780 3.0930 0.686 -0.166 -0.709 75 75 77 0 0
2.2071 4.0447 3.0762 0.749 0.576 -0.326 66 65 70 0 0
2.5612 3.4296 2.8866 0.639 -0.162 -0.752 50 49 54 0 0
2.5589 3.4149 2.8878 0.639 -0.162 -0.752 49 48 53 0 0
1.5870 2.5684 3.4179 0.716 -0.685 0.134 56 54 59 0 0
2.5717 3.4277 2.8972 0.724 -0.349 -0.596 52 51 56 0 0
2.5672 3.4142 2.8997 0.724 -0.349 -0.596 51 50 55 0 0
2.1858 4.0800 3.1226 0.639 -0.681 -0.357 77 77 78 0 0
2.5806 3.4267 2.9087 0.621 -0.519 -0.587 55 54 59 0 0
2.5724 3.4148 2.9132 0.677 -0.551 -0.488 51 50 55 0 0
2.5345 3.3538 2.9341 0.064 -0.312 -0.948 51 50 55 0 0
2.5648 3.2313 2.9178 0.138 0.418 -0.898 51 50 55 0 0
2.5733 3.1658 2.9133 0.154 0.542 -0.826 49 48 53 0 0
1.5966 2.5867 3.4481 0.751 -0.402 -0.524 52 50 55 0 0
1.5860 2.5736 3.4540 0.642 -0.765 0.051 53 51 56 0 0
2.2237 4.0467 3.1194 0.755 -0.197 -0.625 74 74 76 0 0
2.5788 3.2435 2.9264 0.199 0.495 -0.846 53 52 57 0 0
2.5865 3.2247 2.9222 0.147 0.366 -0.919 52 51 56 0 0
2.5978 3.0510 2.9164 -0.148 -0.472 -0.869 48 47 52 0 0
2.5867 3.0404 2.9225 -0.057 -0.425 -0.904 49 48 53 0 0
2.5709 3.0317 2.9312 -0.123 -0.686 -0.717 50 49 54 0 0
2.5439 3.0274 2.9460 -0.141 -0.677 -0.722 49 48 53 0 0
2.5261 3.0193 2.9557 -0.179 -0.593 -0.785 49 48 53 0 0
2.5108 2.8880 2.9644 0.297 -0.891 -0.343 51 50 55 0 0
2.4963 2.8784 2.9723 0.913 -0.280 0.298 51 50 55 0 0
1.5715 2.5806 3.4798 0.586 -0.740 0.330 58 57 62 0 0
2.1966 4.0985 3.1517 0.915 -0.290 -0.279 81 80 85 0 0
2.2342 4.0616 3.1310 0.744 0.499 -0.444 79 79 81 0 0
2.2461 4.0385 3.1246 0.840 0.098 -0.534 74 74 76 0 0
2.2492 4.0199 3.1229 0.739 0.158 -0.655 70 70 72 0 0
2.5893 3.4758 2.9366 0.976 0.019 -0.218 43 42 47 0 0
2.5925 3.4586 2.9348 0.876 -0.284 -0.389 46 45 50 0 0
2.5857 3.4461 2.9386 0.901 -0.215 -0.376 51 50 55 0 0
1.5937 2.5926 3.4854 0.833 -0.529 -0.162 56 55 60 0 0
1.5651 2.5850 3.5012 0.586 -0.740 0.330 60 59 64 0 0
2.2385 4.0460 3.1462 0.874 -0.245 -0.420 74 74 76 0 0
2.6196 3.0323 2.9366 0.432 -0.877 -0.212 51 50 55 0 0
2.2547 4.0580 3.1546 0.666 0.640 -0.384 79 78 82 0 0
2.5980 3.3994 2.9646 0.909 -0.216 -0.357 49 48 53 0 0
2.5357 3.5902 3.0157 0.577 -0.011 0.817 30 29 33 0 0
2.6426 3.2270 2.9561 0.916 0.079 0.394 46 45 50 0 0
2.6439 3.2111 2.9554 0.960 0.012 0.281 43 42 47 0 0
2.6305 3.3127 2.9792 0.674 -0.521 -0.523 66 64 66 0 0
2.6181 3.2717 2.9861 0.906 -0.240 -0.347 60 58 61 0 0
2.6221 3.2545 2.9838 0.907 -0.075 -0.414 60 59 64 0 0
2.6211 3.2394 2.9844 0.907 -0.075 -0.414 56 55 60 0 0
2.6198 3.2246 2.9851 0.583 0.038 -0.811 57 56 61 0 0
2.6208 3.2087 2.9845 0.448 0.212 -0.868 56 55 60 0 0
2.5839 3.3681 3.0217 0.786 0.592 -0.177 38 37 40 0 0
2.6304 3.2692 2.9955 0.040 -0.276 -0.960 61 59 62 0 0
2.6219 3.1957 3.0002 0.007 0.334 -0.942 64 63 68 0 0
2.4595 3.7341 3.1088 0.588 0.804 -0.084 50 49 53 0 0
2.5705 3.1590 3.0452 -0.319 -0.468 -0.824 49 49 51 0 0
2.4973 3.6700 3.1042 0.998 -0.059 0.008 46 45 50 0 0
2.5124 3.6497 3.1124 0.918 -0.283 -0.278 46 45 50 0 0
2.6721 3.2285 3.0207 0.990 0.043 -0.136 42 41 45 0 0
2.6395 3.2924 3.0557 0.191 0.561 -0.805 36 36 38 0 0
2.6731 3.1849 3.0362 0.965 -0.185 0.184 36 35 40 0 0
2.6669 3.1722 3.0397 0.873 -0.102 0.477 36 35 40 0 0
2.6575 3.1610 3.0450 0.797 0.123 0.592 39 38 43 0 0
2.6939 3.2093 3.0407 0.780 -0.585 -0.225 39 38 43 0 0
2.6862 3.1974 3.0451 0.618 -0.730 -0.293 39 38 43 0 0
2.6760 3.1865 3.0508 0.618 -0.730 -0.293 39 38 43 0 0
2.6580 3.1636 3.0610 0.867 0.212 0.451 44 43 48 0 0
2.6018 3.1108 3.0928 0.610 -0.791 -0.053 43 43 45 0 0
2.5905 3.1001 3.0992 0.859 -0.507 -0.068 39 39 41 0 0
2.6869 3.2153 3.0610 0.976 -0.219 -0.001 40 39 44 0 0
2.6802 3.1875 3.0647 0.557 -0.762 -0.329 40 39 44 0 0
2.6840 3.1705 3.0624 0.496 -0.843 -0.208 39 38 43 0 0
2.6348 3.1765 3.0906 0.928 -0.245 0.280 39 38 43 0 0
2.6256 3.0422 3.0952 0.570 0.519 -0.638 36 36 38 0 0
2.2882 4.0932 3.3109 0.615 0.755 -0.227 77 77 79 0 0
2.2172 4.1520 3.3697 0.410 0.855 -0.318 75 75 77 0 0
2.2556 4.1350 3.3652 0.406 0.840 -0.360 76 76 77 0 0
2.6626 3.3934 3.1416 0.651 0.541 -0.532 40 39 44 0 0
2.6608 3.4130 3.1593 0.651 0.541 -0.532 40 40 42 0 0
2.6726 3.3918 3.1522 0.651 0.541 -0.532 40 40 43 0 0
2.2153 4.1677 3.4423 0.350 0.774 -0.528 75 75 77 0 0
2.6919 3.3547 3.1571 0.337 0.222 -0.915 40 39 44 0 0
2.2200 4.1689 3.4574 0.376 0.763 -0.526 74 74 76 0 0
2.2696 4.1250 3.4280 0.457 0.758 -0.465 74 74 76 0 0
2.6891 3.3902 3.1755 0.599 0.614 -0.514 43 43 45 0 0
2.2980 4.1133 3.4289 0.402 0.760 -0.511 73 73 75 0 0
2.6999 3.3882 3.1857 0.599 0.614 -0.514 41 41 43 0 0
1.3768 2.5128 4.0113 0.488 -0.668 -0.562 189 189 191 0 0
2.3300 4.1107 3.4808 0.568 0.768 -0.296 107 108 108 0 0
2.3806 4.0664 3.4501 0.578 0.756 -0.308 64 64 65 0 0
2.4079 4.0348 3.4334 0.599 0.723 -0.344 58 58 59 0 0
2.3935 4.0461 3.4598 0.704 0.710 -0.015 87 87 88 0 0
1.4494 2.4798 4.0049 0.859 0.340 -0.383 194 194 194 0 0
2.3820 4.0559 3.4844 0.720 0.689 0.085 123 123 123 0 0
2.4140 4.0219 3.4648 0.737 0.665 0.125 100 100 99 0 0
2.4433 3.9895 3.4467 0.750 0.653 0.105 80 80 79 0 0
2.4310 3.9996 3.4717 0.750 0.653 0.105 115 115 111 0 0
2.4628 3.9659 3.4522 0.763 0.635 0.121 94 94 92 0 0
2.4141 4.0628 3.5004 0.025 0.188 -0.982 175 176 178 0 0
2.7284 3.4336 3.4014 0.849 0.400 0.345 44 43 49 0 0
1.7988 2.6115 3.9599 -0.201 -0.265 -0.943 194 193 191 0 0
2.7656 3.3876 3.3943 0.693 0.500 0.519 44 43 44 0 0
1.8364 2.6020 3.9546 -0.190 -0.196 -0.962 195 195 195 0 0
2.6850 3.6716 3.4833 -0.220 -0.305 -0.927 195 195 193 0 0
3.5102 3.1493 3.2319 0.620 -0.568 0.541 204 204 202 0 0
3.4943 3.1427 3.2423 0.741 -0.384 0.550 202 202 200 0 0
3.4829 3.1196 3.2491 0.814 -0.065 0.577 203 203 201 0 0
3.4619 3.1614 3.2797 0.949 -0.123 0.290 203 203 201 0 0
3.4561 3.1498 3.2831 0.875 -0.289 0.389 203 203 201 0 0
3.4927 3.1177 3.2579 0.582 -0.259 -0.771 203 203 201 0 0
3.4501 3.1556 3.3027 0.841 -0.354 0.409 205 205 203 0 0
3.4699 3.1316 3.2888 0.973 -0.100 -0.206 205 205 203 0 0
