ply
format ascii 1.0
element vertex 710
property float x
property float y
property float z
property uchar diffuse_red
property uchar diffuse_green
property uchar diffuse_blue
end_header
0.45013416213453583 3.3803409834358336 3.909541828335908 148 147 145
0.4455748919843905 3.399326004778487 3.913779216256811 161 160 158
0.440479038803153 3.417476068146022 3.9177192872660376 170 169 168
0.43921846850609203 3.442214778894918 3.9239454380012972 177 175 176
0.418147196456887 3.4332626546189355 3.9184518220323743 181 181 182
0.42353287485258573 3.469494146364778 3.9286590658566185 185 185 187
0.39548510868399944 3.44844845521119 3.918978832197034 187 187 189
0.4245118315494525 3.525667751606905 3.943374879961052 188 188 190
0.36215405919458865 3.44511314259539 3.9130964243369033 190 190 192
0.3990139000426476 3.5363803038320345 3.942314880572893 192 192 194
0.40177534014343097 3.5687604719605326 3.9511282625763746 194 194 196
0.305421715618726 3.427712758768885 3.900043629711653 195 195 196
0.3091101759677206 3.4614226922045024 3.9093414288407904 196 196 196
0.29209740304818843 3.4587876807667417 3.906097072251865 196 196 196
0.2841559890086891 3.472133761406133 3.9083628960404835 198 198 198
0.2739451867354541 3.481478160871246 3.9092492796981198 199 199 199
0.2658029579092678 3.4945172829845843 3.9114052656060454 199 199 199
0.2635611100647379 3.5181570555331176 3.917198696021127 200 200 200
0.23969554931700143 3.5030255873842764 3.909681855332188 201 201 201
0.2308825047939389 3.5148806390960585 3.9114297767357074 201 201 201
0.21192526115841614 3.508379073587994 3.906889935442654 201 201 200
0.19272491667722513 3.5013184327186466 3.9021685051293558 201 201 199
0.147513551537231 3.446653131325484 3.8811854515897917 201 201 199
0.13130598121250747 3.444652802683299 3.878226907133501 202 202 200
0.10847945321681829 3.430395112916332 3.8710930863011006 202 202 200
0.09154115165299204 3.4268338615421925 3.867619722629652 203 203 201
0.11993757014568773 3.5072049772160145 3.8927383036256167 203 203 201
0.13085813142328928 3.5556084909614145 3.9069355029431883 204 204 202
0.09237058645891572 3.5120366929072206 3.8898416681034362 204 204 202
0.04752224088336554 3.456137483117658 3.868593250497916 204 204 202
0.05851550558990737 3.504836368074701 3.8828779976442562 204 204 202
0.04515631255511798 3.507834360942979 3.8816445255301173 205 205 203
0.09909898302410847 3.63842673630257 3.9236333738112177 205 205 203
0.10652525638034671 3.681398687159044 3.9358959104687328 206 206 204
0.9142512293281441 0.8591959143687661 3.3368688011954104 200 199 204
0.9361986419650097 0.8965551532328674 3.34993395567367 200 199 204
0.936661828709956 0.9127465873680459 3.354224253723325 200 200 202
0.9533462169617717 0.9451839844057534 3.365208539247901 200 200 202
1.1287804869800677 1.1367273475838644 3.441733633003974 200 200 202
1.1250263514992664 1.1494964942404295 3.4444924649447333 199 199 200
1.1258449954180922 1.1669085940522002 3.4491548117848354 199 199 199
1.5793814627136011 1.642174303800744 3.641798235068718 199 199 199
1.5521275278760684 1.6327568876273975 3.635211053207233 199 199 199
1.5529253110222165 1.6517761703029912 3.640289125707344 198 198 198
1.5648321477420266 1.6822125011364002 3.650027415077865 197 197 197
1.5618312914703831 1.6975197200235983 3.653561982730361 197 197 197
1.5583912484222369 1.7124215793381325 3.65692430290518 197 197 197
1.8737314981069475 2.075847540024007 3.7994628405835837 197 197 197
1.90178265192518 2.1246922768086405 3.8164470684187233 196 196 196
1.8787003771654218 2.1205278641927734 3.8118615782423446 195 195 195
1.8795814680881338 2.141326220086847 3.8174159727985923 195 195 195
1.7017790659446153 1.9747926809429242 3.747050233523945 195 195 195
1.6956401155119727 1.987737058941154 3.749493113933469 195 195 195
1.6887013978718604 1.9998652859821138 3.751602003191361 194 194 194
1.698166160247336 2.0293937319703304 3.760733359942749 194 194 194
1.9056224739963432 2.2695082945680025 3.854773516582476 194 194 194
1.9010233304529944 2.2850195475938233 3.8581189053949885 193 193 193
1.8952867586070323 2.299356618917176 3.8609857860662453 193 193 193
1.8836947190583118 2.307442271857518 3.861335427397293 192 192 192
1.9425208063569908 2.391374524947057 3.8921312853133507 192 192 192
1.9277718469394451 2.3962881691932783 3.8911754869028856 191 191 191
2.003090282002281 2.498842495949199 3.929325746540627 190 190 190
1.8911612459449136 2.398290062704695 3.8861457780059383 190 190 190
1.8573204939309085 2.3822488501376173 3.8768334032027796 188 188 188
1.8347121638600243 2.378341876795904 3.8723868777639026 187 187 187
2.3186112601583737 2.931000904564496 4.089805804530126 187 187 187
2.1894402483204782 2.8112791228773566 4.039015124688387 186 186 186
2.2344625170149746 2.8834127249556993 4.064642683956928 186 186 186
2.2672230089585437 2.9423532490351634 4.084972335978978 184 184 184
2.1331078161642765 2.815753295256527 4.031639246121455 183 183 183
2.105824470073365 2.8076280632930923 4.025384393532677 181 182 183
2.062072326757919 2.7809162742394706 4.011787967204652 179 180 182
1.948822854474316 2.675769277750994 3.967210267169575 178 179 181
1.966073437024594 2.7171681738775657 3.980616092681748 176 177 179
2.004167098726808 2.7823902982215762 4.003391651509346 174 176 175
1.9942278256348855 2.7933989731738764 4.004753754489002 172 174 173
2.0169976801486547 2.841715731510964 4.020799538986948 169 171 170
2.0519867761986905 2.9042741022343472 4.04241006615177 166 168 167
1.7272322062628533 2.5542012321484107 3.901924270961584 161 163 162
1.7053147379659406 2.5505330255406884 3.8976447359033344 158 160 159
1.6817565673402983 2.5448817217206785 3.8925995463119523 150 152 151
1.6589993738421174 2.540059143407306 3.8878918087131122 144 143 141
1.6341012906307184 2.5326510150152006 3.8821855497270334 132 131 129
1.6127075275301737 2.5292223923919197 3.878047871152475 119 118 114
1.5867190278272312 2.5203263887958003 3.8717884730327956 105 104 100
1.560447558995647 2.5109760386580953 3.865367747862015 92 90 89
1.5326429493561506 2.4996927951797905 3.858210763233345 78 76 76
1.5052091803153023 2.4887107183693846 3.8511885059940956 65 62 64
1.4530529849635387 2.4482375898061255 3.8327310320133954 50 49 53
1.4243690327760588 2.4353946475530206 3.8250341948204563 48 47 51
1.399332180587513 2.426764080573017 3.8189882826225063 46 46 50
1.372254334631601 2.4155663735384407 3.8119637951327725 47 46 50
1.3795776267293411 2.445637683477007 3.820911918194275 46 45 50
1.3238444718105402 2.399700601800011 3.8004879494036423 44 43 48
1.2869289799744192 2.376194088328189 3.7887636119559263 45 44 49
1.2555863634863502 2.359244031817017 3.7795931666443403 47 46 49
1.2326844322946395 2.3524171964301965 3.7743411011171224 47 47 49
1.2108438605772815 2.3467838871290274 3.769561050815457 45 45 47
1.2120527977492697 2.369366632594016 3.7756302338157157 42 42 44
1.1990868063615618 2.374572668372198 3.775021004586895 42 42 44
1.1669876042626317 2.3560914465420266 3.765336757874056 42 42 44
0.38249812827675567 2.837908362833584 3.771958751608812 42 41 46
0.3935628254323078 2.8796588951553073 3.784518225052076 42 41 46
0.39009441877851714 2.8985196798231048 3.7889080807520155 42 41 46
0.3869464307038524 2.91796731151906 3.793499476505562 44 43 46
0.3827194895261845 2.9357644462053822 3.7974970863698085 45 44 46
0.3704285225327688 2.9406536454644785 3.7969076360821914 47 45 50
0.39522193977864983 3.005402903320251 3.817543157499566 48 47 52
0.4015278247989713 3.040597876898559 3.8276724139433074 47 49 55
0.4495835680703235 3.143900590937961 3.8618837330449276 49 50 56
0.4526633174461048 3.1744658727757873 3.8703171302269985 50 51 56
0.4619918780278167 3.2154298273667488 3.8824083333449404 55 55 59
0.46057318178080076 3.238954333357465 3.8883245295819457 65 65 66
0.4604003205345504 3.2646428561319736 3.8949936584377127 84 83 80
0.4602260822761186 3.2904525767748596 3.9016941669554326 109 107 102
0.45425386975619864 3.306745891244124 3.905035182488775 126 125 120
0.452097962880017 3.329462555154511 3.91062903897171 144 143 140
0.44458492787199444 3.3433074084298213 3.9130982549489133 158 157 156
0.44035649422083334 3.3627106105576807 3.9175142366797613 167 165 166
0.43433773038865175 3.3791699845182084 3.9208914743705 175 175 175
0.4341372724026795 3.4055391447373933 3.9277338168515588 179 179 179
0.4271840327825762 3.420557785067829 3.9305938483507634 183 183 183
0.4049158477971866 3.4094900640659205 3.924332556049349 185 185 187
0.3841800758439393 3.400897800789345 3.9189488243847515 188 188 191
0.36461886905426955 3.39419402251905 3.9142354049280788 189 189 192
0.36073387178665617 3.414420488389546 3.918918035619818 191 191 193
0.3600775780422327 3.4403224482311394 3.9255694881348338 192 192 192
0.40615260544466336 3.5475802388697413 3.9605112933754767 194 194 194
0.403507564609767 3.570569662632404 3.9661020705961545 195 195 195
0.40737087850203 3.6050607139969992 3.9756774789915594 196 196 195
0.40643172068912947 3.6313001150709066 3.9823739883828595 197 197 195
0.28327517909838607 3.442029708844916 3.9143684768114033 198 198 196
0.2716727714082101 3.4488324877340437 3.9143821834519343 199 199 197
0.27294702096280443 3.4785097256435566 3.922310346673079 199 199 197
0.2555027261647471 3.4749428310348396 3.918735509825483 200 200 198
0.2643844587076021 3.5184335849471484 3.931417531455565 201 201 199
0.2732056489845629 3.5620763929396464 3.944130003408052 201 201 199
0.24162818365322947 3.5330768018171903 3.931783410242806 201 201 199
0.22363560651675374 3.5283980274033766 3.927835638888913 202 202 200
0.20523984624259461 3.5228828001770576 3.923608721294681 201 201 199
0.18025026101327613 3.505222717109984 3.915216564080622 201 201 199
0.15388047266896598 3.4848318966229037 3.9059033917351447 202 202 200
0.13303333223832525 3.474375081897716 3.9000168043503223 202 202 200
0.08502976911269 3.413636902695363 3.876907226126794 203 203 201
0.0773016643569373 3.427005160684221 3.8792196122091527 204 204 202
0.15222365828495277 3.5941585322234824 3.9341465610866857 204 204 202
0.11321790047423885 3.549779007904342 3.9166650172702644 205 205 203
0.06167264269091377 3.4814853275503084 3.8910491600020864 205 205 203
0.054975680657282755 3.49699106432658 3.8940750069496586 205 205 203
0.044207330653095234 3.5048577942637262 3.894492489900597 205 205 203
0.11417857273270537 3.665816664546921 3.9470542212656547 205 205 203
0.1198375147387698 3.7055286060371753 3.958262660222091 206 206 204
0.8712807411061065 0.7242107411567178 3.3062650831733205 202 202 204
0.8603574444889038 0.7287337266764148 3.3057813486671694 202 202 204
0.8366039275861425 0.7207324626466681 3.3000575320863685 201 201 203
0.8847804536260252 0.7829828973634282 3.3237208752333545 201 201 203
0.8852476821949643 0.7987821199675944 3.3279304402290557 201 201 203
0.9410949275978187 0.8691633141391338 3.3548950459375892 201 201 203
0.9520308681733682 0.895599622598245 3.363489704256875 201 201 202
0.9596077347692463 0.9188340081024835 3.3707326390885552 201 201 202
0.960967889346921 0.935992417488807 3.375434592897652 200 200 202
0.9787326547590776 0.9695828231916293 3.3869461119629083 200 200 202
1.1511806843527572 1.1581851622288102 3.4626852116449367 200 200 202
1.147456872304671 1.1710580032327336 3.4654881503045143 200 200 201
1.1449378226045468 1.185179563885863 3.468802173348619 200 200 200
1.5434562526012814 1.6229057176919939 3.64432265285094 199 199 199
1.5550496000051068 1.6528805064370515 3.6539445370046573 199 199 199
1.5547165174494921 1.670821079648512 3.6585927350400764 198 198 198
1.5536452279947988 1.688069235264047 3.662946818997503 198 198 198
1.5450164671282882 1.6976080617357368 3.6641273206388107 198 198 198
1.8572707836021252 2.077338881170671 3.811281507500303 197 197 197
1.8797308348864104 2.120463616440259 3.8260074532661026 196 196 196
1.8822182595612669 2.1429418936672877 3.8322749881588236 196 196 196
1.6815189877641483 1.9524400074753685 3.751723281535557 196 196 196
1.6800905517095255 1.9702685846470136 3.756174841774676 196 196 196
1.6822036909395812 1.9918969111174254 3.7621625858559664 195 195 195
1.904121960742431 2.24642324270868 3.8627248236282896 195 195 195
1.9398593653792473 2.304734782384349 3.8834565340897242 195 195 195
1.8872587984402713 2.2691841609676757 3.866110797845657 194 194 194
1.8780674717080823 2.27977496455204 3.867480912091945 194 194 194
1.8688311538148998 2.2903275802470016 3.868834152091134 193 193 193
2.0757369661517475 2.53367151416442 3.9641744585102083 192 192 192
2.0095849449383714 2.483520118169541 3.940934587117201 192 192 192
1.9844710335468556 2.477463581143757 3.9355123564399332 191 191 191
1.8658566834456174 2.3695914253635353 3.889140964338524 190 190 190
1.844570974149154 2.3671659539723935 3.8852545142674098 189 189 189
1.812184094402218 2.352505750865876 3.876467907404506 188 188 188
2.279010599170044 2.8862208433143834 4.087563540002262 188 188 188
2.2337686493312545 2.858907345963208 4.073499255581266 187 187 187
2.212625882523882 2.858002494021642 4.0700329256602705 187 187 187
2.1950657317920528 2.8610020583153717 4.068136462932989 185 185 185
2.155251944957008 2.8391739857155813 4.056338037491905 184 184 184
2.1516519335547244 2.857597299194963 4.060613689180502 183 183 184
2.08419472942432 2.8044879846484596 4.036399714464266 181 182 184
2.090372883652446 2.833786980549707 4.045017480292279 179 180 182
1.8376882598780642 2.5710494669418185 3.9376053088865803 178 179 181
1.894561103134699 2.657040113724782 3.968815059033128 177 179 178
1.969116742280385 2.7636395393780617 4.00812360427697 175 177 176
2.0353816807227694 2.861441384151656 4.043861534806873 173 175 174
2.0910617203998005 2.9477294660934708 4.074967002715256 171 173 172
1.6986789135691487 2.541714755994974 3.908689671679921 165 167 166
1.6776298395296734 2.538939467665308 3.90474773949489 162 164 163
1.6554219982579241 2.534739990279413 3.900255788469604 159 159 158
1.6343486818340838 2.531770184411398 3.8962592046471034 153 153 151
1.6092699279715843 2.524043025541889 3.8904047673783904 146 146 143
1.5887338759046625 2.5215225908374412 3.8866079460748826 134 134 130
1.5605301352382839 2.5099124491340845 3.87925915342506 117 117 115
1.5353889270994705 2.5017735734046864 3.873287338280338 106 106 102
1.5083258246353548 2.4912443546102554 3.866395885700587 92 93 88
1.459470205535864 2.4547108125405277 3.8493646985777663 82 82 81
1.436263527791434 2.4484219416983586 3.844172923170271 65 65 66
1.410065127400311 2.4384539560401333 3.837560545024746 55 55 55
1.382767974456515 2.427040093665389 3.8304016341010483 48 48 49
1.3553184873271227 2.415305072487184 3.8231353364838823 46 46 48
1.328276733525151 2.4039224688912517 3.816023622430218 44 44 46
1.3000610653114146 2.3909801806275857 3.808324086371361 44 44 46
1.2743465913411458 2.380930696823828 3.8017642763640223 45 45 47
1.2484238439036943 2.3704990722364565 3.795072562882894 47 47 49
1.2315092311739544 2.370962746186379 3.7926104876490783 46 46 48
1.2160907030741213 2.3732076381341196 3.790843467380511 43 43 45
1.1786853494726375 2.3483130298648653 3.778609703538318 42 42 44
1.1753066817849092 2.3652651088578587 3.7825338109475086 42 42 44
1.171490314333706 2.3817308271011406 3.786263674771236 42 42 44
0.3439979029607554 2.6344111071729195 3.726056343679791 42 41 46
0.3501308935209786 2.6672463232691648 3.735593433384093 41 40 45
0.26341551779827665 2.555670821137528 3.6931242653800616 41 41 46
0.3089538514606811 2.6499245675868233 3.724767099643035 40 41 45
0.3762048488848484 2.7788563213120065 3.7688093207345736 41 42 46
0.3774464299319633 2.804750020136135 3.775781148634241 41 42 46
0.4197566958622012 2.8956531879445504 3.8060533326437804 42 41 46
0.42121542731776507 2.922379809001391 3.813276490505982 43 42 47
0.4211301153023994 2.9467810771713285 3.8196547460420063 44 43 48
0.39369314821477186 2.9276133960122577 3.8104435661782525 44 45 50
0.3968403824191 2.957267928305587 3.8186915156436627 44 47 51
0.40105822620492515 2.9887982317790587 3.8275942991780307 45 47 52
0.40745626943701074 3.0240157755088966 3.8377958623776895 47 49 55
0.42389236818923415 3.0756939019982132 3.853842056389439 51 51 56
0.4594485538426587 3.1587832714291944 3.8810360042869503 57 56 58
0.46042998693287074 3.1859779074121333 3.8883088445261484 69 68 66
0.4614655995849688 3.2133958674560756 3.8956484541097525 88 87 82
0.45028289360684437 3.2208590616268973 3.89589520985636 107 106 101
0.44826047738846087 3.243429849174241 3.901498146414036 127 126 122
0.4462294769825146 3.266087166472493 3.9071224360783696 144 142 140
0.44924919545174435 3.2972427147739314 3.915744061529698 156 156 153
0.43765902822205427 3.30418376252352 3.9157918191556087 167 167 165
0.431947475000966 3.320955629387947 3.91931240178537 174 173 174
0.42622281175272203 3.337763464069256 3.9228404028480144 178 177 179
0.4296989212634097 3.3701527211326914 3.931854875407301 183 183 183
0.42277908205590276 3.3851110118938355 3.9347158858022606 186 186 186
0.3907236940651855 3.357391718702051 3.9225594171638978 188 188 188
0.37868571534969075 3.3635494751413173 3.9223336134084006 190 190 190
0.37246928839432925 3.3796549492060453 3.9256025375853043 191 191 192
0.34316791473786634 3.356138713939744 3.9149675977834395 192 192 193
0.342415004395777 3.38162868122896 3.921529041748143 193 193 193
0.3376253027420506 3.4002527375269267 3.9256755606482843 194 194 194
0.38835559685821175 3.515439481465016 3.9635942717921813 195 195 195
0.39545239078207484 3.5553045164235204 3.975119852607998 196 196 196
0.44736676075228643 3.673873296182885 4.0141052559264825 197 197 196
0.3158874469777899 3.4709466642288973 3.9408718000871756 198 198 196
0.26369653599638077 3.4063015400822554 3.915968075952809 199 199 197
0.24793731929499496 3.4056139719825334 3.913380936556629 200 200 198
0.22408550861901788 3.390471014644021 3.9057715233798915 200 200 198
0.3197926459474203 3.5884477012767393 3.972244658029096 201 201 199
0.30921271310906806 3.5975129234516774 3.9730030909273597 202 202 200
0.27419487395612085 3.5626500492562356 3.9585230624377825 202 202 200
0.2603244340497941 3.565612187552918 3.95718036004198 202 202 200
0.2261387100634107 3.531734347972864 3.943085432613826 202 202 200
0.20818303136109773 3.52703818225532 3.9391128583101693 202 202 200
0.16451329184001806 3.4753123786633844 3.9188945347223436 202 202 200
0.1570085406291628 3.4893746354643174 3.9214315130822683 203 203 201
0.1492765405985399 3.5030586248882214 3.9238347042295825 203 203 201
0.09369164629793181 3.4284511122885295 3.8958031941350213 204 204 202
0.1854627212845008 3.6262381663423193 3.9616254687765986 205 205 203
0.20287282193481748 3.687161859546523 3.98024206990474 205 205 203
0.08386481350903097 3.4937813799871016 3.9114138396692635 206 206 204
0.05759880791604899 3.4726684597864943 3.901872005961831 206 206 204
0.8449306928149392 0.6828046334568618 3.302408763694638 202 202 204
0.8787841989886694 0.7305789700644874 3.3201917256186464 202 202 204
0.8698866577548985 0.7370941812417866 3.3205377946758023 202 202 204
0.8609912376042781 0.7436075764959488 3.3208837120708243 202 202 204
0.8800534598429852 0.7774559145736638 3.33272563296211 202 202 204
0.912101441749028 0.8242220552275131 3.3499654574179645 202 202 202
0.9733670876996697 0.9000117528328584 3.3793395964258677 202 202 202
0.9849000997654265 0.9271391723158717 3.3882541671854303 201 201 201
0.9967369792047203 0.9546992087553463 3.3973293563162454 201 201 201
1.0002754772439206 0.9741432780323912 3.402991668419257 201 201 203
1.0148707160977075 1.0046965174351494 3.4132790622494076 201 201 203
1.0226122204003787 1.0285443434826496 3.420747104142068 201 201 203
1.1902701228407573 1.2130776763779711 3.4951117012634696 201 201 202
1.1871628470512108 1.2267479550887381 3.4982318702910318 200 200 200
1.239238773311646 1.2962375454404043 3.5245339650574987 200 200 200
1.2363491190073206 1.3103932483832819 3.5278153837377717 200 200 200
1.234083695705689 1.3252262520155096 3.531371110443214 199 199 199
1.242708407471378 1.351223847556876 3.53954087555148 199 199 199
1.2575189299137643 1.3836784995891072 3.5503618665122234 199 199 199
1.2565943649420859 1.4001253437612347 3.5545486589956807 199 199 199
1.2600514129091869 1.4211471501240993 3.5606137221694727 198 198 198
1.8667764653050554 2.1058339487287845 3.8341727073872356 197 197 197
1.8628801904417691 2.121593700151945 3.837721471905927 197 197 197
1.675103797681565 1.9446110352026515 3.762249228625488 197 197 197
1.9087025979290413 2.209649790361149 3.867948460225133 196 196 196
1.907864680864824 2.228963000990054 3.8729030489713963 195 195 195
1.9021992306320308 2.2432325200059617 3.8757873895726727 195 195 195
1.9087708369765282 2.270538779462469 3.8839857572603145 195 195 195
1.8760096420967747 2.2560358881277196 3.875128330317214 195 195 195
1.8709814278571948 2.2710389949395475 3.878303795188503 194 194 194
1.9261632195135543 2.3506987386137608 3.9077606255564037 194 194 194
2.087169176567967 2.5447798998878532 3.9836149858486887 193 193 193
2.120350408604389 2.601998444825307 4.003780365647684 192 192 192
2.0598392480871563 2.5579744066988055 3.9828834465453293 192 192 192
1.830131609546954 2.3295695420942453 3.8874253734039534 191 191 191
1.842567613077367 2.3638152413535654 3.8983524895787496 190 190 190
1.8142714780718228 2.353630926738789 3.8913186869333853 189 189 189
2.262336400614692 2.8666439364168346 4.0952821213662105 189 189 189
2.2375331473565594 2.8618047316486583 4.090192577784136 188 188 188
2.2142610871077477 2.8585605364414874 4.085758425018596 187 187 187
2.1980742002510816 2.8630910052467353 4.0844606704918585 186 186 186
2.190641618259315 2.877333249550897 4.087065971666099 185 185 185
1.7636130554544656 2.443912584451948 3.907288601122881 183 184 186
1.7262685199431704 2.4230509879500066 3.896052364066339 180 181 183
1.8404023459415668 2.5729238364657823 3.9530595670950786 179 180 182
1.8822161905812553 2.6418597392058167 3.9776371773001915 178 180 179
1.9508020301042768 2.74161177996938 4.014444685052075 177 179 178
1.989978852829795 2.8084495442775683 4.03806435044384 175 177 176
2.094274661841485 2.9501520094607994 4.09140749165172 174 176 175
1.6891203770028413 2.5081086174820286 3.912725702118806 173 175 174
1.6836483295493938 2.523233152742157 3.915864848078062 171 173 172
1.6662132165569965 2.524576697034721 3.913536221752403 171 173 172
1.6399805120943078 2.515669043714873 3.907155897258271 168 168 169
1.6040795322883226 2.4953938002454294 3.8962960767243153 163 164 164
1.612056726640278 2.5261295725568367 3.9056133776960746 159 160 159
1.5945952108352748 2.5272223255587023 3.903214677857011 155 155 153
1.5521570820120076 2.4989135421684887 3.8892346290321336 145 145 143
1.535283449846359 2.5004914202946447 3.8870540622536054 136 136 134
1.5098190749399816 2.4918562639760258 3.880863664535655 123 124 120
1.4599513630129288 2.454135351103838 3.8632632296615483 110 110 107
1.436903240175915 2.448039706034907 3.8581129881715635 96 96 94
1.414014585181792 2.4420326850079186 3.853010606685346 85 86 83
1.3910993561982643 2.4358925422066835 3.8478690975470684 74 75 72
1.365784512621386 2.426763190792454 3.841571625355227 60 60 59
1.3384257518013278 2.4150440082731803 3.8342780330768074 47 47 47
1.3091863847291219 2.400906924326295 3.826058699117021 46 46 45
1.2820605031088461 2.3891825890798497 3.818799577341265 46 46 47
1.2555370539192816 2.3780533946017317 3.811789784445411 48 48 50
1.2394415730629387 2.379550214633353 3.8097075950029717 47 47 49
1.2185474044811162 2.3751052663935774 3.805323209249882 43 43 45
1.1944788899072165 2.36665936886497 3.799397369935688 42 42 44
1.1876403205130757 2.3793984456777717 3.801698401770252 42 42 44
1.1324747930773982 2.3322130740851175 3.7807917640150612 43 43 45
1.0981770939004374 2.3106221196623418 3.7698322837570353 43 42 46
1.0650895536431673 2.2903362929662014 3.759402504769374 42 41 46
1.0893006515481334 2.3416667225156456 3.7766380637538797 42 41 46
0.4293989348154448 2.648010499478527 3.7557507812127975 41 40 45
0.41653366268589864 2.6516561562181344 3.7547311385231668 41 40 45
0.41111854677913207 2.666661436887202 3.7578476535778815 42 41 46
0.41254125337491954 2.6922089613692504 3.7647909778772326 42 41 46
0.32342681818976393 2.5784264323005095 3.721132282338409 43 42 47
0.3940975833823044 2.7107658805262616 3.766837983636586 43 42 47
0.40491245284601707 2.751138749735363 3.7791284534832066 42 41 46
0.4025756260090507 2.7712651302758706 3.7840664831045903 41 41 46
0.4356138582797813 2.846752884781756 3.809018564529664 40 41 45
0.43817679403786425 2.8749321798350485 3.8168300221131837 40 41 45
0.4138176461854355 2.8608806028307754 3.8093839809284686 41 42 46
0.4195251828430151 2.8941588645500054 3.81902132891425 44 43 48
0.4240138841466159 2.925684179838156 3.828009768931463 44 43 48
0.42853309936162387 2.957424602601164 3.837059522465562 46 45 50
0.41963144747939984 2.9679020013851227 3.838447860073031 47 47 52
0.4260380192581814 3.0029266905531036 3.8486524326619342 48 49 53
0.4321347416354888 3.0376451183772475 3.858728725080846 49 51 53
0.4387014265437643 3.073312092707833 3.8691269879822796 55 56 57
0.44913716095383616 3.1154445681290013 3.88182228262672 69 69 68
0.4675182740759447 3.170741299175095 3.8992049246676324 94 93 90
0.4636452778116764 3.1900575305324397 3.903693383669697 114 114 108
0.46245602679396813 3.213846686767866 3.9097720511877663 133 132 126
0.4475289697454028 3.2151596593525182 3.9078212241274253 146 145 142
0.4469484295830821 3.240090320610128 3.91429399681819 160 160 157
0.4405866877237121 3.255564601108258 3.9173883274094115 166 167 166
0.43622507752386386 3.274412160436182 3.921678255947554 173 174 173
0.4340081807154892 3.296911270075736 3.9272592700674966 179 179 180
0.42749477763601607 3.3123162218082385 3.9303120204226714 182 182 184
0.40738663979209555 3.3049208576024163 3.9252719707048884 185 185 187
0.3980115398663522 3.3155104006337295 3.9266169896481045 189 189 189
0.39142523101784943 3.330834267461888 3.929637181346607 189 189 189
0.3904400150046967 3.355724176648932 3.9360369711118457 190 190 190
0.3724797231714265 3.3517785103234594 3.932235358638103 191 191 191
0.3313731940908511 3.308110662403652 3.9144174548641995 193 193 193
0.32545647143003587 3.3245214428817254 3.9178267477804143 194 194 194
0.33483227990499875 3.3673646564695066 3.93054605635799 194 194 194
0.3316065538450885 3.388645443061761 3.9356511904677607 195 195 195
0.383714368110885 3.5061690596929775 3.9746013912205482 196 196 196
0.386648077009774 3.53873741024988 3.98362514785461 197 197 197
0.451289395907881 3.6795109357697338 4.030623225047232 198 198 197
0.2301406756628348 3.3190755219849795 3.9017296670174844 199 199 197
0.2459695134544313 3.3738505932851517 3.918582352233718 200 200 198
0.2374452230803601 3.3858555989788472 3.9204308307985745 201 201 199
0.22075895615564933 3.383379965169762 3.917212150066053 201 201 199
0.3074475627416817 3.565216094171292 3.978410270196 202 202 200
0.29727359250037244 3.574924663043814 3.9794005045369873 202 202 200
0.2767860991127018 3.566102365791076 3.973926505805517 203 203 201
0.23207753380995655 3.513449339362464 3.9531894354317902 203 203 201
0.22864515420552167 3.5350752916803563 3.9583536296486157 203 203 201
0.18652999540900272 3.4864826466357917 3.9390842828500965 204 204 202
0.21135545997957572 3.5595948131205355 3.962147603107626 204 204 202
0.19277828190860347 3.553700639782925 3.957738213985833 204 204 202
0.1729341918949665 3.5453641818088757 3.952491077596931 205 205 203
0.21763922437926708 3.6560233838034697 3.9884956082219603 205 205 203
0.2442478977330862 3.7339341013517524 4.013096305197593 205 205 203
0.2808117294562018 3.830884136568419 4.044239934702198 206 206 204
0.1156902215697504 3.5520072941308847 3.945433065783438 206 206 204
0.07499079521855112 3.504079254139179 3.926556452083264 206 206 204
2.1165083632902464 1.87084123732783 3.8246898887611955 203 203 205
2.102511495133608 1.8763080125763105 3.8239670994437502 203 203 205
0.8810091147033712 0.7318346446961006 3.3319831968857168 203 203 205
0.8761631891515571 0.7422919411941094 3.3339983209837167 202 202 203
0.9762102583871133 0.8549838928582192 3.3793075975176294 202 202 203
0.8909658409980608 0.7872209889905211 3.3481757966161503 202 202 203
1.0059046003260042 0.931108978223381 3.4040439262153854 202 202 202
1.0190091483247654 0.9598903403849011 3.4136871795502755 202 202 202
1.0390432512724517 0.9956790589729906 3.426257608382367 202 202 202
1.0411469380874816 1.0138334692500772 3.4313854585098396 202 202 203
1.0780963610366043 1.0668106499874732 3.4511232528836917 202 202 203
0.9049404277034048 0.9098567223003802 3.3827785970973214 202 202 203
1.2055738189283933 1.2274629914289905 3.513368427431839 202 202 202
1.2042399796221968 1.2429692609147787 3.5172632042998058 201 201 201
1.3052927474569993 1.3620006138112206 3.5644050993038356 201 201 201
1.280741056586132 1.3544120011582685 3.5585936909341016 200 200 200
1.2597516950363952 1.3503443628089338 3.554265560497372 200 200 200
1.2388311070126696 1.3462673242266223 3.549945599893322 199 199 199
1.2286548017367174 1.3531142127594549 3.550179837315563 199 199 199
1.2700058275002581 1.4129003906168776 3.57240064316803 199 199 199
1.2289796889773301 1.3881052118941763 3.5594853923658123 198 198 198
1.2365903589362606 1.4134012982645756 3.5673555233284153 199 199 199
1.8503170011248185 2.08755963987074 3.8407670675880627 198 198 198
1.8597910257583001 2.117229457335647 3.850082782739993 198 198 198
1.8450007937303203 2.12160287536986 3.848947868463511 198 198 198
1.9091672413763814 2.2089877836091496 3.882003784634906 197 197 197
1.9091467641657847 2.2291629994649815 3.8873370114914843 196 196 196
1.9150995479991488 2.2557368188391287 3.8952882226043237 197 197 197
1.9003474289521747 2.260432617973015 3.8942444844843096 196 196 196
1.7786799118549441 2.1511428333074156 3.8464850768006436 195 195 195
2.153640264551091 2.572163582664399 4.015945025379411 195 195 195
2.1309277706569643 2.5692402799582856 4.011652581450563 195 195 195
2.111160174608382 2.5694041895386857 4.008633015344134 194 194 194
2.087280106461396 2.5650634403310697 4.003784741349739 193 193 193
2.078200798313523 2.5766711204610173 4.005448197070766 193 193 193
1.8205050292259155 2.31794233534834 3.897084658204957 192 192 192
1.8136184232063588 2.331065789520419 3.899488791913474 190 190 190
1.7779869975331353 2.312748904476559 3.8891229595910586 189 189 189
2.278343556590424 2.8829706981370764 4.117476700604059 190 190 190
2.240443075990935 2.8637588071044733 4.106522554538771 189 189 189
2.232093188866603 2.877027930945147 4.108738487926526 188 188 188
2.201230639138601 2.8653429132547927 4.10086572347676 187 187 187
2.2009440475154403 2.8875506988322406 4.106695337071568 186 186 186
1.7056219005592432 2.37775445069971 3.895104382726919 184 186 186
1.6995329410612967 2.391825343877955 3.897882709211505 182 183 184
1.7484380940881823 2.4679768411671295 3.9256026726698114 181 182 183
1.8471805394119682 2.600997740757969 3.9760868645232557 180 181 180
1.9332170540839138 2.720420618481346 4.021005602422477 178 180 179
1.9531327022018796 2.765228694576997 4.035943321797622 178 179 179
2.0045425897026137 2.8462890237723606 4.06534978465388 178 179 178
1.7821231646017546 2.6136474787375157 3.9693523395729087 177 178 178
1.7569639394086984 2.6064658116305695 3.963554434070241 176 178 177
1.6613099772090252 2.5177425934454662 3.925265649785234 175 176 175
1.6317498906924373 2.50496228933223 3.9173049912532063 173 173 174
1.6018575342282815 2.4916475765069843 3.9091514960772287 170 171 171
1.6172753535831328 2.5310525967309405 3.9219631693982206 168 169 169
1.5914010256437874 2.5223172138235297 3.9156434991230293 166 167 165
1.5615181449798161 2.5087519421009445 3.907425198676432 162 162 161
1.5216501556160051 2.4832633471078474 3.894505988582264 155 155 156
1.4973147699945328 2.4759119747265492 3.8887908466629906 149 149 151
1.5131063347736184 2.51607071135117 3.9018597905925723 141 141 139
1.4951574137892387 2.5162633956981564 3.8991296329015666 131 131 127
1.4714537636718736 2.5095203218945015 3.8936732728498686 115 116 112
1.3909088468473931 2.4345247120211053 3.8613565728025607 102 103 99
1.4250417939980657 2.4969100907709203 3.8831464580780666 91 92 88
1.3999607261225417 2.488185804041833 3.8769526356756394 80 80 77
1.3208143165577175 2.4138607167029638 3.8450299845340723 65 65 62
1.2951222987337205 2.403930196705279 3.8384224455542078 52 52 51
1.2699607590912065 2.3945190147993034 3.832034468678348 54 52 54
1.2500744943001174 2.391438512830514 3.828138359539478 49 47 50
1.227699972864792 2.3852224953530534 3.823027351218701 47 45 49
1.2131608975240689 2.3885570676846686 3.8216565752749077 44 43 46
1.1911226104093429 2.3825850875529055 3.8166622138440403 43 42 45
1.1375632686612873 2.3374163174578797 3.79641611595437 43 42 45
1.111210285583393 2.3257397703065057 3.7892443337407005 43 43 46
1.0253560168387106 2.2396178482502456 3.753162027997771 42 41 46
1.0695743237594852 2.315841523428324 3.780174872110996 42 42 46
1.0420812690363246 2.3023603143958424 3.772349101739602 42 41 46
1.0300396545484527 2.3082232096294715 3.772034047034185 42 41 46
0.9904101357238901 2.2791411514005633 3.7582013062790462 41 40 45
0.8026294392860305 2.4178958092308687 3.76580632302572 41 40 44
0.7725588016982484 2.399010261925314 3.756151702862001 41 40 44
0.6779283955370233 2.2923671372123238 3.7132816507961306 40 39 44
0.6627688351989943 2.293091018265434 3.71112419787028 40 39 44
0.6517637998173265 2.935913204195484 3.8794472306102223 42 41 46
0.6544716600605909 2.964243362025062 3.8873602083571113 41 40 45
0.6184546218258697 2.9339240074009902 3.87375994069718 41 41 45
0.585734901207231 2.908348273495017 3.86192528164107 41 41 46
0.3787918674366244 2.6161335848273675 3.752568590574344 42 42 46
0.3825531054074507 2.645088955373705 3.7608101560290366 42 42 46
0.3887378130914696 2.6779249189839467 3.7704536572042846 41 41 46
0.4112413226915508 2.7361589513556126 3.7893435588915754 41 41 46
0.4160407702958131 2.767290694322365 3.7983216477910373 41 41 45
0.42087313442497276 2.7986373213264555 3.8073616744073053 40 41 45
0.4257397592850898 2.8302026294379092 3.8164648513558577 41 44 47
0.43127573667297137 2.8629841637209266 3.8259934373096582 41 44 47
0.43942418424212293 2.900052251915355 3.837060621706447 43 44 48
0.4447261699788474 2.9328312501977383 3.846552280684099 45 45 49
0.44932700481581067 2.96467420648787 3.855687713089869 46 46 50
0.4539600806505977 2.996736954554039 3.8648862766521592 48 48 52
0.45214003797019076 3.01866682862099 3.8704047789553138 56 55 58
0.4605236609651009 3.057043299555013 3.881854473781159 72 70 71
0.4586361117746296 3.079117555970111 3.88740070570972 87 85 84
0.46092906827814617 3.1080367129616437 3.895405187445123 105 103 101
0.46017068751585954 3.13215999038182 3.9016683517717183 120 120 117
0.45619347068411287 3.1511619768668826 3.9060781731341874 138 139 135
0.45364448381642775 3.172569249578829 3.911345498570107 151 151 148
0.4519577384274518 3.195480960415117 3.917144353336233 161 162 159
0.4470258132186624 3.213161578062319 3.921056740268982 171 172 172
0.43989114469192203 3.2272729870346453 3.9236837542945637 176 178 177
0.431414481341027 3.239200917427316 3.9255252948122235 178 180 180
0.4237413309678195 3.25248688674144 3.9278505418927283 184 185 185
0.42151532765687927 3.274891723971444 3.933431771054888 185 185 186
0.38300721487975675 3.236652187301438 3.9173506102146334 186 186 188
0.4262798279947446 3.3354889744616707 3.9501981522608145 189 189 191
0.4170884386243683 3.346504854643984 3.9516877086806192 191 191 191
0.4097166283642266 3.360616424495914 3.954278020967897 192 192 192
0.3752588481708581 3.328744435170362 3.940508678826888 192 192 192
0.36731077260825473 3.3417796464849374 3.9427250010240056 193 193 192
0.3133192404602847 3.276031541254847 3.9169686463433804 194 194 193
0.30749401282254407 3.2924829442284222 3.9204174885139684 195 195 195
0.31519311679030837 3.332313806377643 3.9321458099351143 196 196 195
0.33659534941543545 3.396094682388651 3.952332227865327 197 197 196
0.40065691110959056 3.5344002492747624 3.998840545691415 198 198 197
0.42440614854875114 3.6033734308608567 4.020764002914435 198 198 197
0.26854266862774856 3.358404765419544 3.931818614309287 198 198 197
0.25941545155286727 3.369338492398737 3.9332963842575914 199 199 197
0.23562214592706332 3.354424050584942 3.9256647832252116 201 201 199
0.22140764440251592 3.3562870681738346 3.9239550686206695 201 201 199
0.19413770970286004 3.334901086194721 3.914073035878345 202 202 200
0.18773150199087496 3.350497874042058 3.9172058091594217 202 202 200
0.29090856861091763 3.56232215798905 3.989220840764252 203 203 201
0.2605502379847773 3.5357217659115725 3.977481046033648 204 204 202
0.23827567463364563 3.5234332300999407 3.9707793281776773 204 204 202
0.21566857318226695 3.5103816754549007 3.963824264126562 204 204 202
0.18627866765887124 3.4848360928207 3.9525135234965525 205 205 203
0.15887563758303513 3.462653646905157 3.9424002011982253 205 205 203
0.17128139525119623 3.5131353768102205 3.9576749859600984 205 205 203
0.20967059925013887 3.611697426812872 3.989693191924796 205 205 203
0.19110428518695866 3.6058466513147964 3.985268859666743 206 206 204
0.15501222556425742 3.5674200921916226 3.9695125899565 206 206 204
0.16089365754809437 3.6066745794817328 3.980806816665066 206 206 204
0.15939776343938794 3.6323916279697945 3.987377262652418 206 206 204
0.09016350713537324 3.531321514116523 3.9499163327728906 207 207 205
0.07801200161457778 3.5367682397003106 3.949474172822289 207 207 205
2.116794536560648 1.8889142289979834 3.843491728330757 204 204 206
1.9370762453556296 1.7345438374011752 3.774416129095904 204 204 206
0.8818259117082963 0.7468913042679595 3.3472332994906404 203 203 203
2.2252124218259213 2.110199650036162 3.919226357438227 202 202 202
2.206963354416201 2.111992671051963 3.9168551513376966 202 202 202
1.0902575932254441 1.0616960565461804 3.4634318543035736 202 202 202
1.127205743069971 1.1148249474329222 3.483318883050247 202 202 202
1.1360686823172945 1.1401598255279823 3.49143576477656 202 202 202
1.194707871200975 1.2155749027953515 3.5206311887194253 202 202 202
1.3423462133988968 1.3810691445941439 3.5876573273731514 202 202 202
1.338660930326122 1.3947115520273274 3.590708283478416 202 202 202
1.3257827503270434 1.3990721360301759 3.589857645809149 201 201 201
1.3081100185168006 1.3985319113439412 3.586956218503779 201 201 201
1.289651184931021 1.3971328424445826 3.5837038454102186 200 200 200
1.1972306665785444 1.337127532885186 3.5533326233015283 199 199 199
1.2292132577276207 1.3873437019581483 3.5716705948390137 199 199 199
1.2448738631205802 1.420962175750043 3.58304997200011 199 199 199
1.2734185520543784 1.468121015997769 3.600038842555017 199 199 199
1.6928058019782903 1.9224441468847862 3.7862400408792634 199 199 199
1.8537513124821654 2.109784445914497 3.8611492840479293 199 199 199
1.8342662138256447 2.1092169928025273 3.8579577987699656 198 198 198
1.9115354827917832 2.2103273330357833 3.8968900597850658 198 198 198
1.9094380626851364 2.228317189626269 3.9013443212332373 198 198 198
1.9239925595478653 2.2639939538487615 3.913098167245872 197 197 197
1.8983955414544291 2.2572033128726448 3.907298838193102 197 197 197
2.163294859009068 2.559874699908747 4.029084244578371 196 196 196
2.137332220240763 2.553514579383629 4.0233422892264965 196 196 196
2.1165184480866293 2.552571965354342 4.019843748824497 195 195 195
1.8848045653920589 2.324552023815212 3.923078726298922 195 195 195
1.8297388965839558 2.285718872556822 3.9041641457728677 194 194 194
1.821955173501545 2.2977989568334416 3.9061602845690695 193 193 193
1.7396527993303823 2.22888135397331 3.8749991857841106 192 192 192
1.7264105549098734 2.2347762593978677 3.8744995464489156 192 192 192
2.279236552723198 2.8826928235637506 4.132979576964741 191 191 191
2.2381725388244935 2.860003550287892 4.120540880744097 190 190 190
2.197434231409774 2.8374559618737285 4.108190669946459 189 189 189
2.207414176788079 2.8709514235127136 4.1186508812317815 188 188 188
2.210251816596778 2.896656861475901 4.1259260035399254 187 187 187
2.211071116078966 2.9202151827723664 4.132315475664579 186 187 187
1.7083001093536312 2.3795996906369186 3.910166351504494 185 187 186
1.6819912939451653 2.37094719691353 3.903761079989228 184 186 185
1.6813384682354253 2.391116496722913 3.9090200503934875 183 185 184
1.6873711173342687 2.418927656343732 3.917353440265728 182 182 182
1.7035654258719213 2.4584052302025885 3.9303734056808013 181 181 181
1.9195139910763719 2.725700945474531 4.035117439062473 181 181 181
1.879347693503231 2.701919053225723 4.022528422289828 180 180 180
1.8564481869997356 2.6977206627453936 4.017839041615004 180 180 180
1.8164715009010979 2.67377396468771 4.005235809707716 179 179 179
1.7584307102333683 2.628739602615092 3.98420872576585 179 179 179
1.7448818506124082 2.634895773684178 3.9837306813478066 177 177 177
1.7128297269419803 2.619516510437642 3.9746412399208557 177 177 177
1.622504525954428 2.5359857277191282 3.938344104069554 176 176 176
1.596797540040216 2.5274698142292156 3.932069050357788 173 173 173
1.5625368918412077 2.508787765269694 3.9217571124823736 171 171 169
1.5550325867392327 2.5214511424951 3.9239518893757754 166 166 165
1.5355800401028552 2.5200098092084886 3.920533213253021 163 163 161
1.515904979105664 2.518233312180196 3.9169907297031634 159 158 156
1.4971396047486913 2.517466502840318 3.9138585704607705 153 153 151
1.4792884036683143 2.517725329784981 3.9111416746817356 146 147 145
1.4576781121840923 2.513418874840176 3.9066247540361982 137 139 135
1.4363243836401067 2.509330616649353 3.9022058651951754 125 126 122
1.410722065026433 2.5000262691179707 3.895737585191473 114 115 110
1.3882925566498587 2.4944397226393784 3.890752586838443 102 103 99
1.3044670467566994 2.414155740709265 3.8563327060343413 91 91 87
1.2836238184123723 2.4100509599172 3.851989089457126 79 78 75
1.2603847581580494 2.4029274387786916 3.8464692440752573 65 64 63
1.2385048257537725 2.397363890422011 3.841576120085561 52 50 51
1.2169453516831972 2.392097416798477 3.836811963970603 46 44 47
1.2031346391006674 2.3963120283347408 3.8357770057114258 45 43 45
1.1595210534516123 2.363537117877906 3.8202597628606876 44 42 45
1.1335252730428897 2.3524014113803644 3.8132433218433555 42 41 43
1.0828722310634458 2.3103433533359485 3.794160178885233 41 41 43
1.0554683755665122 2.2970668208614358 3.786354991935364 40 41 45
1.034541072872659 2.29178293598795 3.7816848587439567 40 41 46
1.0048130319207442 2.275302638601349 3.7726654453575548 41 40 45
1.046675288181765 2.3492695686295395 3.798857913155548 41 40 45
0.9177894935132763 2.2068128651923327 3.7408813200004625 40 39 44
0.9158466810981416 2.2251075870650556 3.745440738905066 41 40 46
0.9460032189021118 2.284521606239841 3.7659384713581665 42 41 47
0.8846782672195446 2.226891363368077 3.7410510043379137 42 41 46
0.8630692091295142 2.219948106402411 3.7358334345377595 41 40 46
0.8481230909116024 2.221508921348968 3.7339159369379495 41 41 44
0.8005111158611058 2.180669826440774 3.7156313451807037 41 41 43
0.8131095671109124 2.2178276517962674 3.7274736037921126 42 42 44
0.7826602672453467 2.1989852530603704 3.717713809237889 41 40 43
0.7481603756664452 2.1954400052657586 3.711387782223058 40 39 44
0.6663097129372625 2.1083490308564685 3.6754668313662 40 39 44
0.6822198940212197 2.1500005913480913 3.689020287400388 41 41 44
0.6782588218553482 2.165490737125488 3.6925193210535014 41 41 43
0.7873178877899184 2.37458529075881 3.7651137682976845 41 41 43
0.7899896880798165 2.39977779219872 3.772226676686435 41 41 43
0.7667152620572335 2.390022210220171 3.7660017309993044 40 40 42
0.6685833078500288 2.2786227553015586 3.721079068928749 39 39 43
0.6662971515256989 2.296822432142325 3.725559646586991 39 38 43
0.6627766853371281 2.313405986976416 3.7294180567394424 39 38 43
0.6456922379916354 2.3329366417417683 3.7319431164086185 37 38 42
0.3436101542656871 2.3370534853535596 3.685897262353348 41 40 45
0.3379737889424026 2.350675487074181 3.6886383272935603 41 40 46
0.3418392015020417 2.378454636628878 3.6966250106546346 41 40 46
0.38451407589460485 2.46424163387698 3.7260859706102947 42 41 46
0.4507384529958185 2.585821447594638 3.7687352980988855 42 41 46
0.48846543001834064 2.665415295439094 3.7957780445698783 41 40 45
0.6204892177081704 2.8876307647468797 3.8754435876987787 41 40 45
0.6384742763375242 2.9388949558208126 3.8918757925617165 41 40 45
0.6409208764814984 2.9668782797669357 3.8996953374236134 41 41 45
0.43762948249854716 2.6815960985390808 3.7921457989075447 41 42 45
0.4367550379115317 2.7036551953434627 3.7978724790171166 43 44 46
0.43417345359970927 2.723193140563293 3.8026626563779953 43 44 46
0.43727251528081523 2.7515578852241367 3.810685396912454 42 42 47
0.44749552562996975 2.7910746909048685 3.822783965397333 42 42 47
0.45038304898641845 2.819438721651827 3.8307735055042786 42 42 47
0.4532881227768799 2.8479732557619384 3.8388111028443297 42 43 46
0.45936219661504296 2.881602384625576 3.8486973283925012 46 48 48
0.4622005568517389 2.9103399835542394 3.85677848810644 48 48 48
0.46533937045999285 2.939696051327948 3.8650709179839517 50 49 48
0.4702251693438011 2.971960926557066 3.8744091044693647 57 56 55
0.4734218562743777 3.00172013755336 3.8828177178685515 67 66 65
0.47569609733170504 3.030165185434066 3.890733088656152 84 83 81
0.4732578246290462 3.0512310253222705 3.8959517324850226 106 105 103
0.4749953658570363 3.0790768069618286 3.903624070620159 122 121 119
0.47000796313756044 3.0962483465750905 3.9074098463169835 136 135 133
0.46933586588466847 3.1204452783787477 3.9137363228851516 149 148 146
0.46642167108214516 3.141123269303594 3.9187776115412065 161 159 160
0.46204261237492883 3.159506826455141 3.9229804645711965 167 167 167
0.45525978936941525 3.1740386073003326 3.925784436414046 174 175 175
0.4521995530272027 3.1947080480346877 3.930800662630932 178 180 179
0.4425151339753408 3.2045774025325997 3.9319126018376203 182 184 183
0.43358390944402014 3.2156967921892283 3.9334743271709725 183 185 184
0.4243539870331834 3.2263384488317266 3.9348624627839413 186 188 187
0.4125269907796403 3.232677871612247 3.9347018230048016 189 189 189
0.4118432515531263 3.2575835956746064 3.941214874348378 190 190 190
0.3678928169213094 3.210181791660585 3.9217573506060774 191 191 191
0.3618987192336187 3.2261360335203952 3.9250624826382463 192 192 192
0.4088145368058538 3.3313664507446137 3.960353155132395 193 193 193
0.3832327350849314 3.3146035956214988 3.9519056630477647 194 194 194
0.3698743696214488 3.318416096866445 3.9508344159993296 194 194 194
0.33512417438161113 3.285715311245762 3.93672001202363 195 195 193
0.20744200653403633 3.0936573205200695 3.865747606170171 195 195 193
0.22195669105154137 3.144373740092929 3.88149266376094 196 196 194
0.28246577721237887 3.2747074411386676 3.9255768325689986 197 197 195
0.3874752946008553 3.482961574462613 3.9973159682497257 198 198 196
0.4293986507344947 3.583118009503596 4.030478939020733 199 199 197
0.4134667872268587 3.583080572992318 4.027982812410949 199 199 197
0.41889739686513794 3.6203607774774986 4.038739052729734 200 200 198
0.42243185739463485 3.6545209788476374 4.048370125164091 201 201 199
0.21697312410110192 3.320365795760735 3.9274923054324096 201 201 199
0.20454000631549873 3.3252587688188235 3.9268526248741757 202 202 200
0.19422321464321834 3.333882255606617 3.9275347399554406 202 202 200
0.20006606186326792 3.3713203537672305 3.938397277101372 203 203 201
0.19893064616417444 3.396484138340993 3.9449084345692316 204 204 202
0.19437909755259342 3.415633798685695 3.949287994768496 204 204 202
0.031003206066586575 3.1484292351963137 3.852772184172548 204 204 202
0.011541389507561561 3.1396600287042107 3.84740436933118 205 205 203
-0.014029939258483282 3.119658150647064 3.838097604259763 205 205 203
-0.043634325178152356 3.0920837350017463 3.8261487563013192 206 206 204
