ply
format ascii 1.0
element vertex 736
property float x
property float y
property float z
property uchar diffuse_red
property uchar diffuse_green
property uchar diffuse_blue
end_header
1.5422513549326853 2.387946488450206 2.7491677500885805 40 41 45
1.4805067194885515 2.4582197669748735 2.7859718807351586 37 37 39
1.4698447183020158 2.4489276833339524 2.788595265927588 34 35 37
1.4591878618411747 2.4396380061735106 2.791217023470079 37 37 40
1.4491769953585634 2.4293670559668197 2.793410870385232 77 77 80
1.4176434996818883 2.452029403264299 2.8099033275273504 39 40 42
1.3947296898440449 2.461333786401807 2.8206399501412123 38 39 42
1.371206941240645 2.471436739530187 2.831757921390948 43 44 48
1.351467746625152 2.475684808377899 2.84035088863136 51 50 55
1.303878038611272 2.5218182246574843 2.8673191459609586 56 55 60
1.2527751138135876 2.5728332706710693 2.8965353436840933 54 53 58
1.2035207309553624 2.62065318766473 2.9244596169877397 51 50 55
1.1413566645009057 2.6873121389087085 2.9608011060284123 49 48 53
1.1611748944579765 2.6316565419660636 2.9432230251695026 49 48 53
1.198068437448375 2.551073421514682 2.9145100318547077 49 48 53
1.2093081045052292 2.5088434303574454 2.902683206263989 50 49 54
1.219028450184295 2.4690922108682765 2.891892559096856 50 49 54
1.2750216312168203 2.3618266260140595 2.8509336331811443 51 50 55
1.2341958748176403 2.396507145057193 2.8732161511551837 53 52 57
1.1808114172097623 2.449134821197843 2.9036209107484448 61 60 65
1.1327042450715408 2.4936842749643917 2.9305191576119594 65 64 69
1.1398414520350753 2.4581359850036724 2.921488217290359 61 60 65
1.0974676867831354 2.4939751575871334 2.944588401258091 60 60 64
0.9996332606084677 2.6089603251026103 3.003538051914729 59 60 64
0.9309540538177759 2.6814431476161396 3.0434858830120506 62 62 65
0.9112378795845377 2.683698845868511 3.0517226797833517 67 66 69
0.8584974594279648 2.732688875087823 3.081237643829763 71 71 76
0.8106588481092685 2.7743471271013957 3.1075254841539466 77 76 81
0.7626638987242831 2.815869106419332 3.133851787646061 84 83 86
0.718124086336529 2.8521903889941687 3.157897685288714 100 101 101
0.6764441098041951 2.8841969624624797 3.180054325666022 136 138 137
0.636500717357994 2.913497651582394 3.2010487950958773 182 184 183
0.5970076649841323 2.941904869117849 3.2217084840516255 201 203 202
0.5598634851183666 2.966802213377832 3.2408223769719435 204 204 204
0.5283984186298494 2.9836377603118795 3.2562727539278797 205 205 205
0.4953040920248222 3.0025294443079202 3.272729437106875 205 205 205
2.245237492898427 4.014880050706978 2.769918632958563 206 206 206
2.2579655944163735 3.948204345530127 2.753126207546601 206 206 206
2.2440969645616415 3.9422610674779834 2.7576139772166837 207 207 207
2.211399055384525 3.9787418260915564 2.777066696765488 207 206 208
2.181709511852067 4.008075320415241 2.7940635951369197 202 200 203
2.16137055181036 4.016181182868534 2.8036008264586356 169 169 171
2.0921719618009504 4.132850063866446 2.851702799478126 115 116 120
2.0605220415615975 4.1652482434031555 2.8700201539424333 93 93 98
2.0311546926130903 4.1922538514331755 2.886479508665761 84 82 88
2.002372298136053 4.217663956585083 2.902425192033044 78 75 82
2.148317385496051 3.860712156197707 2.781490728108519 74 71 77
2.1436828162198873 3.8346024776238687 2.778751775244412 69 68 73
2.0414221404740056 4.020282637527314 2.852167545166963 66 65 70
1.936967928127996 4.20903134817158 2.926997455230188 65 64 69
1.8543127555050976 4.349236203368022 2.9846025218950927 63 63 65
1.8903026088217658 4.196858319380274 2.943472848994751 61 61 63
2.086807187560378 3.742730684284883 2.7852963856989494 61 61 63
2.085069045253353 3.711260770024725 2.780460254590736 59 59 61
2.0745061632052497 3.6985522248306566 2.7824406999299924 57 57 59
2.1248819458342365 3.5582032065516898 2.7376861874242815 56 56 58
2.108416097319436 3.5584180903130758 2.744291985021803 55 55 59
2.0821944078750425 3.5788286999262633 2.7583377900887562 54 53 58
1.839078803230106 4.047714291148177 2.937699928935216 53 52 57
1.8618915942413523 3.96474527255216 2.9140219998107364 51 50 55
1.8733000543141731 3.9057915350578463 2.8991127614470793 51 50 55
1.9207155673736294 3.7736928239838603 2.8569886965254634 52 51 56
1.8547493478933121 3.8732959117454318 2.900802749130057 51 50 55
1.8785450903023182 3.790136732929434 2.87669931946857 50 49 54
1.9262786465917578 3.659295369402719 2.8346693143470207 46 45 50
1.9726323084186028 3.5322366517022274 2.7938543675721945 43 42 48
2.080022796615674 3.284019326653935 2.7074042108257914 41 40 46
2.087059233470657 3.23776100005794 2.696469584562795 40 40 42
2.1089344934606356 3.1623663217788884 2.6744964839181895 38 38 40
2.104223436893948 3.140069760312511 2.6724580289753477 38 37 42
2.1065021703358267 3.1041309346209394 2.6652343963702116 39 38 43
2.110037792248858 3.0659557567857822 2.6571164643806817 42 40 45
2.1204097469611383 3.0146793894558535 2.643969637218729 46 44 47
2.118545666767549 2.9875465641863737 2.639945794382126 49 47 48
2.168720779096572 2.8597960790214936 2.5974849663396684 48 48 50
2.1705224079283507 2.826311639805235 2.590882896100211 48 48 50
2.1559741183280896 2.824440214228252 2.5963572237659305 48 48 50
2.0938456050267638 2.9135454882654512 2.636795928576647 48 48 51
2.1213541803042117 2.8310779497420366 2.6113330172026408 48 47 52
2.149982304217885 2.747085613790204 2.585155614271602 48 47 52
2.1776219570266653 2.6655730884367625 2.5598082192057823 48 47 52
2.199223066757813 2.59601931242182 2.538970756268263 48 47 53
2.2236061221227557 2.521744439773129 2.5161940810414527 48 47 53
2.3006211003794075 2.3497121353366994 2.455246546728766 48 47 53
2.336595732923807 2.255327970122826 2.424312796410347 47 46 52
2.3716729452131977 2.163298685416371 2.394150783819064 47 46 52
2.4058847381047426 2.0735393979516754 2.3647328296649457 47 46 52
2.0259418964279177 2.7168081512367808 2.629313998119147 47 46 51
2.0179364487069575 2.7027365426948418 2.6300348131888116 46 45 50
2.0118927325947293 2.685151289591086 2.6293557468062807 46 45 50
2.0088228591429704 2.6622629693259627 2.626558666793353 46 45 50
2.0004694157218292 2.649014516884984 2.627562926984672 46 45 50
1.9925672519665263 2.6349990101158385 2.6282524006703833 46 45 50
1.9869747301761138 2.616902934762443 2.627303603368807 46 45 50
1.988569730735392 2.586086945100047 2.6212528177279713 46 45 50
1.9893063283210008 2.556973757026186 2.615843632005544 46 45 50
2.015553739859143 2.482946720404022 2.592366832440872 46 45 50
1.9868948312646633 2.5060837866363714 2.6078638718384015 46 45 50
1.9594347818606315 2.526880048819021 2.622471406237999 46 45 50
1.950173642457813 2.5156692844625876 2.6241957703786465 47 46 51
1.9430387322841975 2.500786411998508 2.6244267938076775 46 45 50
1.850961274990956 2.6331773283496416 2.684417346666115 47 46 51
1.8490755412359245 2.608775238977879 2.6808819481944397 47 46 51
1.8475978934264132 2.583798844783054 2.677082859972149 48 47 52
1.849019305281157 2.5539875895046453 2.671277854885255 49 48 53
1.8474099844798015 2.5295176206526424 2.6676202715648714 48 47 52
1.853190503691445 2.4926119372836384 2.6588299333140255 49 48 53
1.8567123519266024 2.459754468297039 2.651651849467039 49 48 53
1.854438317325493 2.4368674345526875 2.648537544364756 49 48 53
1.858515452022227 2.4034216010676515 2.641034583771027 50 49 55
1.8538713396041664 2.3847741335320176 2.6396105936909326 50 49 55
1.7707631656319247 2.497086559596144 2.6924954870420863 49 48 54
1.769597939692167 2.4723286206438173 2.6886101611832633 48 48 53
1.752764941731186 2.473635194068275 2.6955542271053474 48 48 52
1.7979673924588881 2.37257026022223 2.6597657523003435 49 49 53
1.774826192285806 2.3844902199879328 2.6710909258277957 49 49 53
1.7695181234087756 2.3670753171313392 2.6701483496432736 50 51 55
1.7591757365877272 2.357942337339596 2.6726690906401633 51 52 56
1.7435659634745544 2.3573767978292866 2.678796284274779 55 55 60
1.7227573850073408 2.3651713549436684 2.6884661428356496 50 50 54
1.711984478652821 2.3566699858549445 2.6912695910819933 49 50 55
1.686446576194779 2.371890698869792 2.7041307446509997 45 46 51
1.6609301254794149 2.386906042358082 2.716947256679625 41 42 47
1.6396802915656838 2.394949806545285 2.7268369142672144 41 42 47
1.6267690505595174 2.389631612454839 2.7310526234030608 38 39 43
1.6082039263372827 2.3932421878083296 2.7390924421835865 33 34 38
1.5760260150287908 2.41822974211181 2.756318314137768 30 31 34
1.5574491061660398 2.4216111931357043 2.7643225751319753 29 30 32
1.5400789864966624 2.4230213315719706 2.771499089849943 31 31 33
1.5187405201911055 2.4305503987309907 2.7813336664819777 32 32 34
1.4768404203165535 2.4699059398193697 2.8049621529499396 33 34 38
1.4668538286589858 2.4595228367011077 2.8071213169535896 33 34 38
1.4569036488277227 2.44910185528308 2.809259301241519 38 39 43
1.4233718351060145 2.4749275849917183 2.8271725021402503 43 44 47
1.3951800451234684 2.492332182444901 2.8414759833583827 47 47 49
1.3864351489105908 2.4798937639128047 2.842778717565468 47 47 49
1.369242159530538 2.4803246811293285 2.8497125218503228 52 52 54
1.3520157464441884 2.4807449153560928 2.8566577814078764 54 53 58
1.3031215416205513 2.528871364667712 2.884617239667277 56 55 60
1.2675779354547958 2.5565244789208945 2.9036540045192463 55 54 59
1.196335758752869 2.6373739037804533 2.9462774436318897 51 50 55
1.0529771417252891 2.8251739155662037 3.036459189612366 49 48 53
1.1980801322901535 2.582732341037143 2.9359807758428635 48 47 52
1.1827336151526393 2.5796425469767152 2.941559432671265 49 48 53
1.2021081533390674 2.5252739424228894 2.924278251529791 50 49 54
1.2282301527298911 2.4613173350823203 2.9026209134903183 51 50 55
1.2888450422358801 2.3472254440720146 2.8583956746674932 51 50 55
1.2740111800598104 2.3440462066118117 2.8637541234629666 52 51 56
1.2247489341122133 2.3909142271633073 2.891639275542422 55 54 59
1.1971931688409172 2.4059265642675056 2.905268718899928 62 61 66
1.1743971385659548 2.4138997605273964 2.915762737555379 62 61 66
1.1410463181912232 2.4369471707171675 2.9331155745130446 59 58 63
1.012146516228611 2.596778452464984 3.012615585310246 58 57 62
0.9246242957830195 2.6962903139160512 3.065012054485736 59 58 63
0.8771211455417878 2.738059022689276 3.0912995428574614 63 62 67
0.8798250449484062 2.7082474799236707 3.0849829174417986 69 68 71
0.8304353346208269 2.75222372389291 3.11241081078732 74 73 79
0.7925750918140018 2.7795880049833923 3.1323209061055457 81 81 85
0.7437213752285285 2.822126765797074 3.1592824230095946 90 92 92
0.7016132146144127 2.854869433029917 3.18183198016601 116 120 119
0.6589631732438133 2.8880743076095845 3.204678900101295 166 168 167
0.6212728577179196 2.914095871348785 3.2242852896910508 196 198 197
0.5737568813154301 2.953467828286718 3.250156770313281 203 203 203
0.5479616266606644 2.9625513496436815 3.262042236649196 204 204 204
0.5221259803254292 2.9715644405375103 3.273931439707496 205 205 205
0.5463350494517387 2.911935712408708 3.2537975828239762 205 205 205
2.2782357794522605 3.987081902376545 2.7688698265296035 207 207 207
2.257901297582146 3.9958556925407125 2.7785574124779266 207 207 207
2.265975238132742 3.939792040264602 2.765391472558032 205 205 205
2.2508512210383333 3.936732807076535 2.7708978869217757 207 207 207
2.224797395670377 3.9582924918225233 2.78513905303177 207 206 207
2.1887368668407134 4.002073086498514 2.8073207582181734 193 193 195
2.131593229581498 4.092562795611382 2.846213215532688 143 144 146
2.099172405429902 4.127117883231598 2.8653041164152224 100 103 106
2.066423038067105 4.162024121845356 2.8845886525982602 86 87 91
2.0459705910187793 4.16939687395131 2.8940750931703465 79 79 84
2.00433725066554 4.223196564349194 2.9202613798869965 74 72 77
2.160305768980504 3.843886789013332 2.7906539992175703 71 69 74
2.128850356477246 3.8762882293973204 2.808977078584503 67 66 71
2.045816431156986 4.020276160789857 2.8677061735555425 66 65 70
2.053520387426632 3.966873179608609 2.8551597885433786 64 63 68
2.0481230673254593 3.9420421483767973 2.852917250395888 62 62 64
2.038076715026351 3.9273089827796186 2.8543238024155726 60 60 62
2.0521324369377894 3.8612081057462584 2.836986505894821 60 60 62
2.0264400591222342 3.880032025195228 2.8505982213364383 60 60 62
2.0436124359571766 3.807951432985023 2.830954600288458 59 59 61
2.1016584958715963 3.650314571365402 2.7797998817515923 56 56 58
2.100341845390126 3.618445535108245 2.7746779004705595 55 55 57
2.108124018442137 3.5677701163292754 2.7625836745534795 54 54 58
2.0729478213042456 3.606794004715111 2.783568611539005 53 52 57
2.0270273385605475 3.6676712983246427 2.8127239358115843 51 50 55
1.8501460888924344 3.9980568195613433 2.942023602012558 50 49 54
1.86219887682739 3.9375852960446505 2.9264851136474093 50 49 54
1.8895910129118711 3.846172541660091 2.899327754567385 51 50 55
2.00726994733444 3.571564139166886 2.8035913285251652 52 51 56
2.0441456548725796 3.463049943403249 2.7696100387534734 53 52 57
2.0663063266979345 3.3850866178165635 2.7469287459487024 53 52 57
2.0834691654736326 3.317752031766764 2.7281301349674765 52 51 56
2.099398129685987 3.253376649114531 2.7103494925661917 50 49 54
2.1095349951326274 3.2010184251232303 2.6970152748774723 45 45 47
2.1265447187735425 3.13536963402995 2.6785766952059014 41 41 43
2.1278491470203273 3.1012659300955523 2.6720103709716554 36 35 40
2.124596347608759 3.0763550129232575 2.668896002229289 38 36 43
2.1200710769493853 3.054078996692625 2.666757557999478 36 33 42
2.1231125109402336 3.017131418650809 2.6589924861159897 35 32 39
2.1220054301000215 2.9884940309368035 2.6543594768133763 35 32 38
2.1169745833051965 2.967630574171284 2.652673596769808 34 34 36
2.117907381089411 2.9353584141123896 2.6465805289754956 36 36 38
2.160245658553874 2.8236698146347 2.609851919697114 38 38 40
2.0603157180414113 2.9852640801417487 2.6784589383088218 38 38 41
2.0939240195655944 2.8907969339307362 2.648274140864122 40 39 44
2.1264209578066593 2.7991371820188276 2.6190314082367503 45 44 49
2.1626582329126354 2.701073936223536 2.5871578063892025 46 45 50
2.1898879769823596 2.620708217498514 2.562023401353885 46 45 50
2.2105960300292047 2.5531642833854375 2.5417698255243923 47 46 51
2.2512491815813425 2.4488149324831525 2.5070159880614677 47 46 52
2.3101894294272425 2.3111890651381013 2.4590504562174824 48 47 52
2.3497599631718122 2.210519998381646 2.425381900662814 47 46 51
2.0081471543796434 2.814677018669901 2.669087704203838 46 45 50
2.0121641131582857 2.778102989275473 2.6609986934856855 47 46 51
2.0168955446271326 2.7404468231671864 2.652432138349482 47 46 51
2.0141961115510436 2.7165893550829647 2.649283174668414 48 47 52
2.0146111800708617 2.6871960454616697 2.6439074210633824 48 47 52
2.006145883541832 2.674054088661216 2.644963682010126 47 46 51
1.9958849039727211 2.6641932399401203 2.6473196543553406 46 45 50
2.0026358401897215 2.623783495334564 2.6374573742481284 47 46 51
1.997535634719448 2.6048388616083384 2.636139330828235 47 46 51
1.9873019922559747 2.5951329980635576 2.6385118400838072 46 45 50
1.9795295049378638 2.5810722746812793 2.639128176802102 46 45 50
1.9657042960350197 2.577766848287869 2.644071514820202 47 46 51
1.9572043714329244 2.5650444302189745 2.645215985008038 47 46 51
1.9493106321979548 2.5512969171808324 2.645936329033755 47 46 51
1.935973571772093 2.547112457918273 2.650528636567806 48 47 52
1.937601490172378 2.516839268310893 2.6445118680311617 48 47 52
1.9273529687086182 2.5073431845078247 2.6469275098872735 50 49 54
1.9160273562657573 2.4997222962490593 2.6501062843031944 48 47 52
1.905419473242582 2.490865346759138 2.65277892980371 48 47 52
1.8851404270645493 2.4986015064063256 2.66226043246876 47 46 51
1.8601660485025875 2.5142399428315882 2.675020390088924 47 46 51
1.8662800114880946 2.476797108348893 2.665938722092 47 46 51
1.8500754823794863 2.477415196240433 2.672529050998897 47 46 51
1.8515110896662135 2.448180905372526 2.6667733319603846 47 46 51
1.7978209543229764 2.5118465083410895 2.6995302290959167 49 48 53
1.7879111779843735 2.5015993723399426 2.701677275925308 49 48 53
1.7761667025226568 2.494434111447749 2.705104325485067 48 47 52
1.761697983026536 2.4917951567598324 2.710423153979429 48 48 51
1.7522642759670348 2.4807751136467933 2.712242811259949 48 48 50
1.782625195013636 2.4040952385053798 2.6865094253647155 47 47 50
1.7810765588818043 2.3804064049718767 2.682930105624787 46 46 49
1.7621234207243428 2.3853494569813103 2.6913862714803227 41 40 45
1.7526428643925716 2.3747384230730955 2.6932971594186417 41 40 45
1.7374128445670067 2.373497162334308 2.699168190647657 47 46 51
1.7205105284974773 2.3749162645594657 2.7061795638263115 43 43 48
1.7070301596638322 2.3707451827429007 2.710831556631871 49 49 53
1.6843067709849397 2.3814071751715815 2.7218092230835067 38 39 40
1.633561887142556 2.436812200254782 2.7519240796119595 27 28 28
1.620840020355247 2.43107437662235 2.755995026299143 27 28 30
1.6077304077618493 2.4259376464665925 2.760327586052951 26 27 31
1.5945533329144406 2.4208879847768943 2.764702558661396 28 28 35
1.5796332920112 2.4185681736385893 2.770258452808245 28 29 35
1.5609495086418437 2.422124584560985 2.7783611217840427 29 30 34
1.5321899102908554 2.441378103514444 2.7932756730745787 33 32 37
1.515745205925408 2.441214501329784 2.7998235078103426 35 34 38
1.485943091082496 2.461760898525009 2.8153841525197594 35 36 40
1.4577596416369634 2.479590583525436 2.829815916698977 39 40 44
1.429903753472512 2.496725370396076 2.8439935115798805 45 46 50
1.4043333120394497 2.510161853218964 2.8566015758641057 49 50 53
1.3790530810340345 2.52299673623839 2.868986945264413 54 54 56
1.3888754287057377 2.482100869921311 2.8578101350534824 56 56 58
1.379812398739221 2.470165706507166 2.8593193466673847 57 57 59
1.3658237021593083 2.4657229077069673 2.86412647824305 57 56 61
1.324035545233854 2.503222038087084 2.887485524700029 57 56 61
1.2881859697502624 2.5314572115840237 2.906827547934436 55 54 59
1.2310997513411508 2.591255302625747 2.9402571728488227 52 51 56
1.1218923161402399 2.728388828058232 3.0082391069122116 50 49 54
1.236700594971386 2.5311758483484814 2.9273685418167643 49 48 53
1.238492502309721 2.502869477565854 2.921634792661182 49 48 53
1.2104367281768906 2.5187958983867462 2.9356781549802684 49 48 53
1.2534565891539362 2.429946717240466 2.902725078409357 49 48 53
1.2602410717827586 2.394815967025121 2.8937850456603686 51 50 55
1.267436626229688 2.3592803587728186 2.8846088522489794 52 51 56
1.2357836627239625 2.3805004767571982 2.9010291304434794 53 52 57
1.2014331803841953 2.4054239171500162 2.919184631240621 56 55 60
1.1823872114385587 2.407990117003556 2.92725664353892 61 60 65
1.1593125049877657 2.4162826999510143 2.937954853887586 58 57 62
1.0553002058878653 2.540607297391569 3.001588774780522 57 56 61
0.9610253944797107 2.6500608971794866 3.0586925448005458 57 56 61
0.8810980970250637 2.7382313241544445 3.1062859357889527 60 59 64
0.8779450002288225 2.7167157821250503 3.1037334981843854 64 64 67
0.8508186942026781 2.7292072031724555 3.116796303590263 70 70 76
0.8251634113100716 2.739476163096379 3.1288768783941956 77 77 81
0.7871870957313336 2.766918157508769 3.148928876625308 83 86 86
0.7367323879440528 2.811569974476807 3.177021752468253 102 106 105
0.6853371081502668 2.8571564102152056 3.205656451529048 150 152 151
0.6373489628727447 2.897624193634989 3.232021269965064 190 192 191
0.5999077013018239 2.9231393118320024 3.2515177557983357 203 203 203
0.5596346964373486 2.9523201421181513 3.272796479291678 204 204 204
0.5511133805728243 2.9375741585955004 3.273590842198725 204 204 204
0.5317724604707441 2.9376950107483975 3.281347395842735 204 204 204
2.289312821778664 3.9715604308757158 2.7786621295825586 207 207 207
2.270370402527654 3.97723391641359 2.787272050436508 206 206 206
2.286951406635393 3.9018033826227962 2.7671378218545475 206 206 206
2.2547233532800366 3.9377337975269318 2.78648442133744 204 204 204
2.229808428338315 3.956748514077672 2.7998743747032413 202 202 203
2.193972110912215 4.000089679235309 2.821992728808308 177 178 180
2.139219588042498 4.085343870377137 2.8591894146286254 119 122 123
2.1105274272376615 4.111662955368843 2.8753998586590503 90 94 97
2.0885414601125802 4.1227862994565125 2.886204522668752 79 83 84
2.054284284576143 4.160863327727355 2.906748540810354 76 77 79
2.0137182532921285 4.21241947383557 2.932232114022338 71 71 73
2.1722471337157745 3.8271276870280975 2.799781876443818 68 68 71
2.13216197288027 3.878476268861368 2.8250355197239143 66 65 70
2.078269597757658 3.959307438922418 2.8610965500141337 64 63 68
2.0355536165868156 4.01519121246476 2.8882159146227564 62 61 66
2.014124934807362 4.024666285528788 2.8985024372936072 60 59 62
2.0171112271511165 3.9816179298298584 2.8896087755973454 59 59 61
1.8525058626368582 4.259149495159614 3.0052301644220307 58 58 60
1.8573481150189664 4.211497271506027 2.994769210227146 56 56 58
1.8573573173435918 4.17436289143528 2.9881266182020902 55 55 57
1.845915157126788 4.161510304110064 2.9904169529842792 54 54 56
2.0885987623195836 3.61735654249053 2.795820574312652 54 53 57
2.0588066194882453 3.6450111427773417 2.81271085790496 51 50 55
2.040010535944066 3.6495641976884627 2.8210617893227137 50 49 54
1.8476566027015178 4.012330827935699 2.963048283348951 50 49 54
1.8446735027066086 3.9826555053811905 2.958939091359423 48 47 52
1.889764879018803 3.854728444721917 2.917987297675442 49 48 53
2.0050400478973724 3.5847019058578726 2.8234882942218635 50 49 54
2.0429773225347505 3.47387039242172 2.788461532897948 52 51 54
2.075579511470413 3.374675435855055 2.757654446237987 55 55 57
2.1195963154012993 3.2532490387575104 2.7182957308982614 58 58 60
2.1287795333012394 3.2026065502430683 2.705559516785722 63 63 65
2.1388199484870993 3.150602663440321 2.692236188602958 61 61 63
2.148210616708688 3.100252177283057 2.679468994491239 51 51 53
2.156221290365124 3.0529821365875085 2.6678058800095155 43 43 47
2.158287493241318 3.01775882217214 2.660680124312589 42 41 47
2.1457510978007965 3.0114429623074654 2.664577869450714 41 38 46
2.1478452078122263 2.9764914996668215 2.657489525220039 40 38 43
2.1447987152032777 2.9517756931404335 2.654292417294357 37 35 39
2.1320444676970673 2.9460335521827767 2.658380087424742 35 35 37
2.1307533801878673 2.9181205417868203 2.6539074920211534 35 35 37
2.1230229705586776 2.902763382384137 2.6542617045697177 34 34 36
2.045764399674624 3.020747405666779 2.7063344168191423 34 34 37
2.1402565903625064 2.809809207441351 2.630732902494298 34 33 38
2.149782672904357 2.7620694250674074 2.6183781522258087 33 32 37
2.1055333739584134 2.8164936259721114 2.6458514100783197 33 32 37
2.0940761631318816 2.8085642526360335 2.6490279544446524 33 33 36
2.204904303135355 2.5708982270695255 2.562097567558844 33 33 35
2.2318774340741676 2.491978586617963 2.5371724752981617 31 31 33
2.0588281914373425 2.786413588273725 2.659201730891582 33 33 35
2.0513885598622386 2.7710226877158513 2.6594333137505646 36 36 38
2.0445864543336123 2.7545130901766295 2.659209257508523 38 38 40
2.0347489491433017 2.7436622680894738 2.66121402737975 38 38 40
2.025254346095076 2.7322064432928883 2.662973136210345 38 37 41
2.0261010312991274 2.70188560486649 2.657212854911006 39 38 43
2.0266597127501105 2.6722665493892515 2.6516935236781207 40 39 44
2.0219445765551085 2.6523790256935884 2.650028718295222 41 40 45
2.054731140829241 2.5648772434633473 2.6212382112620936 42 41 46
2.0143769914360443 2.609539260917968 2.645404287583407 42 41 46
2.0026399644088446 2.6025272098005807 2.6488570331489334 42 41 46
1.9977115598037911 2.583360532244906 2.6474066182607356 43 42 47
1.979460841619269 2.5879621413326097 2.655547547278753 42 41 46
1.967471289840021 2.5813825545755775 2.65917886748418 41 40 45
1.959618063053906 2.5674993291097996 2.659845838389072 43 42 47
1.949657015336782 2.557366755821983 2.662028555732141 43 42 47
1.9407366679326183 2.5454317468079273 2.6634717282932203 43 42 47
1.9319390362457352 2.533315462906999 2.664833285370202 42 41 46
1.9089133666143847 2.545938527461252 2.676322974479755 41 40 45
1.8874851803736301 2.5556414848426385 2.686650039713446 41 40 45
1.8585063090046998 2.578220030719183 2.7023067148215247 41 40 45
1.8515292819614948 2.5628014855956263 2.7023478582248623 41 40 45
1.8534336219207095 2.532256211665781 2.6961233493050525 40 39 44
1.8334395490465687 2.5391838315835926 2.7053791814721353 38 37 42
1.8428182267890483 2.4961616247350413 2.6939269485959545 39 38 43
1.8463671261020136 2.4632625716334102 2.6866221874668588 36 35 39
1.8288719502028303 2.4659893910498525 2.694124980117968 37 37 39
1.8165910038918747 2.4598905235177533 2.69795908816159 37 37 39
1.7841487143347154 2.487468943097163 2.7158984193189992 35 35 37
1.7757556442978997 2.474745714978779 2.7169892437579484 33 32 34
1.755570421788729 2.481615593051311 2.7263114008102005 35 33 36
1.7451339530615833 2.472269210811165 2.728825310114144 33 31 34
1.7575771155456583 2.425278926887513 2.715434852320456 34 32 36
1.7538893681230494 2.405033113908368 2.7132940250584037 30 28 33
1.7476673891181473 2.389021177828435 2.71292631934861 28 26 31
1.7317849531598706 2.3887921204977327 2.7192539755855396 30 28 33
1.7184997924415881 2.384296309733422 2.723777353071876 30 29 34
1.7060967738588335 2.378351674211852 2.7276879838498433 34 33 38
1.686400974797117 2.384128319191708 2.7366184410618004 34 33 38
1.6626675256295376 2.3962766363032943 2.748307063069689 30 30 35
1.6316352363661926 2.4199332443656383 2.764979862950041 29 30 35
1.6082154869106633 2.431243397396108 2.7763928489324625 30 31 35
1.590860209118583 2.4327981300157027 2.783629998409168 31 32 36
1.5637910118169795 2.449624420071806 2.797492533211211 32 33 37
1.5422801798527588 2.457522123283714 2.8075299938866776 35 36 40
1.5178330230366468 2.469906170320611 2.81954694535275 40 40 45
1.4924371093628757 2.4836221838505703 2.832182463008107 43 42 48
1.4675849217768504 2.496332544379306 2.844420163928004 50 51 55
1.4424887460610876 2.5092690311450108 2.8567961272090954 56 57 61
1.4169121895277208 2.522793759431021 2.869469881745802 57 58 62
1.38925458792983 2.5393629796091433 2.8835223983490343 57 58 61
1.367369506324298 2.5469011542639977 2.893645650563529 59 59 61
1.3893036305107709 2.487386083758798 2.874210279014173 59 59 61
1.3751985480789832 2.483100872576327 2.8791000833148175 59 59 61
1.3709606481389762 2.4638255529221724 2.8773533638219693 58 57 62
1.355607634625632 2.4614268712268568 2.883080843508386 58 57 62
1.3461193017454296 2.4501588965491417 2.884871022033268 55 54 59
1.3475264950344084 2.422572529601863 2.8793748559054064 52 51 56
1.287418782046368 2.4870610164748097 2.915006386368798 51 50 55
1.14973548767437 2.666536319009304 3.0023019031135245 50 49 54
1.1615957549906817 2.622782866655573 2.9897238594009066 49 48 53
0.9403949495268649 2.8699092914094035 3.122603285189597 48 47 52
1.2454511415306329 2.3970753970484027 2.9157470790489888 50 49 54
1.2435224623387036 2.374872642352499 2.9125510301055484 50 49 54
1.2194506003822103 2.384919349623945 2.9239996235218793 52 51 56
1.205451590759898 2.38026563789795 2.9287810135914283 57 56 61
1.1835331898813026 2.3870028260706047 2.938774425568546 59 58 63
1.12176887323858 2.4508611891686716 2.974957574236109 58 57 62
1.014529087738066 2.5792829601397425 3.040918347839355 56 55 60
0.9187931153785396 2.690324659798685 3.099159055792335 57 56 61
0.8987502549316986 2.6929659929592216 3.1076681466350076 60 61 63
0.8535171213026491 2.731192556038361 3.1326400853801104 65 66 71
0.8761335225845093 2.6733693172862485 3.1132335979192303 71 72 76
0.8251167588660533 2.7194046721082787 3.141920740918273 78 81 81
0.7696377588363605 2.771303536798829 3.17344545161908 94 97 96
0.7136180961250178 2.823528602219103 3.205245277879098 133 135 134
0.6597175597845322 2.8723756754421625 3.235591448724899 181 183 182
0.6144180655853635 2.9088960254595895 3.2602849594373224 200 200 200
0.5772014201998739 2.9339346292090456 3.2796846627736316 204 204 204
0.5359723607549145 2.964256252462143 3.301637781815977 204 204 204
0.6717093965858074 2.7516395814929187 3.209197654631218 204 204 204
2.278297844724195 4.006871356953306 2.8064420359280264 207 207 207
2.2805987266543846 3.9637064166814007 2.7977335413309925 207 205 206
2.295682571542738 3.891673113904672 2.778680355243956 207 205 206
2.262222890412323 3.9304961720298905 2.799132793110343 204 203 204
2.2358855522950796 3.952790348886376 2.8137413402667892 198 198 200
2.203394840749042 3.9886716602316645 2.8332737671326544 164 163 167
2.150306490699111 4.070349736980795 2.8693451581586 107 109 112
2.1199263012765837 4.1005410168326595 2.8870030638779447 85 87 91
2.0713770035474877 4.170778868710515 2.919186714511398 78 80 82
2.034880238345831 4.2136548862239565 2.941590986667839 74 75 78
2.0199337447562784 4.2085944487589 2.94668747771548 69 70 73
2.200553193154649 3.7744277080490694 2.795783922850154 66 66 70
2.0977478372012097 3.9630831263123003 2.8711332541912276 64 63 66
2.0164454065361666 4.1032676156459775 2.9290974633396005 62 62 65
1.985847029832926 4.132358517840915 2.946644668431743 60 60 63
1.945203301220917 4.182785945407341 2.9720778206134604 59 59 61
2.002826439859615 4.021702715198295 2.9198650273503635 57 57 59
1.8496370579931378 4.312650016199892 3.0339155853114663 57 57 59
1.859237267013566 4.254470248451326 3.0195650593980576 56 56 59
1.8484906936971945 4.239840637030477 3.021247538602284 55 54 58
1.8623651454198136 4.173285220844006 3.0036683362405086 54 53 57
1.86882553281696 4.122800498045628 2.9919676861680853 52 52 56
1.9459359984439235 3.924789026418052 2.9252614751163444 51 50 55
2.0616640062537193 3.6478820160666725 2.828803361122153 50 49 54
1.9791808140070493 3.7846176905383055 2.886620388216 49 48 53
1.8351680827554315 4.047302224132028 2.9918853118757855 49 48 53
1.824866082821341 4.032519599113237 2.993361466602202 48 47 52
1.8215858242030059 4.00339448101451 2.9894284234184196 48 47 52
1.8841476748319044 3.8400555964621006 2.9348233670204684 49 48 53
1.9734636455884322 3.623625085321535 2.8598888343309348 51 50 55
2.0239158309721716 3.4875816191581457 2.8150741495816387 54 53 57
2.167239014277961 3.165400276609627 2.6993580348589075 56 56 60
2.1730495228159983 3.1218451582336018 2.6891681977382604 59 59 63
2.1776919158706485 3.0809180199983324 2.6799218567310823 61 61 63
2.175760192243043 3.053349468099677 2.6757273365329355 63 63 65
2.1803056107371512 3.01310019064237 2.666642213763715 61 60 63
2.1856044043607805 2.9716281585677664 2.657033723245372 58 58 61
2.177686753052095 2.9564191090509038 2.657474398489738 53 52 55
2.17318167936869 2.9345866532663543 2.6553487779033684 51 50 53
2.1772731167512167 2.896101570770436 2.6467642886332854 45 44 46
2.167996328633093 2.8838320573227385 2.648281436371188 40 40 43
2.159332624611271 2.870412296045593 2.649344692354498 41 40 44
1.9999269081752413 3.1474673564008437 2.763389385786744 40 39 43
2.0348122024330273 3.0493969258639457 2.731680370339896 39 38 42
2.068890540925482 2.9535951531786457 2.700704860178709 38 36 40
2.1113879994868983 2.8424758934579177 2.6635825495898358 35 34 38
2.1058145127314347 2.8233173995773284 2.6623686328416496 34 33 38
2.095840534682557 2.812558390469343 2.6644384467971194 34 33 38
2.086338440316728 2.80093530770087 2.6661627389071647 30 29 33
2.0784677222727415 2.7862868243966745 2.666685626232423 24 24 27
2.069137284092513 2.774415909505047 2.66829621800961 28 28 30
2.060575418151893 2.761149080979756 2.66934610841571 30 30 32
2.0499450862241213 2.7517536846836066 2.6719256837947345 31 31 33
2.0444821735210046 2.732845287676787 2.670712409868863 32 32 34
2.0385491769619026 2.714887906038684 2.669859611450602 32 32 35
2.0351161424945077 2.692438919715947 2.667191823406337 31 31 34
2.02981310619521 2.673512025485734 2.6659109384763595 30 29 33
2.025613804168299 2.6526704153350207 2.663841055984069 28 27 32
2.0488972954628366 2.5822635544479335 2.641784619465466 29 27 33
2.0333931036013895 2.5821724629357163 2.648001391741537 28 26 32
2.0211299609311446 2.5762102835533787 2.6518564856796445 30 28 34
2.0068667226061914 2.5738067963061884 2.6571573844381398 32 31 36
1.9468195297930864 2.652815173064579 2.695545062419495 32 31 36
1.9373302026468033 2.6415513447349603 2.6973290021287983 31 30 35
1.9839649987454553 2.531242305142514 2.6586894432167085 31 30 35
1.954886915485777 2.5548617430709344 2.67463883045888 31 30 34
1.9285032167981033 2.5735187990962123 2.6886101736758437 33 32 38
1.903028018623639 2.5903863060275527 2.701893579729446 32 31 36
1.910292863887972 2.5501609822745843 2.691719476784083 29 28 31
1.8760733722934897 2.5820078446789134 2.7112194421200058 28 26 30
1.8647446664735576 2.574071595890959 2.7143428990896497 29 27 31
1.8499117321963237 2.572156717328909 2.7199609399468843 30 29 32
1.855112137994372 2.53591216455938 2.711334619047692 30 30 33
1.8439008663377887 2.5278647520168205 2.714390818650155 31 31 34
1.8406579256292885 2.506287102419554 2.7118037252990144 28 28 31
1.826910349975667 2.5025867418337806 2.71666345955472 27 27 29
1.816904297157734 2.4925498310099927 2.718876376754003 28 28 29
1.8167824263742327 2.4659358023730156 2.7141263546577896 26 26 27
1.8119611553629986 2.4473252047888288 2.7127088184834784 25 25 26
1.78480504880697 2.4660107150946358 2.726995826056102 28 26 28
1.7815886362237972 2.444759941213981 2.7244570094624034 29 27 29
1.756817910640805 2.459252670912405 2.7370289765018394 30 28 30
1.7672620245418695 2.4155680115658154 2.72495291808868 31 29 31
1.745607572383674 2.4248309815527556 2.735329014502481 30 28 31
1.7374091443043886 2.4119668285585916 2.736305400967026 30 28 32
1.7254066102791246 2.40533722632885 2.7399353725126563 29 27 32
1.708626678467175 2.406451294964983 2.7468823478501885 31 30 35
1.6974000350307732 2.398521976932911 2.74996602211447 35 34 39
1.6747731111295447 2.408953964256761 2.760943880502034 34 33 39
1.6307140052697129 2.453636867685603 2.786714279748086 35 34 40
1.6189633384933675 2.446284433327823 2.7901126518788772 35 35 39
1.6007987853548806 2.449142636711283 2.797930791616036 37 37 40
1.5826699234932033 2.4518647275608307 2.8057100385875673 41 41 43
1.5554524848621312 2.468874354647631 2.819719509897862 47 47 49
1.5428445323625106 2.46269252800278 2.82367362218873 52 52 55
1.5181920664819346 2.475395523823498 2.8358753216821944 55 55 58
1.4833211199520784 2.5039191950149755 2.855037958534484 57 57 61
1.4574044068090934 2.5182285941147207 2.8680375924563513 59 59 64
1.4313866110527378 2.532530631388302 2.8810765374533656 59 59 63
1.401899547800273 2.5520317093827827 2.8964477291441053 58 58 62
1.4179235540301112 2.5012338988888927 2.880845732356217 58 58 62
1.4165083372685139 2.477511942835421 2.8771371740898943 59 58 62
1.413244954931587 2.456731354439418 2.8747020243224717 59 58 62
1.4129452783365015 2.431530205262679 2.870278255220846 59 58 62
1.3855846511698808 2.4475268399214505 2.884162631155777 58 57 62
1.377103878707466 2.4347988068963655 2.8852770744316585 58 57 62
1.3723431290214259 2.416500892837637 2.8838915895009674 56 55 60
1.3303544453969054 2.4541642244987956 2.907563847551423 52 51 56
1.3318312514550104 2.4264838392364445 2.901978820013617 51 50 55
1.0974987219195753 2.750367393028456 3.054590642626959 50 49 54
0.9894965560683204 2.8842581781681758 3.12215415302892 49 48 53
1.1309679773331445 2.6480262329202793 3.02268082742946 48 47 52
1.113713281361419 2.647425470380512 3.0295094568127503 47 46 51
0.9698573651321643 2.8327207373415493 3.1207565713143737 47 46 51
1.0300183830286713 2.7180413407747883 3.075890965040897 48 47 52
1.0899596644999445 2.604448438275665 3.031309615728991 49 48 53
1.14939225516049 2.492352767117774 2.987202756379773 50 49 54
1.2154723839442332 2.3713804554075337 2.9388227388869645 52 51 56
1.2157005986135943 2.3462127556757446 2.9341927716152725 59 58 63
1.155428469949293 2.4081292277594564 2.969588884064037 60 59 64
1.0595895140857863 2.520484209766883 3.0283790648056947 56 55 60
0.9616957346887913 2.634910020084695 3.088368762491541 57 56 61
0.8909127992662191 2.7099083313981263 3.1303494725430925 58 59 62
0.8570767391757479 2.7319615347588755 3.147929301770429 62 63 67
0.835545999040036 2.7364241801470603 3.157390071560579 69 70 74
0.8502919932260173 2.6897596722666792 3.143047191358713 76 78 79
0.7918893935506564 2.7459086590263255 3.1766517034636994 88 92 92
0.7354190392352662 2.798899960930806 3.2089099980896427 120 123 122
0.6771743706772904 2.8539247210385414 3.2422482971042457 171 172 170
0.6353671772412586 2.8857007296632853 3.2647859931977288 198 198 199
0.5931162633902001 2.9178039609019675 3.2875610840641643 203 203 205
0.5555110182608907 2.943220991988696 3.3072628127656656 204 204 205
0.6859165704002375 2.737834427395894 3.217800344324955 204 204 205
2.299645021803993 3.9676637659572824 2.8077681448236884 206 206 206
2.2889375986037948 3.9544847006825137 2.8096873916896072 207 205 206
2.218436624949452 4.0779648937805675 2.8605610545023366 207 205 206
2.269578083962744 3.923571153674778 2.811868974805478 206 204 205
2.2433664469717796 3.945644887523742 2.8264487289733737 195 193 195
2.2183472749013085 3.964760085036354 2.8400097856766973 148 147 151
2.1648978102230694 4.047455197700492 2.876593159819036 102 102 106
2.136479024752239 4.073405220492285 2.892767513992472 85 86 90
2.115043987523177 4.083510984765891 2.903245424387382 77 78 81
2.0611847056081922 4.165292885937562 2.9398279131993643 71 72 75
2.0517837403060843 4.148211325082141 2.940510846782129 67 68 72
2.1732924296923715 3.8436610966606533 2.836147696323727 64 64 69
2.109691794492354 3.946496598281301 2.8804855356793 61 61 63
2.0419249573746527 4.0574427384595 2.927977688735293 60 60 62
1.9959054709080457 4.120206814358253 2.9579415352420693 58 58 60
1.9566603495376702 4.167730930592601 2.9824032336862776 57 57 59
1.9053959998092693 4.240608008888869 3.0163203307971047 55 55 57
1.9019352010945212 4.210465371921765 3.012233616178639 54 54 56
1.8925208652033372 4.193191237917804 3.0128869181013185 53 53 56
1.8807497274710008 4.180988783343109 3.0154125348951597 52 51 56
1.8619817767637672 4.183598923407177 3.023452244536314 51 50 55
1.8926483809268142 4.082087489141996 2.992630330599873 50 49 54
1.8908457118348767 4.0493927091681385 2.987411123395839 48 47 52
1.9146964781435158 3.963371999610623 2.962153678281465 47 46 51
1.868315444065655 4.02392321365757 2.9918608300344025 47 46 51
1.8383703594444314 4.049885288110959 3.0086526004142726 47 46 51
1.801195880483484 4.090449790982943 3.0310139925591697 47 46 51
1.8130846976168022 4.029936435287826 3.015216935372989 47 46 51
1.8935034090845484 3.8298369056950214 2.9464117095617635 48 47 52
1.9405946894478325 3.699139051614702 2.903661490134836 51 50 55
1.9914975502481556 3.5617322836225016 2.8581548146099154 52 51 56
2.068393207017924 3.3729468530999127 2.792827238401107 51 50 55
2.086702310372293 3.3033787588953976 2.772795592704387 54 53 58
2.110325353301439 3.2236832273191456 2.7487802278230964 57 57 59
2.123374496421886 3.1656492676022188 2.732966363352128 58 58 60
2.147866102415059 3.0853164850934416 2.708485006229178 59 59 61
2.197111306131923 2.9566514646041933 2.665236266513464 62 62 64
2.2043941248207304 2.911574069143375 2.654102971114949 61 61 63
2.2003265078929024 2.889051571231448 2.651646643223745 61 61 63
2.196275125426689 2.8666170383232648 2.649199768709905 62 62 64
2.1977546474756022 2.833547117563813 2.642589345000856 57 56 60
2.1860103869569167 2.8262900211532944 2.646003484681247 51 51 55
2.120817641713196 2.9221102737712963 2.689707291395431 47 46 50
2.1168893818129977 2.8994136184941897 2.6871631190828897 45 44 48
2.1156830005553586 2.8716293775465673 2.682596583133374 44 42 45
2.116592691163214 2.8399737794077806 2.67647305545163 48 46 49
2.108483705285196 2.825623939939668 2.6771320021324287 40 38 43
2.099727756278933 2.8125490618101083 2.6782835912076552 38 36 42
2.0898964769910893 2.8015403373794316 2.6802443752370255 38 37 42
2.0853746971370715 2.78060218538252 2.6782592396394387 35 34 37
2.0827376872544914 2.7562491089581407 2.6748933523486134 34 34 36
2.073326270995193 2.744627953460366 2.6765735209864716 35 35 37
2.0668936946266108 2.727518719230278 2.6760549162351754 32 32 34
2.060713420943765 2.7100179006833818 2.6753633996499415 31 31 33
2.0560941631291163 2.689725171338744 2.6735349314668033 34 33 37
2.0499414122051407 2.672338687719536 2.6728531137448712 32 31 35
2.0420586575738557 2.6581826019032193 2.673456106360494 33 33 35
2.0336467757383554 2.6450379486524023 2.6744563187579247 28 28 28
2.0216628768551583 2.638397485070679 2.678079192545351 27 25 31
1.9929544560975283 2.66188375679959 2.6939222389673887 29 26 32
1.983313015788937 2.6509033644625792 2.695811654661736 30 28 34
1.9733164779372285 2.6405828448296784 2.69796420758907 30 29 34
1.9588952245646447 2.638161599785565 2.7033368381454492 30 29 34
1.949104488274776 2.627484811483873 2.70534164548838 30 29 34
1.9414877464722244 2.6129893303741136 2.7057756909812998 29 28 33
1.932404507305188 2.601127178995053 2.707279749961965 36 35 39
1.934907267052183 2.568984324429823 2.700425472117118 38 37 43
1.9299582011616114 2.5500443196883227 2.6989759486005624 32 31 37
1.9215322863039512 2.537239442956704 2.7000436087947426 31 30 32
1.9104355161031674 2.5291021272991427 2.7030366808805106 30 28 31
1.8974630885487103 2.5242057837782896 2.7073751967775803 31 29 32
1.8867206122149858 2.5154530885348594 2.7101135470407045 33 31 34
1.8765030454047376 2.505809124464982 2.7124782304219863 34 33 36
1.8659038351456938 2.496831106972116 2.7151178558136815 35 35 38
1.8534920776400736 2.490943732808385 2.719050147827686 33 32 35
1.8365380896277639 2.49273381761093 2.726209546596862 30 29 33
1.8268038686521573 2.4822724197495827 2.728230744239381 33 32 37
1.8234612834839303 2.461091112812222 2.725726076025439 34 33 38
1.7928849572361796 2.4856023539092202 2.742508442139159 32 31 35
1.7861867519729957 2.470047783121948 2.7423796368919993 33 31 36
1.7604179106976465 2.4862351550276296 2.755710421461048 34 32 37
1.753580581039425 2.4709087295740413 2.7556791850492073 34 32 37
1.7396439440211415 2.467344644684649 2.7606486398065098 39 36 41
1.728744715734328 2.458759742736399 2.7634806887195706 34 32 35
1.6920469271554714 2.492396483372211 2.7843900611694044 33 31 34
1.6918426090671592 2.466230150461299 2.7797138417958616 33 31 36
1.6747301009867113 2.4676617120761883 2.7868719366570303 34 33 37
1.6575062566132268 2.469204138831487 2.7940950710267862 40 40 42
1.6411652809842372 2.4692534011736234 2.80069079143509 44 44 46
1.621853214116615 2.4740149483707734 2.809341076986666 46 46 49
1.6157169044143116 2.4576031079441325 2.808829879481977 52 52 54
1.5974766075978826 2.4605476447415766 2.816717714033364 53 53 55
1.588890405914449 2.4480817241873023 2.8179116251895406 57 57 59
1.5610432521909277 2.466121772527715 2.832417066584019 58 58 60
1.5408419664971387 2.471918450805541 2.8416140283376685 60 60 62
1.518225316118103 2.481406648251025 2.852455916410297 61 61 63
1.4933225890185775 2.4943427262721105 2.864846309275184 60 60 62
1.4734134868373898 2.499341073241249 2.8737803134339046 60 59 64
1.4570028003391333 2.4988111160710704 2.8802987969423226 60 59 64
1.4401506241336481 2.498909608278139 2.887109526248129 59 58 63
1.4371133099289188 2.47765295426799 2.884468106121242 59 58 63
1.4426803017521228 2.443279230985301 2.8759729869103796 59 58 63
1.4205129858427767 2.451539020155985 2.886410359327788 59 58 63
1.4141780639190076 2.435542178252504 2.886054690047592 58 57 62
1.3889493477402128 2.4483043896376184 2.8985448642438 58 57 62
1.3701597391373364 2.4511700126339546 2.9066397656091176 58 57 62
1.3434133233869416 2.465955007890238 2.920109558904879 57 56 61
1.3467859493892433 2.4353223753147852 2.91317930025194 54 53 58
1.3361318716336854 2.425852155108419 2.915751530405357 51 50 55
1.16665301482402 2.6532821433624707 3.025425626819549 51 50 55
1.1667876395702488 2.626940376436537 3.0205808813049115 50 49 54
1.2212055680365212 2.5203525980814243 2.979262046179576 49 48 53
1.2262058794006643 2.4873854581839403 2.9712511454426203 48 47 52
1.0379739848651937 2.7386500278624704 3.0928187905715916 47 46 51
1.0485759637855772 2.696810585048734 3.0809364497053964 47 46 51
1.081880447029302 2.6220806354575643 3.053921699974028 48 47 52
1.1413189627399498 2.5098266491941374 3.0095487044447955 49 48 53
1.178917945109273 2.4299649197496427 2.979869658152049 53 52 57
1.2196660429884225 2.346072516933818 2.9481882452522714 58 57 62
1.1998565823112735 2.349838088263567 2.956857894633834 60 59 64
1.1464843490929264 2.4016273478907437 2.9877896385269245 58 57 62
1.045970130114884 2.520318426225936 3.0498901734774244 56 55 60
0.9514733675203 2.629539570435453 3.1078429866300272 57 58 62
0.8581033975894148 2.7363242708035633 3.1648985207418434 60 61 65
0.8414383471888178 2.733904982676356 3.1711759425390142 66 67 71
0.8411992222288478 2.7083158363013955 3.166618719625132 73 74 77
0.7960426389205266 2.7458651330997954 3.1916492169101667 84 88 88
0.7561308627139984 2.7757555704206847 3.2131727935758874 109 112 111
0.7000553872196287 2.827889456110167 3.245256840437908 163 163 161
0.647526852725455 2.874669828002446 3.2749375940944843 195 195 197
0.596108681770902 2.919522175995037 3.303820151614726 203 203 205
0.5418998845752323 2.9678421126386945 3.334458173104837 204 204 206
0.7000715652404594 2.7240800499688507 3.226371671203749 204 204 205
0.017656831469742285 2.3870828691462904 3.440155237302639 207 207 207
0.032140590520688406 2.3470808162769536 3.4270423641493974 207 207 207
2.302727323237886 3.9705193826992877 2.8240352768003025 206 206 206
2.2220666026234364 4.118050803407689 2.8836900731997246 207 205 206
2.245149756075013 4.026884119814743 2.8576415070533656 206 204 205
2.234479209855629 4.013315841733839 2.8594654096863596 206 204 205
2.240787199882617 3.9612938728597102 2.847375349801192 192 191 193
2.247031599491323 3.909796333260158 2.8354071688671687 137 137 139
2.1785331220510216 4.02665780004769 2.8845219562529216 97 98 101
2.151672296011702 4.0492504246018095 2.8995207653985795 81 82 86
2.130025525754632 4.0599529756400985 2.9102317726785567 75 76 79
2.1094347508211957 4.068143292161203 2.920055275606598 70 71 74
2.2515651759666353 3.716812233593595 2.7981818443793105 65 66 71
2.197735529684037 3.799357437490064 2.8350748980434473 62 63 67
2.1211246136292603 3.9309929360247162 2.890177734459604 60 60 62
2.0534228777002825 4.04199602125647 2.937896109231875 59 59 61
2.00748609499985 4.104725001932876 2.967965116668709 57 57 59
1.9664452309619866 4.156257473586015 2.9940020911100342 55 55 57
1.9238591346212395 4.210596877993485 3.021178333999601 53 53 55
1.992827966817312 4.025356428981294 2.959332800073769 52 52 54
1.9946905605637755 3.984800718618686 2.951142174265568 51 51 54
1.9813255096004065 3.976866909780485 2.9550883722026464 50 49 54
1.905333585857823 4.101413676427688 3.008640984808233 50 49 54
1.9302190135177002 4.012326585462002 2.982245456764406 49 48 53
1.9298493499414624 3.9768934733632912 2.9758964401858066 48 47 52
1.9212935362484043 3.958783610919726 2.9760327867665852 47 46 51
1.9146171373860614 3.9368426450936744 2.9747069786057425 47 46 51
1.8733834667027705 3.9865875945438165 3.000494042096953 46 45 50
1.8221237657511589 4.056519965435959 3.034035311609675 46 45 50
1.8184586184244225 4.028038063768221 3.030292955043786 47 46 51
1.8257896854987423 3.977228512939294 3.018011793012078 47 46 51
1.8462531788956622 3.9000201264544394 2.9955818596004535 49 48 53
1.9935412169437305 3.566140918224729 2.8748247266531957 50 49 54
2.006568306486473 3.5061529302668144 2.8585582966354157 50 49 54
2.008911807208631 3.468081902820183 2.850629009851585 52 51 56
2.0747249902497984 3.303113715566723 2.7937766963570554 55 55 58
2.0800153311230742 3.2601765454426634 2.783764047887149 54 54 57
2.1102650291295104 3.1679380903549 2.754622684984081 54 54 57
2.0913796713940718 3.17360637411842 2.763294433993479 57 56 59
2.109655392632619 3.1059382548996997 2.7434983295241135 58 58 60
2.127646953595661 3.0393152243569626 2.7240087320796516 60 60 62
