ply
format ascii 1.0
element vertex 713
property float x
property float y
property float z
property uchar diffuse_red
property uchar diffuse_green
property uchar diffuse_blue
end_header
2.543781873917858 3.4435993168921843 3.566452787551245 172 174 173
2.537916889272124 3.4241050365082164 3.5779600358896735 177 179 178
2.532826388590019 3.404961474618037 3.588824845011567 180 181 181
2.5298717241359427 3.3869089592483315 3.5978691094326942 182 183 184
2.528824356623031 3.3698399639450365 3.605283995333164 185 186 187
2.5262940373111675 3.3519223364648534 3.613998855323426 186 187 188
2.5198328078776364 3.331804515481149 3.626140151284855 187 188 190
2.518685552749271 3.3145398345528934 3.6336972432979686 189 190 192
2.506982954142927 3.2914009858322415 3.65044171278671 189 190 192
2.556021814607547 3.3018868782061177 3.6143872176923466 190 191 193
2.458982802529489 3.231112894311108 3.7054655381763966 192 192 194
2.4986320276349856 3.236395638762493 3.6775749947321 193 193 195
2.268072776769485 3.0897102983312994 3.8855028653673784 193 193 195
2.2441536715693142 3.058665570282733 3.913317367165094 194 194 195
2.2997706940172775 3.0726590709896784 3.8715976735509887 195 195 195
2.1077159453410808 2.9454943508026536 4.0467636779649405 196 196 196
2.0508863498758374 2.8948413598341722 4.1037336188924725 196 196 196
2.121763348939961 2.9174429329141605 4.0486859830842175 196 196 196
1.9776099993899097 2.815889515671424 4.182571338729395 197 197 197
1.9605078095105368 2.787422994564248 4.204931863146002 197 197 197
1.8954951921031133 2.730830200085715 4.269570989326615 197 197 197
1.9226059574403587 2.7279233544982455 4.2530719442244145 198 198 198
1.9342632348990245 2.7160086428229757 4.250184498881848 198 198 198
1.8710417480549006 2.6597594953885024 4.313522266025974 199 199 199
1.8645369525599296 2.6368783541473197 4.32678196085015 199 199 199
3.403815403286769 3.371849224095711 3.034982099729258 206 206 206
3.424477839169036 3.3695795171293517 3.022428776313969 206 206 206
3.4123966402369015 3.346647203448711 3.039338195507308 206 206 206
2.7888869195899755 2.9174295811100492 3.6144775708331824 207 207 207
2.790820164143244 2.9015072110409887 3.6195001449815454 207 207 207
2.8528827747350043 2.924324240956297 3.570104578379492 207 207 207
3.4717503194846127 3.2618506466210695 3.034155974381944 208 208 208
3.5164711522113117 3.275861606144316 2.999521445175642 208 208 208
3.5327049198667817 3.2712421579948616 2.9907775276089135 208 208 208
3.5536786283387176 3.269830891694193 2.9776829770107067 209 209 209
2.593377291705745 5.298057591164246 2.8180194643041996 207 207 207
2.613053993717993 5.290292958445615 2.808241811287661 207 207 207
2.628751997810374 5.281602889243761 2.8014284857539113 207 207 207
2.7819091219498664 5.307093997751308 2.691327576423755 207 207 207
2.765237327617389 5.29065261457426 2.7087192517846006 207 207 207
2.837965392806508 5.296684639984077 2.658839274568129 207 207 207
2.8633612628294363 5.290944522258065 2.6445259005920883 207 207 207
2.8805400724797634 5.283176669162568 2.6363807201103064 207 207 207
2.9536547505352138 5.2899104859939925 2.5859706323369043 206 206 206
2.9817330590554207 5.285187135833466 2.5695032949404517 206 206 206
2.985740270146932 5.274236652122695 2.571218666186563 206 206 206
3.0607083799725623 5.282048991231532 2.51917154997741 206 206 206
2.9273897154667927 5.234627551381664 2.6249933682109035 206 206 206
2.904299809265183 5.216244829379894 2.647344289871525 206 206 206
2.9146512193188485 5.206794324811172 2.6443232916553474 206 206 206
2.921134175642673 5.196308054442721 2.644238276344097 205 205 205
2.5584282070348876 5.0844073519542 2.9253659793703592 205 205 205
2.5375609505419896 5.065600595701661 2.946433199482889 205 205 205
2.440040778747581 5.025311420908813 3.026055883219005 205 205 205
2.403210614591026 5.001641556954664 3.0594712891701166 204 204 204
1.5403588384126792 4.728846853742418 3.730861618027476 204 204 204
1.5475356883621483 4.715641278687065 3.7313992731990684 204 204 204
1.5656146179978767 4.705588544793868 3.723570225635987 204 204 204
1.5984549087168711 4.699880608707448 3.7043826904514185 203 203 203
1.757917028552214 4.7314200677273375 3.5877715984705083 203 203 203
1.7352529731556139 4.70979571952715 3.611126869991936 203 203 203
1.7385853302514573 4.695781551286583 3.614494987497795 203 203 203
1.7046329490445666 4.670582338096998 3.6466361519356276 202 202 202
1.7019712986405886 4.654651588861462 3.6546767682665044 201 201 201
1.042372796946966 4.439108197598426 4.1706870179632345 201 201 201
1.0597907156490651 4.427854094745429 4.163764912593602 200 200 200
1.0616368466741475 4.411845172595669 4.168892739242244 199 199 199
1.040399084145191 4.388652986680384 4.191936862436764 199 199 199
1.032490410287696 4.3695005264042885 4.204678506583069 198 198 198
1.0282745222891347 4.351442992000718 4.21457547945928 197 197 197
1.0159080311612343 4.3307553293235 4.2308355642739786 196 196 196
1.076064505628314 4.333090525137372 4.190627741681832 197 197 197
0.9811326216701192 4.285902346799585 4.271289560659929 196 196 197
0.9828522983050255 4.2694849108041435 4.276661580928519 195 195 197
0.9866627860778 4.253721375539108 4.28040954452862 196 196 197
0.9773574346357562 4.2336494556106805 4.294427015036862 195 195 196
1.3736170808642099 4.347080384718806 3.990782371920694 195 195 196
1.42847462430983 4.349007613702302 3.954196308641798 195 195 196
1.4539995661063845 4.341352553209362 3.940556231291576 194 194 196
1.4303049396749836 4.317246282323759 3.965566387938321 193 193 194
1.4188217689807219 4.29713312169556 3.9810223551527657 193 193 194
1.4528002071254749 4.292403667181759 3.960704471451458 192 192 194
1.430828455880648 4.268634727131444 3.9844560851276363 192 192 194
1.4127774965317732 4.246088792772467 4.005163462181655 191 192 194
1.57088050485562 4.284511036314656 3.8867169625425575 191 192 195
1.5868461603500468 4.2739980148049455 3.8804500439773957 190 191 194
1.589993613524385 4.259022567940648 3.8843192076689776 189 190 193
1.7378935293809292 4.295174079805348 3.773433973469882 188 189 191
1.7547680947354298 4.285362308176593 3.766296083016338 187 188 190
1.4388558339032114 4.156542505229847 4.023559581585529 185 186 188
1.4542251718806596 4.145538934736316 4.017876145843961 184 185 187
1.4156883714677357 4.115047457270324 4.055104784226978 183 184 185
1.418564574980981 4.099442525360596 4.0594001172000915 180 181 183
2.044207220890886 4.312136476386571 3.5666913456155407 176 177 178
2.0682842402196835 4.305700364481773 3.5535145679196285 173 173 175
2.0984054515690653 4.301584328939172 3.5354728896835192 169 169 169
2.1312486485711455 4.2985889468794785 3.515210323491312 164 165 162
2.1393647826495727 4.286423759736115 3.514723002618188 158 156 154
2.1717425404042574 4.28343124926747 3.494763246138678 151 147 146
2.311752194847738 4.321462389586541 3.3882869754656473 139 138 135
2.3858627877685468 4.334900062798739 3.3345743643577 129 128 125
2.484749843371881 4.358172159454947 3.260791313932556 121 120 117
2.3493178116911912 4.291213789231385 3.3757223705357022 110 109 106
2.4626878660613505 4.320428231514477 3.2901305939679633 104 103 100
2.4085543675510745 4.284566236023687 3.339669012646542 95 93 90
2.3512447713766025 4.247177392590941 3.3918855655485007 86 83 81
2.309554887780859 4.215681786815016 3.4315705121151856 78 75 74
2.2133874867593493 4.162268477415875 3.5155019298505605 73 70 68
2.1034262102071355 4.1028580605333085 3.6108137203574326 69 67 66
2.000774200426108 4.045855575806694 3.700399721370161 65 62 62
1.8942391975045079 3.9867752139006414 3.793343477178599 60 57 58
1.7803406880962587 3.9241703373692465 3.892490181905984 52 51 53
1.6668748443115489 3.861183013949568 3.991505645606994 52 51 53
2.123203770562178 4.016689472341841 3.6319881597251973 45 44 47
2.074056604328181 3.9804139104960616 3.6784339681156193 45 44 48
2.0146568837297045 3.9395802999689797 3.733378244069263 44 43 47
1.9541042262258228 3.897950750969031 3.789390309316664 44 43 47
1.7780273082386473 3.807049764229748 3.940335805259627 45 44 48
1.7314054188959735 3.7704514072092903 3.985260235568051 44 43 46
1.7338550695272248 3.7546249164112613 3.989921772858204 39 39 41
1.737942123372882 3.7394808902923624 3.9932440420383744 38 38 40
1.733393027285168 3.7205805754585515 4.003692028234551 33 34 35
2.339865091143543 3.967750552024088 3.509862910868124 24 25 26
2.3110476855359012 3.939558616419039 3.539834755061091 22 23 24
2.284418255550067 3.9121611573625206 3.5680634770523305 26 27 28
2.27399633883981 3.8917793037820294 3.5829327132039754 30 30 32
2.2891488053522533 3.8826973059790784 3.5766306937516954 35 35 37
2.252263824394662 3.850371260928031 3.6135064311269223 39 40 41
1.826632248601514 3.642962224731845 3.973511182298375 40 41 43
1.8387709926356575 3.631454492519461 3.9701368761884734 39 40 42
1.8718396739166654 3.629485718895316 3.9493209180228197 39 40 42
1.8960917892931037 3.623611518550427 3.935807495469107 42 43 45
1.8563162449062034 3.5884006128361983 3.97571215789839 43 42 46
2.124648026281031 3.695273487184621 3.758202720113929 41 41 45
2.1061006578637516 3.6702103415596055 3.780230119307242 43 42 46
2.0700029759572867 3.6368314098911902 3.8170082669206606 45 45 47
2.0743031987674336 3.6221961626765946 3.8199900486826226 48 48 49
2.1005900805998805 3.6179165690414368 3.8045170088192446 51 50 52
2.107872989481609 3.6047216989927318 3.8049811692476077 48 47 49
2.1289585647983778 3.5981049697641647 3.793829349379931 51 50 53
2.1646452518824435 3.5985504821024987 3.7703486219113245 54 52 55
2.1753439137785877 3.587106854877754 3.7678893715151687 56 55 58
2.1925104741166175 3.5788110618469693 3.7599610523373164 59 58 58
2.2079659178907853 3.5697331095179607 3.7534595792029144 63 62 61
2.2238801086192157 3.560921164835553 3.7465532933636476 66 65 64
2.2420904781173494 3.5532815452010924 3.737683742049779 71 70 70
2.246412059791293 3.5388392390988765 3.7405752450052416 77 78 75
2.2571753312118283 3.5275806306874795 3.7380006060243316 85 85 82
2.6400418041714966 3.70194477506083 3.4189958760320494 94 94 90
2.6341190567651975 3.683290166486916 3.4302436920351846 100 100 96
2.6260318788310055 3.66348232404137 3.4433611851681896 110 110 105
2.618985771887361 3.644127739752233 3.4556195110375763 121 120 116
2.6123425455166185 3.6249093086730566 3.467560879274629 132 132 127
2.6057232098252885 3.605636061739894 3.479508332279215 143 144 140
2.5982866254968444 3.585875715437279 3.4921821780165363 153 154 151
2.5928532766591332 3.5670784048961686 3.5031668574593713 161 162 159
2.586773702396597 3.5478841942988106 3.5147305619542677 167 169 166
2.575041370970203 3.5256770160582698 3.531177668039712 172 174 174
2.5750717031293515 3.5095400812286073 3.5375419097342355 178 180 182
2.558594250011799 3.484675711519634 3.558138953086596 180 183 185
2.5554914123852748 3.4667699280780746 3.567249035449953 183 185 185
2.5484140210679183 3.4467000888332984 3.579810758138285 186 188 187
2.549874908116327 3.431121112873414 3.58502006651586 188 190 189
2.5406819262357336 3.4097947437738156 3.599460438045917 189 191 190
2.5314363172047836 3.3883574084206196 3.6139790768429707 190 191 192
2.5354262670302545 3.374011429228802 3.6170490367386696 190 192 193
2.5401881357780116 3.3600711650650807 3.6194544026104865 192 193 194
2.510612314926684 3.327328721585828 3.651721773997068 194 194 196
2.571097358502728 3.3439173598326746 3.605660478486872 194 194 196
2.5391389234254667 3.3097137223745317 3.640061841815904 194 194 196
2.5020745773002013 3.272472980658716 3.678999048710123 194 195 196
2.2704160631841557 3.1264751459239144 3.888038253552551 195 195 196
2.289003155585777 3.1194451912583943 3.878681496935859 195 195 196
2.2798522536754104 3.0968597838891903 3.8935924862216638 195 195 196
2.240511627877564 3.0571127900024315 3.9350076884413987 196 196 196
1.9598486861015787 2.879987595659007 4.188362771589089 197 197 197
2.114119489166349 2.949641689476719 4.060062958538714 197 197 197
2.0045242989448107 2.8687323542003993 4.163641026313511 197 197 197
2.038789512108453 2.8700958578469633 4.1407253906922055 198 198 198
2.0070140112363135 2.833371887244708 4.176004379732433 198 198 198
1.9892825832217138 2.8046056069907555 4.198963969288332 199 199 199
1.9212920804970905 2.746340540638265 4.266414467491391 199 199 199
1.932844201391338 2.7343556926688906 4.2636119990705765 199 199 199
1.8916807309898915 2.6913098602425425 4.3075226507660185 200 200 200
1.892355981448966 2.672782700413338 4.31441135570211 201 201 201
1.8374227688311013 2.6211295956212264 4.370719246600085 201 201 201
1.8281262492659205 2.5964156637070372 4.386567409564569 202 202 202
3.4059687512469132 3.373366218868507 3.0488139872101607 207 207 207
3.4263633525006467 3.3709213530373088 3.0364629330403856 207 207 207
3.45276805245813 3.372363514027255 3.0186493296826047 207 207 207
3.4834861635139824 3.376663763325096 2.9968882307485307 208 208 208
2.8149751729374364 2.91713006816271 3.615245371371496 208 208 208
2.8613498780627866 2.9298866389538802 3.579914581249721 208 208 208
3.478489006003834 3.266316784192851 3.043806690743436 208 208 208
3.5466024439177906 3.2957471795781528 2.987683404916773 209 209 209
2.872384130417376 5.343291759447657 2.632666435163574 207 207 207
2.7881119562492573 5.310313817212731 2.700965206144654 207 207 207
2.8407870672521423 5.311227209349197 2.666090657507886 207 207 207
2.836016758404168 5.297846000883229 2.674525342639699 207 207 207
2.837578201556137 5.286031665455425 2.678189849915798 207 207 207
2.9300610441089763 5.297489194297185 2.6130501469366685 207 207 207
2.949595707238389 5.290464660864859 2.603038362334534 207 207 207
2.9824511506335707 5.2869620799788795 2.5829015541458453 207 207 207
3.0082724884187773 5.281725380151323 2.568061455831524 206 206 206
3.0334860270536907 5.276410108426338 2.5536507555239254 206 206 206
2.890656660305998 5.226429789789323 2.667061539474669 206 206 206
2.9358007894458185 5.22627947733265 2.637543249682742 206 206 206
2.9509981544146564 5.218194049736717 2.630794142965054 206 206 206
2.935017148584812 5.201654736922562 2.647826985462072 206 206 206
2.396947106439555 5.041742673237438 3.063812415150791 206 206 206
2.370525009842615 5.02106681403056 3.08932739187778 205 205 205
2.2394034920821864 4.971092292264618 3.195065023995327 205 205 205
2.2000193896619176 4.946294441015605 3.230708035628942 205 205 205
1.8143216633168144 4.7940272311134375 3.543827595264781 204 204 204
1.811217261902633 4.763626348054277 3.557923654593017 204 204 204
1.7789235073728613 4.739364410653371 3.588708516187158 204 204 204
1.7612577736470174 4.719256562775153 3.608261053231648 204 204 204
1.646581814486092 4.6702102460042925 3.702855457318454 204 204 204
1.6563855567845964 4.657916153156778 3.7013100545769575 203 203 203
1.5899967773981591 4.622666147911202 3.7587933064901993 202 202 202
1.0526449570752545 4.444147355539377 4.181690715292144 202 202 202
1.034394944250387 4.421999224056461 4.202435584224577 201 201 201
1.017041647560638 4.400017853276818 4.222526769495689 200 200 200
0.993263216272184 4.375939672736148 4.2476595776631 200 200 200
1.070356134024127 4.383200913524778 4.194268133234502 199 199 199
1.0485756877572299 4.359697757806104 4.217863732633769 199 199 199
1.058752524608893 4.346176368231781 4.216560834281084 198 198 198
1.0881786888473803 4.338794764165592 4.200209922804312 198 198 198
1.0011363569089886 4.29417408437325 4.27494313307794 198 198 198
0.9933561851520645 4.274724003455497 4.287757779668995 197 197 197
1.0031428525766015 4.260913585362858 4.286825193162049 197 197 197
0.9953251872209011 4.241355904845832 4.299707097191798 196 196 196
1.3938524359209135 4.355471039933451 3.993319291066497 195 195 195
1.418698822577814 4.347477717569508 3.9802117087798683 195 195 195
1.4229338513530885 4.3326872222202555 3.983305356932347 195 195 195
1.4973566624656836 4.3414395807725255 3.9310717090834775 195 195 195
1.4356508498808556 4.304500492398448 3.9861569072063023 194 194 194
1.445032464787011 4.291428508320466 3.985196719774509 195 195 195
1.53214473334044 4.304960632742249 3.922752624226734 195 195 195
2.0332190884053976 4.446331077002132 3.5383630720569617 193 193 193
2.041883904674542 4.434273157755707 3.5374701748522344 193 193 193
2.023108116706327 4.412594378512601 3.558373301947159 193 193 194
1.3770616868415617 4.1193584207065035 4.09800227679838 190 191 193
1.3668282223873136 4.098938666614826 4.112809028400493 189 190 192
1.4777888504630066 4.122577267509031 4.030729830186849 187 188 190
1.4577246216405004 4.098667741697137 4.053362217646037 186 187 189
2.142726901338948 4.334555343645098 3.5109637838940486 187 188 190
2.1657550615366645 4.327959765556272 3.4984929034025374 184 185 187
2.184266101566462 4.3197517796736316 3.4896213409917536 182 183 185
2.155097241802602 4.293699163416934 3.519069290090807 181 182 182
2.17306281857049 4.285283994572907 3.510637312632785 181 181 181
2.3294527898346105 4.329503418562072 3.3906275093957747 175 176 176
2.3947862043838786 4.339603263207227 3.3438144935654748 170 171 170
2.4856089868452687 4.359767197246521 3.2763080225365036 166 167 165
2.2746209458173503 4.263613338894303 3.4526957800375646 160 161 158
2.2737184323340016 4.248181695288475 3.459409875422362 155 156 154
2.2907197254714737 4.239719899248772 3.451628185991043 150 150 147
2.317038155838586 4.234971574093045 3.436268626848431 142 141 138
2.533060436012899 4.305395399442041 3.2667913396245876 135 134 132
2.4629281480166245 4.2628670076730755 3.329615125648315 129 128 125
2.371654395152441 4.211522579797327 3.4097884820790942 120 120 116
2.290797093270856 4.16392270102357 3.4816513798775484 112 111 107
2.2062062528468975 4.114407585292418 3.5567203546804698 106 105 101
2.1240270541124286 4.065453003840361 3.62998684686924 99 98 95
2.0300356967513657 4.011248288777286 3.7130756171318495 94 93 91
2.145461718982615 4.042839712081501 3.62491531905055 90 89 87
2.104123915194804 4.009996159630184 3.6650306488153794 87 86 84
2.0710828038566227 3.980384319451007 3.6984278391696703 84 82 82
1.9993059484293323 3.9343592202889415 3.763716508149032 81 79 79
1.935981471949289 3.891526492167399 3.8222006429966737 80 78 78
1.8420004243209422 3.835378201214761 3.9060538066858665 76 74 74
1.7675130122351916 3.7870583559705127 3.974028883355731 72 70 70
1.7941575720676621 3.7816681340178104 3.95871033178492 68 67 67
1.787672229622924 3.762101791046378 3.970722749714682 66 64 64
1.7972049753376185 3.749406478697587 3.969514091868516 66 66 63
1.9513103714332998 3.7996656876368378 3.848604724818247 65 64 61
1.9563493061151631 3.785367449279605 3.850976351101255 64 63 60
1.8902977550413813 3.7397703706493317 3.9123440399014857 63 63 60
1.8678768467073905 3.6794866555208237 3.9509526029857684 65 64 62
1.8772246754760396 3.6668156823713933 3.9498554436466478 64 64 63
1.900737977931689 3.660558769990761 3.9369323317354263 66 66 65
1.916617483498044 3.650910619666853 3.9303563321143304 68 68 67
1.9225852389563014 3.6367754458465735 3.932054706653443 70 70 69
1.9164682265451258 3.617083416587519 3.943875667127845 70 70 70
2.1573891547011366 3.7113943344452984 3.7486074358475556 73 73 72
2.152275741487566 3.69263810602453 3.759399553742312 75 75 74
2.1563497602248725 3.678109820598872 3.7624946574288693 77 76 76
2.16521615699204 3.6658150139587375 3.761563676214599 80 79 78
2.1850062687256973 3.6586795290918315 3.75142854649354 84 83 82
2.206217534789336 3.652280085419394 3.740070254922286 90 88 88
2.223661277307591 3.6441555725802672 3.731864854501724 92 92 90
2.2366352982707376 3.633942204485231 3.727416756111806 98 98 96
2.2527294290341713 3.625260072127533 3.720316851677351 102 102 100
2.256249669228604 3.6105402068218084 3.7238507975962403 107 108 105
2.265650580425901 3.598662723640625 3.7224040280073503 114 115 111
2.279916597452612 3.5891749594794558 3.716821531988543 122 123 120
2.292989296389434 3.5791373257510926 3.712239055162324 129 130 128
2.2991878829687873 3.565736522966348 3.7134948169811004 138 138 137
2.644436478047767 3.720560272887274 3.4258627234816803 145 145 144
2.639064575971254 3.7022292095895954 3.4366555085781556 152 153 151
2.638219796512789 3.686107139704778 3.4436057161618168 157 159 157
2.6387232433972567 3.6706267818749954 3.449417970258599 164 166 164
2.631853859982971 3.651383580900355 3.461553795214376 169 172 170
2.6327437108414187 3.6360197002080485 3.4670666673727597 175 178 175
2.628539352189871 3.6180224348018397 3.476962050823423 179 181 181
2.64150606322962 3.6087923825172683 3.4721285938040833 183 184 185
2.4462449081815403 3.4920839539557043 3.646367662097595 186 187 188
2.450361376832994 3.477796996285321 3.6493392020023725 186 187 188
2.4576228664786335 3.465135895362341 3.649605071760726 188 189 191
2.4584378652710783 3.4490992037847823 3.655433935822799 189 190 192
2.467254848756202 3.437244710111327 3.6543606276501155 191 192 194
2.6023151998837295 3.492191905824379 3.5440693192334036 192 194 193
2.564906725343495 3.4561064149979908 3.5828964930060554 192 194 193
2.5844704223365746 3.4502290059362593 3.5724105437762073 192 194 193
2.575153351073428 3.428914607646745 3.586971850772773 192 194 193
2.5786582953845376 3.41443299724201 3.590421286520583 193 195 194
2.583369587472028 3.400588236118788 3.5928276554245775 194 196 195
2.5576497024818634 3.370161038966934 3.621751567448129 194 196 195
2.431596104177416 3.284665693840313 3.738262272819812 195 196 196
2.22615517723813 3.1548326572010614 3.924378435219739 195 195 195
2.2097710840097022 3.128321753145803 3.9456317819764553 196 196 196
2.299813873838115 3.1607545858911275 3.8737684499712417 196 196 196
2.291667127525577 3.13886901798358 3.8877895948273062 197 197 197
2.240818620868074 3.09297921575308 3.9393125621060574 197 197 197
2.461941431616725 3.199874055080996 3.75202294179899 197 197 197
1.9553898908064071 2.8963754745731247 4.204328301992988 198 198 198
1.944892896897307 2.872006358464215 4.220874694662177 198 198 198
1.9191769802221907 2.8388541762284314 4.250877192912446 199 199 199
1.9432369676212229 2.8340711152999805 4.237011122399168 198 198 198
2.027253400749105 2.8639199675278464 4.170121432116501 199 199 199
1.9847095511747952 2.8209209608487225 4.215056306408776 200 200 200
2.0036879065455366 2.813429357650231 4.205594326657364 199 199 199
1.9192839625866234 2.7456051683977183 4.287805299037461 200 200 200
1.9452800164357122 2.742077116273669 4.2721727923919595 201 201 201
1.9009025571370672 2.697158521234763 4.31907065805493 200 200 200
1.9007718099686453 2.67816488249413 4.326692385598364 201 201 201
1.8301656106157624 2.617198631774379 4.397142221005606 201 201 201
1.82921655797402 2.5974403942083564 4.405603461312363 202 202 202
3.3280333976828373 3.340098123058998 3.1289327751073683 207 207 207
3.4265583805209436 3.3864593712446043 3.045985658863386 207 207 207
3.4377511683419932 3.378256211263376 3.041907018756482 208 208 208
3.470149150465013 3.3835143433332133 3.0185939656430576 209 209 209
3.4954166405128797 3.3843827674529017 3.001694425836023 209 209 209
3.5660460447787474 3.414348151787056 2.9435295310816247 208 208 208
3.16291563483108 3.0919472542034603 3.335574352029428 209 209 209
3.1762577741716678 3.0843776925134145 3.3298360894523737 209 209 209
3.202097656990896 3.0850460287953334 3.31264091270081 209 209 209
3.243734733077039 3.096232996666811 3.280922137580604 209 209 209
3.2778037590236884 3.10261311253318 3.256069068232307 209 209 209
3.323763803012016 3.117054078735629 3.22022685122922 210 210 210
3.374431971790221 3.1348645342415633 3.1799630187603136 210 210 210
2.862193692187309 5.293928874294305 2.6737729827337646 207 207 207
2.9003329184403492 5.291499597765569 2.649668778250817 207 207 207
2.9137045862067366 5.282813974649121 2.644335081644255 207 207 207
2.923635124851292 5.21236956183593 2.6658384782681948 207 207 207
2.943175023594862 5.20543824353224 2.655752015098731 206 206 206
2.247316060350766 4.988728559133348 3.1994088089754866 206 206 206
1.712817347055592 4.811429544784715 3.6213129672654074 206 206 206
1.943930870856063 4.861833533447558 3.449333477878623 206 206 206
1.6925263099430587 4.775892593004138 3.648792169961295 206 206 206
1.625000032172492 4.7415746912556695 3.706836425673732 205 205 205
1.9072941809931043 4.793343882066563 3.500670054648398 204 204 204
1.69662933460735 4.7170528407862236 3.6695085617253564 204 204 204
1.5805108134137063 4.667735101185891 3.765463719058637 204 204 204
1.5546860264175257 4.644718963509009 3.7915982548545757 204 204 204
1.6206116007346807 4.649006922266302 3.7465557409660266 204 204 204
1.568838317264938 4.618091656547462 3.7928907712714213 203 203 203
1.064536594545007 4.449675269692834 4.191410328579495 202 202 202
1.0476160230582634 4.427953395317247 4.211176655124304 202 202 202
1.0277448897172954 4.405220506371379 4.233284839766218 201 201 201
1.0048041999569373 4.381420703461732 4.2578353472055595 202 202 202
1.011919295546334 4.366861552063457 4.258951610124155 201 201 201
1.07074729528106 4.368532501734976 4.2196160552045985 200 200 200
1.0844684777090683 4.356166533911137 4.215517087850381 200 200 200
1.0924152613989997 4.341989435869257 4.215934612972983 199 199 199
0.9685818004377476 4.285604507009404 4.319773371059468 199 199 199
0.9976891672826285 4.277970930578231 4.303677164804863 199 199 199
1.0184707769915433 4.267726659226535 4.2940927521414896 197 197 197
1.4142103935809003 4.363895069681054 3.9956855363065427 196 196 196
1.4778145239243154 4.36876176087045 3.9519387369111856 196 196 196
1.4350681547903779 4.338433581220888 3.9921063017851175 196 196 196
1.4490236990215994 4.326905784517961 3.9875197513126017 197 197 197
1.4738663638022933 4.319081894898604 3.9743026811022037 197 197 197
1.4798614454596488 4.304930986973367 3.975992738133777 197 197 197
2.0286991713421285 4.431179271240958 3.5649769252665324 195 195 195
2.027641358070433 4.4156802331838625 3.5718396586190346 195 196 195
2.0227518825632442 4.398794431736182 3.5817729603802695 194 195 195
2.0442596619301323 4.391230746352806 3.570644540279603 194 195 194
2.0573911311045814 4.38073909543765 3.5661873932280335 194 195 195
1.3694732069663031 4.118227120327148 4.1228497879774215 193 195 194
1.3545907265464723 4.096100916508562 4.1414372639214205 193 195 194
1.4973506555043048 4.131253203068568 4.033606066187517 191 193 192
2.204891167365399 4.328815132288867 3.4898896699311446 189 191 190
2.150029889090784 4.29316668904403 3.540138023456869 187 190 189
2.18841679559615 4.29243467801266 3.515195630046062 186 190 189
2.19731830881413 4.2806505425537305 3.514033354772474 185 189 188
2.221175224001456 4.274588271432584 3.500763284751006 184 188 187
2.1985021155905473 4.250726750580181 3.52516245610471 183 187 185
2.2209548877576486 4.244171726259825 3.5130114774432486 182 186 184
2.249345675099166 4.239996593108009 3.4960101314510625 180 184 182
2.2728667619510707 4.234016082964327 3.4829282842204976 180 181 181
2.3129117885426185 4.234611425794251 3.4563677429740984 178 178 179
2.3282238369166475 4.2255751989568155 3.4498980473006537 177 177 177
2.3588730280817685 4.222681206206745 3.4309023455603844 172 172 172
2.2593028619777824 4.167785521738137 3.518198999762399 167 169 167
2.1811759935608492 4.121031648541259 3.588160088310707 164 166 163
2.0834375645118506 4.0659476775035115 3.6743275711491226 159 161 159
1.991849095994877 4.012884117766289 3.7556484084041033 156 157 155
2.1849841740383464 4.075936639579711 3.60360098674024 152 152 151
2.137057302622977 4.0405973440073994 3.6491679842029794 147 147 145
2.1009297872196457 4.009889167495738 3.685135846666735 142 142 140
2.0512173117333257 3.9733238027840683 3.73236449047723 140 140 136
1.9882237109499432 3.9309327007795067 3.790641674555184 137 138 133
1.9403090111009405 3.8945635061730566 3.836610488542621 133 134 130
1.8890524681426983 3.8565215861075184 3.8854416778484833 129 130 125
1.8879672086863797 3.83956678282433 3.892901731211775 125 125 121
1.8978025488809 3.8272484924591934 3.8913381547145804 119 120 116
1.8871410200081362 3.806119248151649 3.9067542732869267 116 117 112
2.005453333854686 3.840731394073832 3.815208675107837 114 113 109
1.9997419047605596 3.8218931378884333 3.8264592099321995 112 111 107
1.998078344302264 3.804765484694143 3.8343681905489615 111 111 106
1.9914194733398907 3.785398442049611 3.846451942085701 110 110 106
1.9954243397536011 3.7706829275828455 3.8496749375879062 110 110 106
2.1727770710151173 3.833046795366791 3.7082760882527563 112 112 108
2.163951415099695 3.8129794976887132 3.7220628238135176 115 114 110
2.1756605014657295 3.8020675410897287 3.7187079297449244 118 117 113
2.183912477421099 3.7896160598404083 3.7182381788044907 120 119 116
2.2033257363404575 3.782241859651581 3.708411194063058 122 121 117
2.2135152010217682 3.7707148277623324 3.7062999757994666 125 124 120
2.223411899103709 3.7590691036375183 3.7044284380078674 126 128 123
2.2252948447417986 3.74373865456936 3.709290975303489 129 130 126
2.2378793176510188 3.7333494372638043 3.705152636458606 132 133 129
2.2619257188497848 3.728334179878594 3.691341379797679 137 137 134
2.280250300112391 3.720719478367835 3.6823257388218913 141 142 140
2.3025906933755396 3.715053346233552 3.669894924497356 145 146 144
2.606037737026008 3.8426465959844176 3.4196517583133095 150 151 149
2.604440451401125 3.826421584061495 3.427157993998534 154 155 155
2.5730557578269573 3.7958972930801878 3.4599349855577097 158 159 159
2.5602358260656564 3.774118537942501 3.477028386056702 161 162 162
2.55704132435749 3.756898918009848 3.4859803280045796 164 167 167
2.5404514222849497 3.733119094119649 3.5063481881033387 168 172 173
2.5269043055907527 3.7107106759960593 3.524170159972153 171 175 177
2.492922988672265 3.678167232257288 3.5594575061978517 174 178 180
2.641303753679936 3.735427051890447 3.4391344141208156 180 181 183
2.642679481245982 3.7204717145852686 3.44418110726841 182 182 184
2.643977325749262 3.70545146925367 3.4493048251409393 184 184 186
2.6463711531370104 3.6909538205302037 3.4535001457664087 185 187 189
2.6607884961952095 3.682489680963746 3.447390940599739 185 189 190
2.6602815934868462 3.6665119414441936 3.454082017215588 186 190 191
2.665347819979173 3.65333288737867 3.4559959380376286 187 191 192
2.6669691774727187 3.6383852733943574 3.460878092817071 190 191 193
2.665669750005944 3.6219121095064426 3.4682872757661816 191 192 194
2.4658202625880907 3.5029072078514956 3.6470129979055534 191 192 194
2.4732623832603005 3.49038334835411 3.6471044069872933 192 194 195
2.484640610738486 3.4799144126322394 3.6437907164656647 193 195 194
2.493229427462836 3.468007436707088 3.6428828732663456 194 196 195
2.5389861972995593 3.475674796093757 3.6097536138304287 194 196 195
2.571073368239533 3.4763110108595168 3.5884079140044753 195 197 196
2.5631542177494957 3.4558123416452604 3.601770408625459 195 197 196
2.552374442346313 3.4337101342451977 3.617651418247124 194 196 195
2.554180222024123 3.4182718861798613 3.622607576058555 194 196 195
2.5757537520748226 3.3475870793960443 3.6365530970377034 197 197 197
2.6040422125741305 3.346651724572216 3.6183298428213306 197 197 197
2.3065592420171344 3.1650522799572873 3.886142668951465 197 197 197
2.3037946537991445 3.146173444364355 3.895472242038995 198 198 198
2.4832760239364973 3.2293323546438257 3.744399364392585 198 198 198
2.5055400367661544 3.224916314186297 3.7315213222365773 199 199 199
1.9556834905227645 2.8970722539864626 4.223425867271736 199 199 199
1.969789999872628 2.8866687384024274 4.218292705667055 199 199 199
1.9594581526118309 2.8623517021169307 4.234760594141936 200 200 200
1.9801587707254296 2.855734261349688 4.223786232637242 200 200 200
2.032597119165674 2.8674705923478823 4.1846457045874335 200 200 200
2.0277588354600464 2.8462976354196625 4.196251300659926 200 200 200
2.0059571731238517 2.815195600988763 4.222958771796977 200 200 200
1.9640106100462607 2.7721693281247277 4.267653409684051 201 201 201
1.9666426842034872 2.7550360145631445 4.272740902524894 202 202 202
1.9289373537567993 2.7140970174614107 4.313816992505705 202 202 202
1.8878104571281862 2.6708870732900616 4.358045908252286 202 202 202
1.8307185600636848 2.6179153689885752 4.416653835112506 203 203 203
2.558042538635056 2.929194538996607 3.8146823804167043 206 206 206
2.58889883683245 2.9307278632823897 3.793788818243194 207 207 207
2.7388527717371653 3.006179004556767 3.665192908839404 207 207 207
3.3611167516529448 3.3609574457600937 3.1149735261249027 208 208 208
3.3866071189455313 3.3615400935096162 3.0979855578404862 208 208 208
3.4424271946585767 3.381357881132467 3.0534062736855194 209 209 209
3.48110725701779 3.390595902107303 3.0243038979090118 209 209 209
3.4772926017995305 3.372979515431372 3.0338213799089186 209 209 209
3.161884358679295 3.091350077182414 3.3532213478762163 209 209 209
3.1859112441422326 3.090743675044588 3.3376685478250194 209 209 209
3.214068225066983 3.092946591136587 3.3182829408038765 209 209 209
3.2460135088015956 3.097769269537405 3.295364632698636 210 210 210
3.267693319745872 3.0959450792329237 3.2818392670475185 210 210 210
3.2818026155421522 3.0891773717121813 3.2752575126942367 210 210 210
3.2929821811644877 3.080498740168518 3.2713620147612446 210 210 210
1.5434204268679639 4.750608897879633 3.7752187092686755 206 206 206
1.5065748874399303 4.724880574002892 3.8097864719560897 206 206 206
1.4512848219929844 4.69368912102462 3.8586989031132473 206 206 206
1.619360918211673 4.726655304942255 3.7346939427752393 206 206 206
1.7019193466481433 4.73545110563376 3.676735096494212 206 206 206
1.5133390032069736 4.665237245455546 3.8291275398585913 205 205 205
1.4860084911233826 4.641718531394714 3.856538184006604 205 205 205
1.4584227305525679 4.617979699921658 3.8842050120029143 204 204 204
1.5952433442716578 4.643227508747635 3.7838937714648075 204 204 204
1.5257607473522123 4.606933415699665 3.8442027474571576 204 204 204
1.0742594109652255 4.454542669444576 4.202790675349695 203 203 203
1.054046182472005 4.431831323742244 4.225185151634832 203 203 203
1.0326108517917902 4.408626837914562 4.2485824243371395 202 202 202
1.0031345645628673 4.3828113103441755 4.2783248422942135 202 202 202
0.971782914315523 4.356253911432921 4.309600155367882 201 201 201
0.9924091260839264 4.3458336320393 4.300155287642854 201 201 201
1.0896184154469197 4.359652487017598 4.23052938119664 201 201 201
1.0826714097121892 4.340739885668057 4.2426585799730185 200 200 200
1.170243452385539 4.352017215218856 4.18040285674413 200 200 200
1.6570395691353677 4.476688489480277 3.8095995560707707 199 199 199
1.6712327957467863 4.465709450745948 3.8046203364558693 198 198 198
1.7565456270726238 4.478135834489079 3.7433960430956317 197 197 197
1.7831505231480471 4.4714780618062635 3.7285066132611595 198 198 198
1.4626132827043692 4.349308471180598 3.9886610377841727 198 198 198
1.849977508822277 4.46298146223788 3.6878238688632727 198 198 198
1.4875224500251225 4.325363521544022 3.9817888364456038 198 198 198
1.4950146838561496 4.311739887881251 3.9822844237082893 198 198 198
1.4961433789227483 4.295942687728415 3.9878442859487246 198 198 198
1.5628311835046906 4.3026634618443484 3.9411804720455015 197 197 197
1.5944346387884336 4.297502556976404 3.922397047160757 197 197 197
2.0705538258068934 4.4322171062123 3.554627348515359 197 197 197
1.9807831200330903 4.385482197782998 3.6324833331390662 196 196 195
1.8981162296773975 4.340841917110512 3.7048183203250784 197 197 196
1.9588260743732007 4.347005269116101 3.6623195240765742 197 197 195
1.9962820587101415 4.345051529996108 3.638396360859357 195 197 195
1.9990540760013433 4.33069397107768 3.6422979007933547 195 197 195
2.0234767314695556 4.324193962155801 3.6287847358039524 195 197 194
1.9256116749863672 4.2730153695281 3.7137524404144813 194 196 194
2.1806706831234033 4.321157325410864 3.526324530539254 193 195 192
2.175477315709893 4.304080129314 3.536564712469353 193 194 193
2.1380886162967996 4.274804608408285 3.5729062932237716 192 193 193
2.1733213912632605 4.272887907620477 3.550434592846635 193 193 193
2.178799236266129 4.259741389470134 3.552068298833519 192 193 192
2.2356286371894214 4.266308310096131 3.5119676665262087 192 192 192
2.239022841144996 4.252462033710863 3.5152548242289656 192 192 192
2.2665741732325224 4.247986990453537 3.4988701328867577 192 192 192
2.2919882144779526 4.242771715983978 3.4841904279227918 190 190 192
2.32820168645415 4.2418874828569875 3.460659910169589 190 190 193
2.3389170242891137 4.231056457972765 3.457915348045923 190 190 193
2.3742002535339966 4.230014820602231 3.435061156961207 188 189 191
2.3870057053827693 4.220113842247662 3.4305669719664516 188 188 189
2.29015444679152 4.166126285917 3.515987044898839 186 187 188
2.191621298491607 4.110980681917873 3.6029784993034637 184 185 186
2.155765384269015 4.080853150904135 3.638649197787962 185 186 186
2.1168212406267903 4.049264053873212 3.676939908734776 183 185 184
2.0368041853889673 4.000558168980771 3.7491497630940067 180 182 181
2.061367413389202 3.9947325727812237 3.735274747419348 180 181 181
2.017632867880942 3.960561921296533 3.7777550406477154 180 181 180
2.120921266867404 3.987692069406464 3.698807665268857 178 179 178
2.016513939391599 3.9278539164291093 3.791545914802364 177 178 177
2.0167531536430343 3.9117846332413784 3.7978009858946216 175 176 175
2.0271069351586126 3.8999881407143495 3.7956801694918862 172 174 173
2.0247125329165225 3.882751652157448 3.8041379564429127 171 172 172
2.1254212273432502 3.909837228211327 3.7269097270665643 170 172 171
2.165823909039359 3.911272800824054 3.6996905805078644 168 170 167
2.2068907263133077 3.9131558861610913 3.671854834593331 166 168 165
2.2269640155374586 3.9060181386911283 3.661464654645699 167 169 166
2.2361441474808603 3.894152345831993 3.66014553580614 167 170 166
2.2622567512562854 3.8897849268330837 3.6446667598582514 167 169 166
2.250312049955505 3.868590076595761 3.6610028094496685 168 170 167
2.2569572165463523 3.855614400341697 3.6617984686630325 170 172 169
2.243062493105799 3.8334076258684218 3.679824423466998 172 174 173
2.2479966667570226 3.8196074778602256 3.6820775366687237 174 176 175
2.262875327917951 3.8103145780704213 3.6759733668567467 172 173 173
2.2817979113927103 3.802906729277632 3.6664498871380573 173 175 174
2.2987609071432065 3.794657672321092 3.658554492909373 175 177 176
2.321781391906225 3.7892527737671213 3.645529052694794 177 179 178
2.345931225918492 3.784450300292533 3.6315183753723455 179 181 180
2.372155851186099 3.780699614036962 3.615719597222573 181 182 183
2.3834490833658593 3.770044534924049 3.612523688657538 182 183 184
2.6125211952130867 3.8620274531522485 3.4247387743962143 183 184 186
2.588032123969344 3.835001861033357 3.4516749453127806 184 186 187
2.597612361149099 3.8240441458794194 3.449729559940199 185 186 189
2.58364584445521 3.8018326039526364 3.4678047661672595 186 187 190
2.570695760790084 3.7800086160611204 3.485054954926223 186 187 191
2.559730058033283 3.759047394435002 3.5006521033913414 187 189 191
2.545836458035906 3.7365761513861173 3.5187828598603357 190 191 193
2.5100675895961917 3.7033179540946803 3.55564551844217 190 192 195
2.51547393550127 3.690063164935464 3.5573695874538718 190 192 195
2.5185126521178227 3.6756335736242063 3.5611239809798247 191 192 193
2.519160425618388 3.6599998646146514 3.5669357739596514 192 193 193
2.658167330968536 3.7132976863648737 3.4539885999393185 192 194 194
2.661282630890905 3.6991860131381555 3.457565612573482 193 195 195
2.6803678904910058 3.6930968915608653 3.4474085751650003 193 195 195
2.682151842473594 3.678316814039133 3.452130377037922 193 195 195
2.6808921816843636 3.6619648821236113 3.4594867791948696 195 197 197
2.6780369370268735 3.64475789794247 3.4682367250153545 194 195 197
2.3976377556365076 3.4849704107134842 3.7169317594282187 195 196 198
2.4780738135872893 3.5099484645411874 3.653914731794022 194 195 197
2.499445014007282 3.504667688701769 3.6419274881004124 195 196 197
2.498852406619022 3.4880138861305543 3.6489644261477694 196 198 197
2.5250555842066618 3.485356208095539 3.63274360168268 196 198 197
2.5763441623094767 3.4960002213256556 3.5946701723832346 196 198 197
2.5990682972650765 3.4917657923498897 3.5813730755870212 196 198 197
2.5880629541996543 3.4696883678295483 3.5974418153176204 196 198 197
2.5756323789350346 3.4467583761206266 3.6147907571973725 197 199 198
2.6416752579601708 3.4658379719742034 3.563620195182379 197 199 198
2.176665308882188 3.1639220130635457 3.99078893975771 198 200 199
2.136277050733306 3.1242909032353476 4.033241428563046 198 199 198
2.594567007105672 3.3584826980886078 3.6375316009388894 198 198 198
2.578939771214242 3.3333315089013937 3.6578752168262003 199 199 199
2.4383099081284207 3.238706925254195 3.788385204619992 199 199 199
2.4940430691203215 3.252772358246431 3.7460150978510143 199 199 199
2.508124219679606 3.2437654235255886 3.740322778371348 199 199 199
1.8954957886830823 2.8635749005987736 4.296085750539715 200 200 200
1.8985237918910494 2.846704537154827 4.300821259011556 200 200 200
1.9463783433793278 2.855391759130384 4.26579353285983 201 201 201
1.9546238382137213 2.8415834574830705 4.265866028086222 201 201 201
1.9597471861725282 2.8259803719272023 4.268713883581538 202 202 202
2.0065447467021666 2.834480682388207 4.234457852272619 201 201 201
2.009985499775148 2.817984893400188 4.2387716622680625 201 201 201
2.0127899938194513 2.801095555775896 4.243662150890227 202 202 202
1.9872568826579233 2.7675537956231815 4.273887318428263 203 203 203
1.9919655449210043 2.751659472529307 4.277124891495992 203 203 203
1.9214047293777736 2.6911791036289228 4.3477970903108085 203 203 203
1.8700681824487129 2.6417110596096633 4.40139582626661 203 203 203
1.8655680537137502 2.619910736266367 4.413063684051573 204 204 204
2.4489558147432398 2.880247330287871 3.924416039433427 206 206 206
2.52144599189881 2.9069824140653484 3.865938268127471 207 207 207
2.584436021420285 2.9282187264790025 3.8159204215728044 208 208 208
2.6566600989809848 2.9554846784378617 3.7574062916009896 208 208 208
3.1822736536466003 3.0884284768680876 3.357700888025503 210 210 210
3.211203679738036 3.0911152559417854 3.33754882608157 210 210 210
3.2431581479010876 3.095922959424394 3.3145556875554867 209 209 209
3.2739383350010742 3.1000996347909635 3.2925888341574083 210 210 210
3.2897019579172353 3.094436545506352 3.2844524533658594 210 210 210
3.2986361730882687 3.0842692790098623 3.2826176826541973 210 210 210
3.3112027514389717 3.0765517636371102 3.2774096749191397 210 210 210
1.3392041308845937 4.663525540286647 3.963578743808127 206 206 206
1.3510392472444395 4.651188323029815 3.960685341494398 206 206 206
1.4597333849980967 4.666980844727239 3.88244332292242 206 206 206
1.4306321981452172 4.642917817110721 3.9113299171753 206 206 206
1.3888812056073 4.614978848639247 3.950137977609098 205 205 205
1.3604765667550869 4.590791806739084 3.978613310157075 205 205 205
1.183293899115975 4.52202979168142 4.123373211572691 204 204 204
1.5217987253631515 4.607561067118527 3.865157153792363 204 204 204
1.0895776086723123 4.4611022474821835 4.209768999222634 204 204 204
1.0703568952164921 4.438721536741838 4.231444509879811 203 203 203
1.0471211956315492 4.414994624774093 4.256315470486705 203 203 203
1.028145733191614 4.392454032470933 4.277892691442706 202 202 202
1.170289028580861 4.4199547715960605 4.17283185592089 202 202 202
1.1734504668521932 4.404468842100962 4.176937913509702 202 202 202
1.1550392448845515 4.3821570318027945 4.198050219054174 202 202 202
1.7670217796538286 4.544707474162781 3.7280524309671756 200 200 200
1.7555012524268476 4.5256728310957595 3.7432936399200534 200 200 200
1.6780199574429024 4.48517912370534 3.8107687220424946 199 199 199
1.689592418152787 4.473377901917475 3.807834593687727 199 199 199
1.7839081090629103 4.4887721127038445 3.7392660062003578 200 200 200
1.7969801443376994 4.477684505149222 3.7350540205883833 199 199 199
1.841105595901276 4.476956850273476 3.706148062476183 199 199 199
1.8944723868600142 4.479485785586302 3.6698238549857396 199 199 199
1.9375987792965803 4.4787645360622275 3.6415763965605645 199 199 199
1.5001909434402165 4.315159149643059 3.996482794538532 199 199 199
1.5374065335594604 4.311686394627527 3.9732476660382985 199 199 199
1.5763874364633987 4.308951262731905 3.9485492359757273 198 198 198
1.659713109689432 4.321692208452309 3.8883145046396477 198 198 198
1.660916938901971 4.306184556905384 3.8937245782920296 198 198 198
1.6763968235696596 4.295650964238074 3.887697619285627 198 198 198
1.6954661558960178 4.286419192248474 3.878774545556347 198 198 198
1.738884885774218 4.285876122013259 3.850262338846577 198 198 197
1.7474000939403678 4.273037104510151 3.849766508467353 198 198 198
1.7612451751831772 4.2621183099123625 3.844975445222817 197 198 196
1.9972024227647938 4.331484913152073 3.6610832606180397 197 198 196
2.0257786547594105 4.326476502069136 3.644179289197165 197 197 195
1.8902525303769793 4.261538276228733 3.7598452488644676 197 197 195
1.9482996630231115 4.267202919243489 3.719169120528595 197 197 195
1.981848367698007 4.2640254540777995 3.6982421343791536 196 197 194
2.0266119005123535 4.265145120948601 3.6681746129772996 197 197 195
2.240757521663296 4.3299129146175 3.500555455722461 197 196 196
2.2597973020984723 4.322057321280272 3.4911011478094083 197 196 196
2.251402490961378 4.303852364761689 3.5039420489987383 197 196 196
2.253282725628803 4.289499579765177 3.508442342256539 196 195 196
2.25530912086941 4.275181145966458 3.512832174742471 195 195 195
1.9472881217509155 4.109399297762748 3.7829962175210277 194 195 195
2.3690528565377886 4.244219429558841 3.449961366511976 192 194 194
2.3994496203676725 4.241288534218847 3.4310212903757624 193 194 195
2.3690157311702835 4.214146332086898 3.462022093552967 194 194 196
2.2542492816677413 4.152922025500798 3.5624652471669096 194 194 196
2.1671584867357527 4.102329770547527 3.6403405432455638 193 193 195
2.0775748997778223 4.050289295406344 3.720444906021384 192 193 194
1.8825849323027368 3.954684199649992 3.887731057486387 192 194 193
1.9810818310641112 3.9788761234263963 3.8128747134685224 191 193 192
1.9939631508932931 3.9680733759619295 3.8086749119612024 191 193 192
1.9388129233868292 3.9289937211088444 3.8608078958688328 191 193 193
2.1575574996405873 4.004216041574253 3.685961457716884 192 194 193
2.172318194371333 3.9946088647799614 3.6800395969187907 191 192 192
2.170774593337754 3.97814076024914 3.6876520086153004 191 193 192
2.1601559029369373 3.957772267397811 3.702830331849435 190 191 191
2.1926629101286004 3.9557696535592752 3.682122411222272 190 192 191
2.2973071207052023 3.98491737794629 3.6012150168192223 190 191 191
2.331034368227736 3.9838555332435024 3.5793231561977303 189 190 192
2.369478647593303 3.9849728753723612 3.5534379259093085 189 191 192
2.3895037582962497 3.9781869141829143 3.5429035398014963 189 191 192
2.3910731866123345 3.9633504687601357 3.5478030647360246 189 191 192
2.3950355789381526 3.9495472731873154 3.5507056614204924 189 191 192
2.3294699229001687 3.9048314079718 3.611986168741346 189 191 192
2.3282154678235107 3.8885043320358603 3.6193508127431335 190 192 193
2.3072610822221513 3.863289123955028 3.6433079211802792 191 192 194
2.3129612799484556 3.849978169777918 3.6448636267253995 191 193 195
2.3454876780668297 3.8488417771604144 3.623796187506636 190 191 193
2.36327262944446 3.8411008630175028 3.6151262841669025 190 192 194
2.3993206071452238 3.841793509274591 3.590996628929461 191 192 194
2.4005613371584777 3.8265716854629845 3.5962678889529536 192 193 195
2.4404766838998744 3.8292575292804196 3.5687815124371536 191 192 194
2.445407236542729 3.8157962686702565 3.570906638427939 192 193 196
2.591360868128739 3.868410384560867 3.453273425588336 193 194 198
2.605809658726873 3.8597601372056833 3.447174955288448 194 195 199
2.6124005047397123 3.847427688663209 3.447749703949679 194 195 198
2.5945327441755914 3.8234539965719185 3.469167544042113 193 194 196
