ply
format ascii 1.0
element vertex 881
property float x
property float y
property float z
property float nx
property float ny
property float nz
property uchar diffuse_red
property uchar diffuse_green
property uchar diffuse_blue
property uchar class
property uchar detection
end_header
0.7955 3.6189 0.1870 -0.901 0.431 -0.050 57 59 59 0 0
0.7781 3.6307 0.1878 -0.898 0.010 -0.439 60 62 61 0 0
0.7778 3.6431 0.1865 -0.759 0.581 -0.292 64 66 65 0 0
0.8722 3.7089 0.1682 -0.339 0.786 -0.517 160 160 158 0 0
0.9158 3.7233 0.1615 -0.339 0.786 -0.517 167 167 165 0 0
0.4260 2.5596 0.3571 -0.978 0.046 0.202 79 79 81 0 0
0.4301 2.5714 0.3554 -0.803 -0.592 -0.067 80 80 82 0 0
0.4407 2.5826 0.3529 -0.999 -0.026 -0.048 83 84 84 0 0
0.4404 2.5949 0.3516 -0.999 -0.026 -0.048 80 81 80 0 0
0.3014 2.9093 0.3339 -0.381 0.862 -0.333 19 19 21 0 0
0.3912 2.9520 0.3188 -0.498 0.552 -0.669 24 24 26 0 0
0.4078 2.9631 0.3157 -0.498 0.552 -0.669 21 21 23 0 0
0.3345 3.0269 0.3173 -0.898 0.440 0.010 15 15 17 0 0
0.3431 3.0384 0.3151 -0.837 0.306 0.453 14 14 16 0 0
0.3324 3.0508 0.3150 -0.819 0.525 0.231 14 14 16 0 0
0.3815 3.1924 0.2940 -0.817 0.505 0.279 33 33 35 0 0
0.3898 3.2042 0.2917 -0.755 0.607 0.249 21 21 23 0 0
0.5179 3.2500 0.2718 -0.250 0.919 -0.304 18 18 20 0 0
0.5291 3.3469 0.2601 -0.569 0.820 -0.062 11 11 13 0 0
0.5321 3.3711 0.2571 -0.816 0.570 0.095 25 26 28 0 0
0.6980 3.5192 0.2217 -0.945 0.134 0.298 54 54 56 0 0
0.6952 3.5314 0.2207 -0.946 -0.323 0.024 53 52 56 0 0
0.7946 3.6205 0.1995 -0.936 0.348 -0.059 53 54 54 0 0
0.7875 3.6327 0.1990 -0.996 -0.077 -0.055 57 59 58 0 0
0.7845 3.6450 0.1980 -0.839 0.541 0.068 61 63 62 0 0
0.8097 3.6832 0.1910 -0.864 0.314 -0.394 52 56 55 0 0
0.9457 3.7390 0.1691 -0.323 0.742 -0.588 169 169 167 0 0
0.4373 2.5599 0.3680 -0.864 -0.053 0.501 78 78 80 0 0
0.4483 2.5710 0.3655 -0.964 0.121 0.236 84 84 86 0 0
0.4400 2.5842 0.3651 -0.999 -0.026 -0.048 83 85 84 0 0
0.4398 2.5965 0.3638 -0.999 -0.026 -0.048 75 77 76 0 0
0.3861 3.1939 0.3053 -0.809 0.287 0.514 45 45 47 0 0
0.3948 3.2057 0.3030 -0.755 0.607 0.249 28 28 30 0 0
0.4034 3.2175 0.3008 -0.770 0.582 0.262 18 18 20 0 0
0.4122 3.2293 0.2985 -0.755 0.607 0.249 18 18 20 0 0
0.5267 3.3727 0.2698 -0.686 0.628 0.367 18 19 21 0 0
0.7020 3.5209 0.2335 -0.945 0.134 0.298 57 57 59 0 0
0.6898 3.5330 0.2336 -0.806 -0.527 -0.268 61 59 59 0 0
0.8010 3.6225 0.2112 -0.553 0.568 -0.609 50 52 52 0 0
0.7998 3.6473 0.2086 -0.948 0.203 -0.244 56 58 57 0 0
0.8014 3.6597 0.2071 -0.961 0.273 -0.035 60 61 61 0 0
0.8160 3.6976 0.2013 -0.772 0.400 -0.494 42 45 43 0 0
0.9643 3.7542 0.1781 -0.323 0.742 -0.588 168 168 166 0 0
0.4429 2.5608 0.3795 -0.903 -0.050 -0.426 38 38 40 0 0
0.4385 2.5736 0.3786 -0.858 -0.038 -0.512 53 53 55 0 0
0.4421 2.5855 0.3769 -0.968 0.073 -0.240 60 61 63 0 0
0.4409 2.5980 0.3757 -0.910 0.206 0.360 53 53 55 0 0
0.4375 2.6229 0.3734 -0.833 -0.321 0.451 45 45 47 0 0
0.2823 2.9254 0.3582 -0.442 0.448 -0.777 20 20 22 0 0
0.3924 2.9792 0.3399 -0.717 -0.203 -0.667 17 17 17 0 0
0.3411 3.0536 0.3377 -0.844 0.398 -0.361 15 15 17 0 0
0.3949 3.1953 0.3162 -0.785 0.009 0.620 47 47 49 0 0
0.3992 3.2072 0.3144 -0.826 0.398 0.400 37 37 39 0 0
0.4172 3.2308 0.3098 -0.755 0.607 0.249 18 18 20 0 0
0.5346 3.3501 0.2835 -0.792 0.606 -0.078 10 10 12 0 0
0.5328 3.3622 0.2824 -0.579 0.814 0.047 11 11 13 0 0
0.8180 3.7118 0.2121 -0.802 0.391 -0.451 79 80 78 0 0
0.9362 3.7547 0.1941 -0.323 0.742 -0.588 168 168 167 0 0
0.5064 2.4187 0.4001 -0.388 -0.261 -0.884 37 38 40 0 0
0.4686 2.4854 0.3971 -0.632 0.384 -0.674 30 31 35 0 0
0.4364 2.5631 0.3923 -0.897 -0.216 -0.386 30 30 32 0 0
0.4316 2.5759 0.3914 -0.880 0.166 -0.445 28 28 30 0 0
0.4388 2.5874 0.3894 -0.877 0.472 -0.088 28 28 30 0 0
0.4424 2.5993 0.3877 -0.820 0.399 0.410 33 33 35 0 0
0.2636 2.9162 0.3733 -0.363 0.259 0.895 19 19 21 0 0
0.3666 2.9580 0.3572 -0.901 -0.395 -0.178 31 31 33 0 0
0.4530 3.1955 0.3217 -0.295 -0.889 0.351 43 43 45 0 0
0.4108 3.2205 0.3237 -0.875 0.465 0.133 24 24 26 0 0
0.5225 3.3397 0.2983 -0.730 0.501 -0.465 11 11 13 0 0
0.5379 3.3517 0.2952 -0.768 0.625 -0.137 10 10 12 0 0
0.5379 3.3639 0.2939 -0.763 0.641 -0.082 11 11 13 0 0
0.7966 3.6630 0.2325 -0.939 0.224 -0.261 53 53 55 0 0
0.8123 3.7133 0.2252 -0.891 0.419 -0.177 34 35 37 0 0
0.8207 3.7260 0.2229 -0.979 0.193 -0.060 96 96 94 0 0
0.9547 3.7699 0.2031 -0.323 0.742 -0.588 168 168 166 0 0
0.4333 2.5157 0.4100 -0.980 0.137 -0.144 32 33 36 0 0
0.4308 2.5652 0.4049 -0.903 -0.416 -0.108 26 26 28 0 0
0.4255 2.5780 0.4041 -0.888 0.215 -0.407 26 26 28 0 0
0.4370 2.5891 0.4016 -0.853 0.481 -0.202 25 23 26 0 0
0.4419 2.6009 0.3998 -0.845 0.527 -0.092 17 15 18 0 0
0.2947 2.9039 0.3831 -0.534 -0.262 0.804 19 19 21 0 0
0.4080 2.9331 0.3674 -0.317 -0.719 0.618 23 23 25 0 0
0.5938 3.3043 0.3065 -0.811 -0.538 0.231 19 19 21 0 0
0.5437 3.3655 0.3054 -0.962 0.246 0.118 11 11 13 0 0
0.5428 3.3776 0.3041 -0.987 -0.090 0.130 11 11 13 0 0
0.6537 3.5617 0.2718 -0.622 -0.317 -0.716 45 44 48 0 0
0.6722 3.5744 0.2684 -0.601 0.724 -0.338 43 43 46 0 0
0.6891 3.5872 0.2652 -0.567 0.754 -0.331 47 48 50 0 0
0.8356 3.6287 0.2445 -0.449 0.414 -0.792 42 42 46 0 0
0.7934 3.6646 0.2452 -0.939 0.224 -0.261 50 51 53 0 0
0.8117 3.7150 0.2377 -0.834 0.533 -0.144 37 36 41 0 0
0.8165 3.7276 0.2358 -0.943 0.229 0.243 47 47 48 0 0
0.4292 2.5177 0.4225 -0.960 0.161 0.231 33 36 37 0 0
0.4138 2.5808 0.4173 -0.976 0.175 0.126 21 21 23 0 0
0.3149 2.9042 0.3928 -0.364 0.602 0.711 19 19 21 0 0
0.6618 3.5514 0.2845 -0.748 -0.473 -0.465 44 44 48 0 0
0.6666 3.5637 0.2826 -0.952 0.115 -0.285 40 40 43 0 0
0.6704 3.5761 0.2809 -0.613 0.775 0.158 52 51 54 0 0
0.6815 3.5886 0.2783 -0.653 0.720 0.237 53 54 55 0 0
0.8004 3.6666 0.2569 -0.983 0.085 -0.160 50 50 52 0 0
0.7776 3.6781 0.2581 -0.844 0.516 -0.147 60 62 61 0 0
0.4388 2.5181 0.4337 -0.970 0.240 0.039 21 23 24 0 0
0.4156 2.5821 0.4292 -0.996 -0.002 0.091 20 20 22 0 0
0.4279 2.5931 0.4267 -0.915 0.397 -0.068 19 19 21 0 0
0.4485 2.6033 0.4233 -0.687 0.596 -0.415 16 16 18 0 0
0.4521 2.6276 0.4203 -0.939 -0.301 0.168 14 14 16 0 0
0.5366 3.3930 0.3276 -0.920 -0.309 -0.241 11 11 13 0 0
0.5288 3.4051 0.3271 -0.937 -0.040 -0.346 13 13 15 0 0
0.6518 3.5528 0.2978 -0.852 0.182 0.492 45 45 48 0 0
0.6857 3.5659 0.2928 -0.574 0.324 0.752 55 55 57 0 0
0.7594 3.6173 0.2792 -0.646 -0.588 -0.487 63 63 63 0 0
0.7749 3.6302 0.2762 -0.515 0.473 -0.715 52 53 55 0 0
0.7985 3.6682 0.2695 -0.983 0.085 -0.160 52 52 54 0 0
0.7817 3.6923 0.2687 -0.784 0.581 -0.219 57 59 58 0 0
0.7919 3.7052 0.2662 -0.784 0.581 -0.219 63 65 62 0 0
0.8160 3.7310 0.2608 -0.902 0.426 0.075 58 60 59 0 0
0.8228 3.7438 0.2586 -0.781 0.608 -0.140 42 42 41 0 0
0.8249 3.7563 0.2570 -0.891 0.430 0.145 99 98 94 0 0
0.4396 2.5195 0.4457 -0.970 0.240 0.039 39 40 42 0 0
0.4276 2.5824 0.4401 -0.894 0.188 -0.407 29 29 31 0 0
0.4323 2.5942 0.4383 -0.810 0.146 -0.569 20 20 22 0 0
0.4357 2.6062 0.4367 -0.810 0.146 -0.569 17 17 19 0 0
0.4637 2.6280 0.4313 -0.905 -0.424 -0.022 14 14 16 0 0
0.4469 2.6542 0.4302 -0.879 -0.009 0.476 22 22 24 0 0
0.4424 2.6792 0.4280 -0.796 0.247 -0.553 17 17 19 0 0
0.5612 3.3704 0.3398 -0.880 -0.448 -0.157 11 11 13 0 0
0.8314 3.7583 0.2688 -0.892 0.392 -0.224 63 62 58 0 0
0.4309 2.5097 0.4600 -0.806 0.591 0.041 53 59 59 0 0
0.4311 2.5959 0.4505 -0.791 0.323 -0.519 26 26 28 0 0
0.4356 2.6077 0.4488 -0.815 0.194 -0.546 21 21 23 0 0
0.4583 2.6424 0.4426 -0.932 -0.356 0.074 13 13 15 0 0
0.4725 3.2031 0.3796 -0.496 -0.817 0.295 19 19 21 0 0
0.7189 3.6194 0.3083 -0.452 -0.316 -0.834 54 54 57 0 0
0.8146 3.7344 0.2858 -0.771 0.634 -0.052 66 68 67 0 0
0.8222 3.7472 0.2836 -0.837 0.465 -0.290 62 61 60 0 0
0.8297 3.7600 0.2814 -0.975 0.097 -0.198 42 41 37 0 0
0.8275 3.7723 0.2803 -0.809 -0.501 0.307 138 138 136 0 0
0.4482 2.5216 0.4692 -0.881 0.288 0.374 23 22 27 0 0
0.4085 2.5997 0.4647 -0.813 0.300 -0.499 30 30 32 0 0
0.7867 3.6853 0.3067 -0.882 -0.326 0.340 44 45 49 0 0
0.7922 3.6979 0.3047 -0.780 0.483 -0.399 46 47 52 0 0
0.8186 3.7488 0.2964 -0.837 0.465 -0.290 58 58 60 0 0
0.8265 3.7616 0.2942 -0.837 0.465 -0.290 37 37 36 0 0
0.7981 2.2114 0.4804 -0.616 -0.757 -0.219 61 61 63 0 0
0.3897 3.2559 0.4065 -0.910 0.398 -0.117 21 21 23 0 0
0.3929 3.2678 0.4049 -0.961 0.223 -0.166 20 20 22 0 0
0.8056 3.7375 0.3116 -0.741 0.665 -0.089 66 68 68 0 0
0.7284 2.2619 0.4947 -0.331 -0.728 -0.600 40 41 45 0 0
0.5380 2.3391 0.5051 -0.865 -0.502 0.024 37 36 41 0 0
0.5301 2.3527 0.5043 -0.865 -0.502 0.024 32 31 36 0 0
0.5543 3.5709 0.3675 -0.807 -0.573 -0.143 52 51 54 0 0
0.6928 3.6236 0.3480 -0.656 0.362 -0.662 41 39 45 0 0
0.6811 3.6355 0.3478 -0.864 0.191 -0.467 52 51 54 0 0
0.8403 3.7782 0.3163 -0.896 0.408 0.176 36 36 34 0 0
0.5313 2.3541 0.5166 -0.855 -0.517 0.039 32 32 36 0 0
0.4991 2.6695 0.4848 -0.737 0.294 -0.608 11 11 13 0 0
0.4148 3.1265 0.4425 -0.573 -0.064 -0.817 10 10 12 0 0
0.4281 3.2105 0.4320 -0.855 0.510 0.093 15 15 17 0 0
0.6697 3.4404 0.3830 -0.582 0.608 -0.541 13 13 15 0 0
0.6595 3.6242 0.3636 -0.533 0.696 0.481 58 56 59 0 0
0.6740 3.6370 0.3608 -0.673 0.250 0.696 56 56 57 0 0
0.6677 2.2864 0.5235 -0.327 -0.552 -0.767 38 37 42 0 0
0.4937 2.5103 0.5153 -0.788 0.455 0.415 25 26 30 0 0
0.4791 2.5243 0.5152 -0.985 -0.019 0.173 24 25 29 0 0
0.3834 2.6084 0.5151 -0.949 0.247 -0.195 31 32 34 0 0
0.3853 2.6204 0.5135 -0.967 0.253 0.003 28 29 31 0 0
0.4310 3.2120 0.4436 -0.896 0.440 -0.060 15 15 17 0 0
0.6033 3.5024 0.3949 -0.405 0.851 -0.335 25 25 27 0 0
0.5568 3.5380 0.3955 -0.902 0.342 0.265 36 36 38 0 0
0.8466 3.7820 0.3406 -0.936 0.303 0.181 44 46 45 0 0
0.8503 3.7946 0.3389 -0.936 0.303 0.181 41 41 40 0 0
0.4969 2.5114 0.5273 -0.964 0.172 0.202 31 32 36 0 0
0.5027 2.5232 0.5255 -0.824 -0.546 0.153 31 32 36 0 0
0.4027 2.7058 0.5146 -0.775 -0.170 -0.609 25 25 27 0 0
0.3663 3.0953 0.4748 -0.982 -0.148 0.121 18 18 20 0 0
0.3982 3.1302 0.4680 -0.921 -0.260 -0.290 14 14 16 0 0
0.4310 3.2136 0.4556 -0.896 0.440 -0.060 14 14 16 0 0
0.6524 3.4436 0.4092 -0.585 0.752 -0.304 12 12 14 0 0
0.5842 3.5281 0.4063 -0.658 0.751 -0.059 28 28 30 0 0
0.5720 3.5400 0.4061 -0.941 0.300 -0.159 29 29 31 0 0
0.7809 3.7184 0.3666 -0.932 0.034 -0.361 50 52 52 0 0
0.8280 3.7703 0.3564 -0.887 0.460 0.040 66 66 66 0 0
0.8450 3.8085 0.3505 -0.920 0.258 -0.293 98 97 95 0 0
0.6584 2.2652 0.5521 -0.946 0.048 0.320 37 36 41 0 0
0.6525 2.2788 0.5512 -0.938 -0.314 -0.150 36 35 40 0 0
0.3759 2.6122 0.5397 -0.933 0.360 -0.016 29 30 32 0 0
0.3958 2.7080 0.5272 -0.682 -0.155 -0.715 32 32 34 0 0
0.3684 3.0968 0.4866 -0.927 -0.373 0.037 20 20 22 0 0
0.4347 3.1065 0.4793 -0.579 -0.808 0.108 18 18 20 0 0
0.3987 3.1198 0.4812 -0.868 -0.487 -0.097 17 17 19 0 0
0.3761 3.1325 0.4819 -0.979 -0.012 -0.203 15 15 17 0 0
0.6824 3.4085 0.4228 -0.619 -0.753 0.223 12 12 14 0 0
0.6140 3.4204 0.4278 -0.641 0.530 0.555 11 11 13 0 0
0.5671 3.5415 0.4187 -0.970 -0.026 0.241 21 21 23 0 0
0.6840 3.6301 0.3980 -0.821 0.541 0.183 62 62 62 0 0
0.7690 3.7196 0.3801 -0.817 0.575 0.041 48 49 49 0 0
0.8438 3.8102 0.3631 -0.833 0.322 -0.450 83 82 80 0 0
0.8436 3.8226 0.3618 -0.692 0.567 -0.446 163 162 160 0 0
0.8150 2.1922 0.5587 -0.719 -0.694 0.027 48 48 52 0 0
0.6544 2.2673 0.5650 -0.840 -0.503 -0.205 34 35 39 0 0
0.6208 2.2975 0.5647 -0.652 -0.283 0.704 33 34 38 0 0
0.4136 2.7080 0.5378 -0.619 0.007 -0.785 34 34 36 0 0
0.4670 3.2161 0.4764 -0.927 0.364 0.095 14 14 16 0 0
0.6851 3.4349 0.4321 -0.557 -0.748 -0.361 11 11 13 0 0
0.6644 3.6312 0.4121 -0.709 0.426 -0.563 56 56 56 0 0
0.8416 3.8118 0.3758 -0.620 0.635 -0.460 55 55 55 0 0
0.8575 3.8376 0.3715 -0.622 0.693 -0.366 167 166 164 0 0
0.6468 2.2699 0.5781 -0.574 -0.723 -0.384 33 34 38 0 0
0.6242 2.2986 0.5769 -0.668 -0.341 0.662 32 33 37 0 0
0.4688 3.2176 0.4882 -0.927 0.364 0.095 14 14 16 0 0
0.6151 3.4237 0.4521 -0.861 0.492 0.130 11 11 13 0 0
0.6710 3.6820 0.4183 -0.805 0.540 -0.245 39 39 41 0 0
0.6370 2.2856 0.5899 -0.764 -0.570 -0.303 32 33 37 0 0
0.6055 2.3027 0.5908 -0.804 0.471 0.363 32 33 37 0 0
0.3915 2.6641 0.5692 -0.391 0.697 -0.601 38 39 43 0 0
0.3699 3.0775 0.5248 -0.865 -0.291 0.409 31 31 33 0 0
0.6444 3.4379 0.4604 -0.788 0.373 0.490 10 10 12 0 0
0.6797 3.6841 0.4297 -0.840 0.448 0.308 43 43 45 0 0
0.8326 3.8148 0.4017 -0.693 0.694 -0.194 32 31 34 0 0
0.8466 3.8280 0.3990 -0.693 0.694 -0.194 46 46 45 0 0
0.8519 3.8408 0.3971 -0.832 0.190 0.521 126 125 123 0 0
0.8185 2.1964 0.5969 -0.437 -0.866 -0.244 38 37 41 0 0
0.3994 2.6894 0.5779 -0.906 0.198 -0.375 38 38 42 0 0
0.4063 3.1499 0.5257 -0.660 -0.020 0.751 14 14 16 0 0
0.7167 3.3905 0.4719 -0.365 -0.827 0.428 15 15 17 0 0
0.5991 3.5002 0.4698 -0.494 -0.837 -0.236 17 17 19 0 0
0.6323 3.6107 0.4545 -0.811 0.360 -0.462 29 27 32 0 0
0.6303 3.6229 0.4533 -0.796 -0.010 -0.605 30 29 33 0 0
0.6307 3.6351 0.4519 -0.861 -0.213 -0.462 29 28 32 0 0
0.6508 3.6724 0.4460 -0.618 0.224 0.754 50 50 52 0 0
0.8291 3.8164 0.4145 -0.672 0.735 -0.089 45 44 46 0 0
0.8125 2.1989 0.6102 -0.499 -0.849 -0.174 36 36 41 0 0
0.4644 2.4871 0.6073 -0.959 0.031 0.283 25 25 29 0 0
0.4971 2.8427 0.5646 -0.218 0.857 -0.467 39 40 44 0 0
0.3870 3.2719 0.5257 -0.886 -0.011 -0.464 16 16 18 0 0
0.3856 3.2839 0.5245 -0.852 -0.044 -0.522 19 19 21 0 0
0.6215 3.5999 0.4691 -0.880 0.396 -0.264 26 25 28 0 0
0.6175 3.6120 0.4680 -0.840 -0.145 -0.522 23 21 24 0 0
0.5910 3.6233 0.4690 -0.855 -0.379 -0.354 25 23 26 0 0
0.8255 3.8179 0.4273 -0.638 0.761 0.115 70 70 70 0 0
0.8412 3.8312 0.4245 -0.703 0.709 0.046 60 59 59 0 0
0.8605 3.8573 0.4199 -0.729 0.682 0.059 124 122 121 0 0
0.9066 2.1335 0.6227 -0.870 -0.489 0.066 58 58 60 0 0
0.8324 2.1975 0.6217 -0.686 -0.721 -0.095 35 34 39 0 0
0.6047 2.3329 0.6254 -0.240 0.819 0.521 33 34 38 0 0
0.5344 2.4680 0.6160 -0.623 0.778 -0.082 34 36 39 0 0
0.5496 2.4787 0.6135 -0.659 0.169 0.733 33 37 40 0 0
0.5479 3.6114 0.4863 -0.564 -0.792 -0.234 21 19 22 0 0
0.7072 3.7149 0.4614 -0.998 0.045 -0.039 55 55 55 0 0
0.8698 3.8721 0.4302 -0.705 0.687 -0.175 160 160 158 0 0
1.0274 2.0356 0.6371 -0.834 -0.535 -0.132 168 168 170 0 0
0.9333 2.1044 0.6370 -0.617 -0.770 -0.164 68 68 70 0 0
0.9090 2.1348 0.6355 -0.905 -0.067 0.419 52 52 54 0 0
0.8248 2.2002 0.6350 -0.643 -0.715 -0.275 33 33 37 0 0
0.5200 2.4587 0.6307 -0.882 0.466 -0.062 46 46 48 0 0
0.5282 2.4703 0.6288 -0.862 0.506 -0.029 44 44 48 0 0
0.4853 2.6120 0.6163 -0.872 -0.460 -0.167 35 36 40 0 0
0.4892 2.6240 0.6146 -0.918 0.089 -0.387 34 35 39 0 0
0.7262 3.4080 0.5070 -0.330 -0.604 0.725 16 16 18 0 0
0.6485 3.4446 0.5092 -0.564 -0.480 0.673 10 10 12 0 0
0.5396 3.6128 0.4991 -0.571 -0.784 -0.244 25 23 26 0 0
0.5635 3.6378 0.4943 -0.581 0.786 0.209 45 43 46 0 0
0.6543 3.6776 0.4824 -0.832 0.540 -0.127 59 59 59 0 0
0.6762 3.6907 0.4792 -0.796 0.348 -0.496 55 55 55 0 0
0.6954 3.7038 0.4761 -0.820 -0.154 -0.551 51 51 51 0 0
0.7544 3.7804 0.4627 -0.700 0.597 -0.391 48 48 48 0 0
0.8147 3.7959 0.4560 -0.849 0.409 -0.336 47 47 47 0 0
0.8166 3.8085 0.4545 -0.750 0.621 -0.228 55 55 55 0 0
0.8702 3.8739 0.4427 -0.896 0.354 -0.268 156 156 154 0 0
1.0193 2.0385 0.6508 -0.846 -0.465 -0.263 167 165 167 0 0
0.9966 2.0557 0.6506 -0.466 -0.789 -0.400 134 133 135 0 0
0.9229 2.1209 0.6492 -0.966 -0.241 -0.092 55 55 57 0 0
0.9462 2.1306 0.6462 -0.766 0.486 0.420 46 46 48 0 0
0.9380 2.1452 0.6452 -0.487 0.747 0.453 40 40 44 0 0
0.6164 2.3217 0.6510 -0.403 0.008 0.915 32 31 36 0 0
0.5518 2.4061 0.6466 -0.686 -0.278 0.673 44 43 48 0 0
0.5424 2.4701 0.6401 -0.738 0.567 0.366 47 47 50 0 0
0.5008 2.6120 0.6274 -0.971 0.180 0.160 34 33 38 0 0
0.4838 2.6261 0.6272 -0.886 0.114 -0.450 35 34 39 0 0
0.3916 3.2647 0.5625 -0.612 -0.001 -0.791 16 16 18 0 0
0.5228 3.5537 0.5194 -0.477 -0.020 0.879 25 25 27 0 0
0.6564 3.6916 0.4931 -0.497 0.411 -0.764 44 42 43 0 0
0.8404 3.8115 0.4649 -0.918 0.035 -0.396 50 48 51 0 0
0.8430 3.8490 0.4604 -0.572 0.713 -0.405 71 71 71 0 0
0.8621 3.8751 0.4560 -0.898 -0.038 -0.439 158 158 156 0 0
1.0285 2.0251 0.6649 -0.602 -0.624 -0.497 167 167 167 0 0
0.9655 2.1025 0.6611 -0.986 -0.097 0.132 59 58 61 0 0
0.4580 2.6919 0.6342 -0.870 -0.244 -0.428 41 40 45 0 0
0.5095 3.2281 0.5695 -0.605 -0.290 -0.741 15 15 17 0 0
0.4159 3.2539 0.5739 -0.774 -0.589 -0.231 16 16 18 0 0
0.4003 3.2662 0.5737 -0.682 -0.038 -0.731 16 16 18 0 0
0.5684 3.6413 0.5181 -0.729 0.677 0.103 40 38 41 0 0
0.6731 3.7185 0.5012 -0.882 -0.336 -0.330 38 36 39 0 0
0.7172 3.7573 0.4934 -0.710 0.612 0.348 64 64 63 0 0
0.8348 3.8130 0.4779 -0.783 -0.207 -0.587 50 48 52 0 0
0.8352 3.8503 0.4736 -0.572 0.713 -0.405 76 76 76 0 0
1.0270 2.0135 0.6798 -0.586 -0.598 -0.546 167 167 167 0 0
0.9384 2.1484 0.6713 -0.764 -0.637 0.103 36 35 40 0 0
0.4101 3.2556 0.5863 -0.830 -0.189 -0.525 16 16 18 0 0
0.4081 3.2676 0.5851 -0.830 -0.189 -0.525 17 17 19 0 0
0.3961 3.2798 0.5846 -0.732 -0.586 -0.348 17 17 19 0 0
0.5259 3.5692 0.5419 -0.889 0.370 -0.269 14 12 15 0 0
0.5546 3.6304 0.5328 -0.869 0.494 0.001 33 31 34 0 0
0.5626 3.6428 0.5307 -0.676 0.606 -0.419 33 31 34 0 0
0.8343 3.8520 0.4862 -0.628 0.724 -0.286 60 60 60 0 0
0.8621 3.8786 0.4810 -0.904 0.424 -0.056 137 137 135 0 0
1.0057 2.0186 0.6942 -0.585 -0.569 -0.578 146 146 146 0 0
0.5980 2.3669 0.6853 -0.671 0.711 0.211 40 39 44 0 0
0.5188 3.1090 0.6069 -0.192 -0.030 0.981 28 29 31 0 0
0.3873 3.2576 0.5999 -0.726 -0.388 -0.568 17 17 19 0 0
0.7294 3.4396 0.5536 -0.396 -0.828 0.397 12 12 14 0 0
0.5507 3.5836 0.5507 -0.888 0.215 -0.406 24 22 25 0 0
0.5494 3.5956 0.5494 -0.466 0.814 -0.346 28 27 29 0 0
0.5917 3.6697 0.5378 -0.966 -0.190 0.175 27 26 30 0 0
0.8693 3.8808 0.4930 -0.930 0.368 -0.004 78 78 75 0 0
1.0609 1.9703 0.7090 -0.364 -0.596 -0.716 166 166 168 0 0
0.9985 2.0079 0.7093 -0.453 -0.611 -0.650 136 136 138 0 0
0.9756 2.0252 0.7090 -0.453 -0.611 -0.650 93 93 95 0 0
0.9482 2.1234 0.6999 -0.920 -0.340 0.193 37 36 41 0 0
0.6302 2.3643 0.6958 -0.672 0.402 0.622 40 39 44 0 0
0.7368 3.4414 0.5655 -0.398 -0.782 0.479 12 12 14 0 0
0.4747 3.5352 0.5741 -0.915 0.366 0.168 17 17 19 0 0
0.5481 3.6335 0.5575 -0.713 0.608 -0.349 16 16 18 0 0
0.5605 3.6460 0.5551 -0.727 0.447 -0.522 18 18 20 0 0
0.8352 3.8556 0.5111 -0.608 0.776 -0.167 62 62 62 0 0
0.8465 3.8687 0.5088 -0.605 0.771 -0.198 72 72 71 0 0
0.8635 3.8822 0.5060 -0.722 0.685 -0.100 49 49 47 0 0
1.0536 1.9596 0.7243 -0.324 -0.552 -0.768 166 166 168 0 0
1.0144 1.9798 0.7248 -0.364 -0.596 -0.716 158 158 160 0 0
0.9856 1.9982 0.7247 -0.382 -0.598 -0.705 120 120 122 0 0
0.9683 2.1219 0.7119 -0.775 0.528 0.348 36 35 40 0 0
0.5074 3.1981 0.6223 -0.233 -0.959 0.162 17 17 19 0 0
0.3787 3.2728 0.6231 -0.753 -0.525 -0.397 17 17 19 0 0
0.4691 3.3563 0.6071 -0.974 -0.117 -0.196 22 22 24 0 0
0.7179 3.4181 0.5821 -0.649 0.606 -0.459 16 16 18 0 0
0.7565 3.4433 0.5765 -0.398 -0.781 0.481 12 12 14 0 0
0.4793 3.5369 0.5857 -0.712 0.216 0.669 18 18 20 0 0
0.6643 3.7371 0.5496 -0.580 0.677 -0.452 54 54 55 0 0
0.6978 3.7509 0.5456 -0.672 0.491 -0.555 49 50 51 0 0
0.9952 1.9712 0.7405 -0.324 -0.552 -0.768 140 140 142 0 0
0.5106 3.1996 0.6343 -0.237 -0.954 0.182 17 17 19 0 0
0.3797 3.2744 0.6349 -0.842 -0.482 -0.243 17 17 19 0 0
1.0060 1.9439 0.7563 -0.251 -0.550 -0.797 149 149 151 0 0
0.5537 2.9291 0.6746 -0.170 0.859 0.482 39 40 44 0 0
0.7527 3.4466 0.6017 -0.518 0.855 0.009 12 12 14 0 0
0.4857 3.5524 0.6080 -0.689 -0.701 0.183 14 14 16 0 0
0.4801 3.5642 0.6070 -0.528 -0.846 0.073 16 16 18 0 0
0.5320 3.5897 0.6005 -0.342 0.006 -0.940 16 16 18 0 0
0.4969 3.6127 0.6003 -0.346 0.631 -0.694 18 18 20 0 0
0.6361 3.7026 0.5804 -0.979 -0.136 0.153 36 36 38 0 0
0.6657 3.7406 0.5741 -0.602 0.114 -0.790 33 33 36 0 0
0.7997 3.8338 0.5542 -0.721 0.488 0.492 50 50 50 0 0
0.8437 3.8489 0.5495 -0.841 0.490 -0.232 52 53 53 0 0
0.8454 3.8614 0.5479 -0.745 0.667 -0.013 59 60 61 0 0
1.0164 1.9166 0.7721 -0.279 -0.556 -0.783 154 154 156 0 0
0.7402 3.4357 0.6165 -0.944 0.176 -0.279 14 14 16 0 0
0.6201 3.6427 0.6008 -0.408 0.620 -0.671 21 21 23 0 0
0.6197 3.6549 0.5994 -0.420 0.723 -0.548 26 26 28 0 0
0.7258 3.4373 0.6299 -0.358 0.921 -0.157 14 14 16 0 0
0.7606 3.4501 0.6262 -0.292 0.935 -0.203 13 13 15 0 0
0.6080 3.6440 0.6139 -0.489 0.867 -0.095 25 25 27 0 0
0.7246 3.4390 0.6425 -0.358 0.921 -0.157 14 14 16 0 0
0.5957 3.6452 0.6269 -0.454 0.780 0.431 26 26 28 0 0
0.9108 3.9210 0.5751 -0.851 -0.268 -0.453 132 131 129 0 0
0.4550 3.2089 0.6984 -0.765 0.566 -0.307 22 22 24 0 0
0.7946 3.8157 0.6073 -0.958 -0.115 0.263 54 54 54 0 0
0.7995 3.8284 0.6056 -0.828 -0.343 -0.444 48 48 48 0 0
0.8107 3.8663 0.6005 -0.762 -0.154 -0.629 48 50 47 0 0
0.8147 3.8789 0.5988 -0.765 0.291 -0.575 56 56 55 0 0
0.5374 2.9132 0.7398 -0.635 -0.764 -0.114 32 33 37 0 0
0.4629 3.2225 0.7086 -0.830 0.495 0.256 29 29 31 0 0
0.5700 3.6598 0.6516 -0.654 0.680 -0.330 17 17 19 0 0
0.7649 3.7910 0.6247 -0.784 0.547 0.294 55 55 57 0 0
0.7931 3.8174 0.6199 -0.717 -0.305 -0.627 46 46 46 0 0
0.7916 3.8668 0.6143 -0.667 0.035 -0.745 42 46 45 0 0
0.8022 3.8799 0.6121 -0.706 0.338 -0.622 61 63 60 0 0
0.6318 3.6882 0.6570 -0.554 0.668 -0.497 20 20 22 0 0
0.7055 3.7527 0.6452 -0.411 0.798 0.441 46 46 46 0 0
0.7766 3.8676 0.6277 -0.667 0.035 -0.745 55 55 54 0 0
0.9068 3.9386 0.6119 -0.993 0.094 -0.068 163 162 157 0 0
1.0546 1.9057 0.8519 -0.515 -0.690 -0.509 35 37 44 0 0
0.6900 2.1529 0.8441 -0.229 -0.259 0.938 33 33 36 0 0
0.6030 2.8876 0.7639 -0.283 -0.354 0.891 29 30 32 0 0
0.4616 3.1893 0.7371 -0.852 0.522 0.043 24 24 26 0 0
0.4667 3.2013 0.7354 -0.886 0.425 -0.184 31 31 34 0 0
0.8137 3.4592 0.6856 -0.774 -0.575 -0.266 13 13 15 0 0
0.8239 3.4719 0.6836 -0.809 -0.427 -0.404 12 12 14 0 0
0.7617 3.8684 0.6412 -0.667 0.035 -0.745 79 76 74 0 0
0.7650 3.8810 0.6395 -0.558 0.315 -0.768 73 69 69 0 0
0.9036 3.9401 0.6247 -0.798 -0.162 0.580 138 137 133 0 0
1.0073 1.9294 0.8653 -0.494 -0.569 -0.657 36 39 44 0 0
0.9832 1.9471 0.8646 -0.454 -0.560 -0.693 42 44 48 0 0
0.8681 2.2061 0.8409 -0.330 -0.505 0.798 19 19 21 0 0
0.5781 2.7033 0.7993 -0.462 0.876 -0.140 27 28 30 0 0
0.6399 2.8869 0.7746 -0.290 -0.470 0.834 29 29 31 0 0
0.6129 2.9011 0.7744 -0.294 -0.478 0.828 28 28 30 0 0
0.4621 3.1909 0.7492 -0.892 0.394 0.222 28 28 30 0 0
0.4670 3.2029 0.7475 -0.892 0.394 0.222 36 35 40 0 0
0.4678 3.2151 0.7460 -0.901 0.312 0.302 37 36 41 0 0
0.6470 3.7044 0.6792 -0.668 0.675 0.312 32 32 34 0 0
0.7849 3.8840 0.6507 -0.785 0.617 -0.049 64 63 62 0 0
0.9009 3.9542 0.6361 -0.832 0.373 0.411 165 165 160 0 0
1.0464 1.8422 0.8868 -0.779 0.309 0.545 54 54 58 0 0
0.6143 2.9026 0.7868 -0.295 -0.949 0.113 26 26 28 0 0
0.6148 2.9151 0.7853 -0.418 0.087 0.904 26 26 28 0 0
0.5968 2.9286 0.7847 -0.583 0.085 0.808 26 26 28 0 0
0.5733 2.9672 0.7815 -0.371 -0.882 0.291 28 28 30 0 0
0.5454 2.9811 0.7814 -0.495 -0.853 0.167 28 29 31 0 0
0.4757 3.1800 0.7620 -0.987 0.135 0.090 28 28 30 0 0
0.4744 3.1922 0.7606 -0.974 -0.017 0.226 36 36 38 0 0
0.4738 3.2044 0.7592 -0.976 0.009 0.217 39 38 43 0 0
0.4736 3.2166 0.7578 -0.976 0.009 0.217 38 37 42 0 0
0.5848 3.6063 0.7065 -0.518 0.854 0.049 13 13 15 0 0
0.6148 3.7047 0.6934 -0.815 -0.502 -0.290 28 28 30 0 0
0.8063 3.8871 0.6618 -0.572 0.450 0.686 60 60 58 0 0
1.0036 1.7702 0.9109 -0.357 0.910 0.209 165 165 167 0 0
0.7478 2.2788 0.8651 -0.151 0.862 0.483 28 27 33 0 0
0.7581 2.2904 0.8632 -0.177 0.892 0.415 29 28 34 0 0
0.5668 2.5945 0.8378 -0.677 -0.717 -0.166 27 26 32 0 0
0.6101 2.9295 0.7965 -0.385 -0.619 0.684 25 25 27 0 0
0.6024 2.9673 0.7925 -0.666 -0.216 -0.714 25 25 27 0 0
0.5454 3.0074 0.7908 -0.872 -0.489 0.017 25 26 28 0 0
0.5272 3.0206 0.7902 -0.860 -0.423 0.287 25 26 28 0 0
0.5042 3.0339 0.7898 -0.487 -0.771 0.410 25 26 28 0 0
1.0141 1.7697 0.9239 -0.404 0.900 0.163 165 165 167 0 0
1.0346 1.7793 0.9218 -0.404 0.900 0.163 146 146 148 0 0
1.0552 1.7890 0.9196 -0.441 0.879 0.182 72 71 73 0 0
1.0347 1.8748 0.9106 -0.937 0.339 0.088 35 36 41 0 0
0.7655 2.2649 0.8788 -0.263 0.214 0.941 24 23 29 0 0
0.7737 2.2768 0.8770 -0.147 0.932 0.332 26 25 31 0 0
0.8069 2.2853 0.8743 -0.124 0.978 0.169 28 27 33 0 0
0.5959 2.7693 0.8285 -0.736 -0.239 -0.634 25 26 28 0 0
0.5926 2.8071 0.8242 -0.778 -0.603 0.175 25 26 28 0 0
0.6033 2.9439 0.8077 -0.870 -0.268 -0.414 25 25 27 0 0
0.5969 2.9568 0.8065 -0.975 -0.167 -0.149 25 25 27 0 0
0.5949 2.9693 0.8052 -0.975 -0.167 -0.149 25 25 27 0 0
0.4872 3.1830 0.7857 -0.922 -0.068 0.381 37 36 41 0 0
0.4440 3.2567 0.7793 -0.742 -0.648 0.174 19 19 21 0 0
0.6113 3.6227 0.7280 -0.879 0.042 0.474 18 18 20 0 0
0.5961 3.7073 0.7189 -0.685 -0.235 -0.690 15 15 17 0 0
0.8417 3.9179 0.6819 -0.730 0.483 0.483 67 67 65 0 0
1.0194 1.7702 0.9371 -0.346 0.919 0.188 165 164 167 0 0
1.0470 1.7922 0.9332 -0.821 0.546 0.165 56 55 59 0 0
1.0321 1.8087 0.9320 -0.968 0.250 -0.027 52 50 55 0 0
0.8001 2.2617 0.8904 -0.212 0.431 0.877 23 22 28 0 0
0.7885 2.2763 0.8893 -0.133 0.944 0.301 24 23 29 0 0
0.5596 2.7112 0.8497 -0.410 0.668 -0.621 24 25 27 0 0
0.5834 2.7718 0.8414 -0.853 -0.259 -0.454 24 25 27 0 0
0.5813 2.7845 0.8400 -0.955 -0.294 0.029 24 25 27 0 0
0.6112 2.7948 0.8374 -0.299 -0.781 -0.549 25 26 28 0 0
0.5701 3.0961 0.8041 -0.636 0.462 -0.618 26 26 28 0 0
0.4913 3.1845 0.7977 -0.954 -0.057 0.295 38 37 42 0 0
0.4451 3.2583 0.7913 -0.868 -0.402 0.292 21 21 23 0 0
0.7625 3.4671 0.7513 -0.332 -0.927 0.173 11 11 13 0 0
0.8504 3.8953 0.6968 -0.809 0.441 -0.388 48 48 48 0 0
0.9387 3.9641 0.6844 -0.276 0.959 0.062 163 164 159 0 0
1.0504 1.7931 0.9465 -0.642 0.625 0.444 50 50 56 0 0
0.8143 2.2613 0.9029 -0.218 0.354 0.909 23 22 28 0 0
0.6361 2.5160 0.8815 -0.879 -0.263 0.399 24 25 27 0 0
0.5540 2.7132 0.8623 -0.513 0.580 -0.633 24 25 27 0 0
0.5665 2.7247 0.8603 -0.541 0.499 -0.677 23 24 26 0 0
0.5792 2.7362 0.8584 -0.507 0.518 -0.688 23 24 26 0 0
0.5792 2.7737 0.8540 -0.974 -0.134 0.183 23 24 26 0 0
0.5809 2.7861 0.8525 -0.866 -0.482 0.132 23 24 26 0 0
0.5669 2.8371 0.8471 -0.650 0.115 -0.751 26 26 28 0 0
0.5469 2.9131 0.8392 -0.204 0.885 0.419 25 25 27 0 0
0.5612 3.0981 0.8168 -0.850 0.173 -0.498 26 26 28 0 0
0.7422 3.4685 0.7648 -0.335 -0.861 0.383 12 12 14 0 0
0.7764 3.8551 0.7179 -0.725 0.248 0.643 54 54 54 0 0
0.7933 3.8685 0.7155 -0.502 0.843 -0.195 48 48 48 0 0
0.6555 2.5792 0.8859 -0.979 -0.039 0.200 21 21 26 0 0
0.5722 2.7133 0.8740 -0.718 0.682 -0.139 23 23 27 0 0
0.5516 3.0012 0.8412 -0.654 -0.637 0.408 23 24 26 0 0
0.5676 3.0995 0.8289 -0.976 -0.215 0.042 27 27 29 0 0
0.4356 3.2616 0.8159 -0.747 -0.633 -0.205 22 22 24 0 0
0.6022 3.6152 0.7667 -0.860 0.468 0.202 12 12 14 0 0
0.7879 3.8575 0.7297 -0.687 0.608 0.399 42 42 44 0 0
0.8913 3.9141 0.7183 -0.601 0.609 -0.518 50 50 50 0 0
0.9161 3.9535 0.7126 -0.901 0.136 -0.411 136 137 132 0 0
0.9132 3.9658 0.7112 -0.912 0.165 -0.375 166 166 163 0 0
0.6566 2.5679 0.9000 -0.992 -0.110 -0.057 22 21 26 0 0
0.6574 2.5806 0.8984 -0.977 -0.195 0.082 20 21 24 0 0
0.5806 2.7141 0.8861 -0.939 0.336 0.074 23 22 28 0 0
0.5654 3.1012 0.8413 -0.957 -0.284 0.057 28 29 31 0 0
0.8189 3.4351 0.7908 -0.702 -0.692 0.167 18 18 20 0 0
0.7870 3.8592 0.7423 -0.698 0.506 -0.507 35 34 39 0 0
0.8308 3.8993 0.7356 -0.558 0.441 -0.703 47 47 48 0 0
0.8626 3.9139 0.7325 -0.566 0.803 -0.190 55 55 55 0 0
0.8820 3.9277 0.7300 -0.583 0.742 -0.331 68 68 67 0 0
0.9019 3.9417 0.7275 -0.692 0.672 -0.264 84 84 82 0 0
0.9203 3.9681 0.7235 -0.778 0.590 -0.216 166 167 163 0 0
0.6243 2.5475 0.9165 -0.843 0.266 -0.467 24 23 29 0 0
0.6262 2.5599 0.9150 -0.790 0.476 -0.386 23 22 28 0 0
0.6616 2.5690 0.9124 -0.722 -0.228 -0.653 22 21 26 0 0
0.6587 2.5820 0.9110 -0.722 -0.228 -0.653 21 22 25 0 0
0.5587 3.1030 0.8539 -0.925 -0.193 0.327 33 34 36 0 0
0.5195 3.1535 0.8496 -0.905 -0.404 -0.133 38 37 42 0 0
0.8289 3.9134 0.7468 -0.620 0.446 -0.645 64 64 62 0 0
0.8913 3.9302 0.7422 -0.734 0.678 0.047 76 76 73 0 0
0.9159 3.9570 0.7379 -0.734 0.678 0.047 83 82 80 0 0
1.0271 1.7903 1.0021 -0.950 0.056 0.306 46 47 52 0 0
0.6431 2.5725 0.9255 -0.577 0.042 -0.816 22 21 26 0 0
0.5202 3.1428 0.8632 -0.895 -0.413 0.166 38 37 42 0 0
0.5285 3.1917 0.8571 -0.938 -0.263 0.225 25 25 27 0 0
0.6046 3.4244 0.8265 -0.412 0.224 -0.883 18 18 20 0 0
0.6243 3.6943 0.7938 -0.302 0.534 0.790 15 15 17 0 0
0.8040 3.8886 0.7635 -0.572 0.524 -0.631 54 54 53 0 0
0.8134 3.9141 0.7601 -0.572 0.470 -0.672 79 80 75 0 0
0.8725 3.9306 0.7557 -0.539 0.821 0.188 71 70 66 0 0
0.9177 3.9589 0.7505 -0.696 0.279 0.662 55 54 53 0 0
0.9161 3.9714 0.7491 -0.786 0.223 0.577 130 129 128 0 0
1.0298 1.7914 1.0154 -0.912 0.352 0.209 42 44 47 0 0
0.5890 3.0307 0.8862 -0.985 -0.163 -0.052 22 23 25 0 0
0.5750 3.0686 0.8823 -0.943 -0.334 -0.014 28 29 31 0 0
0.5705 3.0811 0.8810 -0.943 -0.334 -0.014 34 34 37 0 0
0.5266 3.4133 0.8434 -0.298 0.775 -0.558 20 20 22 0 0
0.5627 3.4257 0.8405 -0.403 0.429 -0.808 17 17 19 0 0
0.5810 3.4381 0.8383 -0.375 0.428 -0.822 17 17 19 0 0
0.8215 3.9039 0.7737 -0.489 0.783 -0.384 68 68 67 0 0
0.8115 3.9157 0.7728 -0.639 0.506 -0.580 61 61 60 0 0
0.9134 3.9855 0.7605 -0.605 -0.231 0.762 164 165 161 0 0
1.0332 1.7923 1.0287 -0.912 0.352 0.209 47 46 49 0 0
1.0436 1.8177 1.0253 -0.919 0.329 0.219 33 31 38 0 0
1.0361 1.8328 1.0238 -0.708 -0.402 0.581 33 33 40 0 0
1.0196 1.8495 1.0224 -0.775 -0.602 0.192 40 41 47 0 0
0.5762 3.0205 0.9005 -0.986 0.166 0.016 22 23 25 0 0
0.5669 3.0829 0.8935 -0.925 -0.367 -0.096 40 40 43 0 0
0.5436 3.0961 0.8928 -0.905 -0.156 -0.396 38 37 42 0 0
0.5439 3.1084 0.8913 -0.912 0.040 -0.409 37 36 41 0 0
0.4812 3.4026 0.8588 -0.356 0.709 -0.609 21 21 23 0 0
0.5440 3.4394 0.8521 -0.464 0.556 -0.689 16 16 18 0 0
0.4532 3.5588 0.8414 -0.728 0.033 0.684 10 10 12 0 0
0.8359 3.9067 0.7856 -0.636 0.221 0.739 51 51 51 0 0
0.8350 3.9191 0.7842 -0.663 0.208 0.720 56 56 55 0 0
1.0564 1.7620 1.0450 -0.397 -0.913 0.095 147 146 151 0 0
1.0101 1.8529 1.0359 -0.640 -0.769 0.008 30 31 37 0 0
1.0210 1.8645 1.0342 -0.844 -0.378 0.380 32 32 38 0 0
0.5812 3.0343 0.9112 -0.914 -0.279 -0.296 26 27 29 0 0
0.5650 3.0969 0.9044 -0.905 0.175 -0.387 38 37 42 0 0
0.5386 3.1102 0.9038 -0.870 0.140 -0.474 37 36 41 0 0
0.4665 3.4041 0.8715 -0.443 0.728 -0.523 23 23 25 0 0
0.4837 3.4163 0.8694 -0.581 0.648 -0.493 24 24 26 0 0
0.5036 3.4286 0.8672 -0.570 0.604 -0.557 18 18 20 0 0
0.5287 3.4410 0.8649 -0.490 0.581 -0.650 15 15 17 0 0
0.8565 3.9223 0.7958 -0.739 0.443 0.507 55 55 55 0 0
1.0585 1.7631 1.0584 -0.368 -0.920 0.136 147 146 150 0 0
1.0004 1.8563 1.0494 -0.604 -0.784 -0.146 27 28 32 0 0
0.5792 3.0112 0.9266 -0.977 -0.110 -0.180 25 26 29 0 0
0.5772 3.0237 0.9252 -0.986 0.166 0.016 30 31 34 0 0
0.5780 3.0361 0.9237 -0.942 -0.247 -0.227 34 35 38 0 0
0.5551 3.0866 0.9185 -0.953 -0.245 -0.176 36 35 39 0 0
0.5315 3.1121 0.9163 -0.906 0.153 -0.395 36 35 39 0 0
0.5186 3.1248 0.9152 -0.930 -0.215 -0.299 32 32 36 0 0
0.3924 3.2735 0.9019 -0.574 -0.812 0.107 25 25 27 0 0
0.4599 3.4058 0.8838 -0.539 0.704 -0.462 34 34 36 0 0
0.4749 3.4179 0.8819 -0.581 0.648 -0.493 37 37 39 0 0
0.5266 3.6245 0.8555 -0.242 0.636 0.733 15 15 17 0 0
0.5465 3.6373 0.8533 -0.260 0.543 0.798 15 15 17 0 0
1.0609 1.7643 1.0718 -0.376 -0.913 0.158 150 150 152 0 0
0.9295 1.8306 1.0683 -0.514 -0.839 0.182 66 66 68 0 0
0.5750 3.0005 0.9406 -0.974 0.057 -0.221 29 30 34 0 0
0.5817 3.0127 0.9389 -0.994 0.024 -0.104 34 35 39 0 0
0.5822 3.0251 0.9374 -0.994 0.024 -0.104 37 38 42 0 0
0.5807 3.0376 0.9360 -0.947 -0.254 -0.198 39 40 44 0 0
0.5350 3.1012 0.9299 -0.970 0.114 -0.213 35 35 37 0 0
0.5308 3.1137 0.9286 -0.951 0.288 -0.109 30 30 32 0 0
0.5213 3.1386 0.9259 -0.927 -0.308 -0.216 24 24 26 0 0
0.5673 3.2236 0.9143 -0.658 0.177 0.732 18 18 20 0 0
0.5664 3.2360 0.9128 -0.805 0.115 0.582 18 18 20 0 0
0.4539 3.4074 0.8961 -0.696 0.670 -0.258 24 25 27 0 0
0.4816 3.4317 0.8923 -0.772 0.468 -0.431 17 18 20 0 0
0.5397 3.6387 0.8657 -0.776 0.229 0.587 14 14 16 0 0
0.9724 1.8104 1.0828 -0.512 -0.827 0.232 52 51 56 0 0
0.5693 2.9900 0.9546 -0.961 0.272 -0.038 35 35 40 0 0
0.5754 3.0021 0.9530 -0.948 0.316 -0.022 37 37 42 0 0
0.5823 3.0143 0.9513 -0.966 0.231 0.114 39 40 44 0 0
0.5809 3.0268 0.9499 -0.994 0.024 -0.104 39 40 44 0 0
0.5804 3.0392 0.9484 -0.995 -0.085 0.055 39 40 44 0 0
0.4537 3.4090 0.9082 -0.716 0.685 -0.136 24 25 27 0 0
0.4741 3.4333 0.9047 -0.959 -0.015 -0.285 18 18 20 0 0
0.8490 3.9146 0.8355 -0.746 0.392 -0.539 44 44 44 0 0
0.8256 3.9379 0.8334 -0.491 0.871 0.027 55 57 56 0 0
0.9766 1.8112 1.0960 -0.554 -0.781 0.287 39 38 44 0 0
0.9163 1.8497 1.0932 -0.572 -0.742 0.348 50 49 55 0 0
0.5750 2.9913 0.9669 -0.817 0.477 0.323 39 40 45 0 0
0.4809 3.2285 0.9413 -0.417 -0.897 0.146 17 17 19 0 0
0.4542 3.4106 0.9203 -0.790 0.612 -0.050 25 26 28 0 0
0.4710 3.4349 0.9169 -0.889 0.446 -0.109 28 29 31 0 0
0.5685 3.6431 0.8891 -0.370 0.408 -0.835 11 11 13 0 0
0.5883 3.6559 0.8870 -0.295 0.289 -0.911 11 11 13 0 0
0.7736 3.8865 0.8539 -0.533 0.836 -0.133 40 40 40 0 0
0.7974 3.9004 0.8515 -0.496 0.770 -0.403 41 41 41 0 0
0.8576 3.9170 0.8477 -0.555 0.567 -0.608 43 43 43 0 0
0.8403 3.9282 0.8469 -0.593 0.628 -0.504 47 47 47 0 0
0.9529 3.9867 0.8366 -0.774 -0.341 -0.534 149 148 146 0 0
0.9830 1.8115 1.1093 -0.554 -0.781 0.287 34 32 37 0 0
0.9242 1.8498 1.1064 -0.572 -0.742 0.348 34 32 37 0 0
0.4452 3.4122 0.9327 -0.707 0.629 0.323 20 21 23 0 0
0.4589 3.4485 0.9279 -0.945 0.182 -0.273 14 14 16 0 0
0.4495 3.4604 0.9268 -0.808 0.588 0.039 12 12 14 0 0
0.8013 3.9024 0.8639 -0.601 0.551 -0.579 40 41 41 0 0
0.8584 3.9188 0.8603 -0.554 0.594 -0.584 43 43 46 0 0
0.8305 3.9293 0.8599 -0.593 0.628 -0.504 50 51 51 0 0
0.8506 3.9432 0.8576 -0.539 0.814 -0.218 69 69 67 0 0
0.9505 3.9883 0.8494 -0.838 0.203 -0.506 149 148 145 0 0
0.9594 1.8312 1.1211 -0.602 -0.761 0.240 25 23 27 0 0
0.4500 3.4139 0.9446 -0.744 0.535 0.400 19 20 22 0 0
0.4572 3.4501 0.9401 -0.933 0.300 -0.199 13 13 15 0 0
0.4513 3.4621 0.9388 -0.808 0.588 0.039 12 12 14 0 0
0.8171 3.8928 0.8774 -0.650 0.463 -0.603 38 38 40 0 0
0.8283 3.9060 0.8755 -0.650 0.463 -0.603 39 40 42 0 0
0.8493 3.9199 0.8733 -0.551 0.597 -0.582 48 50 50 0 0
0.8206 3.9304 0.8728 -0.593 0.628 -0.504 72 74 71 0 0
0.8482 3.9448 0.8703 -0.535 0.811 -0.235 87 88 87 0 0
1.1685 1.7373 1.1406 -0.372 -0.914 0.164 165 165 167 0 0
0.9617 1.8323 1.1343 -0.604 -0.788 0.117 34 32 35 0 0
0.5242 3.0727 0.9961 -0.790 -0.179 -0.586 23 23 25 0 0
0.4979 3.1229 0.9907 -0.955 0.294 -0.051 20 20 22 0 0
0.5016 3.1350 0.9892 -0.966 0.257 -0.023 20 20 22 0 0
0.4563 3.4155 0.9566 -0.759 0.569 0.316 20 21 23 0 0
0.4638 3.4277 0.9549 -0.817 0.313 0.484 34 34 36 0 0
0.4557 3.4517 0.9522 -0.973 0.225 -0.047 14 14 16 0 0
0.7215 3.7403 0.9109 -0.638 -0.328 0.697 26 26 28 0 0
0.8076 3.9064 0.8888 -0.577 0.707 -0.409 51 53 53 0 0
0.8339 3.9206 0.8864 -0.534 0.771 -0.347 72 74 72 0 0
0.9973 1.8135 1.1492 -0.576 -0.808 0.124 38 36 39 0 0
0.9607 1.8341 1.1476 -0.602 -0.797 0.055 40 38 41 0 0
0.4983 3.1245 1.0030 -0.979 0.199 -0.051 20 20 22 0 0
0.4524 3.4292 0.9673 -0.649 0.721 -0.244 33 33 35 0 0
0.4547 3.4413 0.9658 -0.998 0.044 0.035 18 18 20 0 0
0.4521 3.4533 0.9644 -0.917 0.250 -0.311 13 13 15 0 0
0.5120 3.5994 0.9454 -0.811 0.463 0.357 12 12 14 0 0
0.5550 3.6129 0.9428 -0.858 0.312 -0.409 13 13 15 0 0
0.7258 3.7051 0.9277 -0.631 0.209 0.747 25 25 27 0 0
0.8001 3.9076 0.9016 -0.577 0.707 -0.409 67 69 66 0 0
0.8648 3.9746 0.8920 -0.368 0.900 -0.235 44 44 46 0 0
0.9604 1.8358 1.1609 -0.607 -0.790 0.084 47 47 47 0 0
0.9367 1.8538 1.1592 -0.607 -0.790 0.084 58 60 59 0 0
0.6511 3.0585 1.0201 -0.772 0.195 0.605 24 24 26 0 0
0.4615 3.4309 0.9792 -0.550 0.831 0.078 19 19 21 0 0
0.5620 3.6148 0.9549 -0.874 -0.486 0.008 13 13 15 0 0
0.5723 3.6516 0.9502 -0.653 0.695 0.301 16 16 18 0 0
0.8213 3.9108 0.9135 -0.737 0.670 -0.095 51 53 52 0 0
0.8421 3.9247 0.9114 -0.623 0.777 0.097 47 49 48 0 0
0.8206 3.9357 0.9105 -0.540 0.839 0.058 53 55 54 0 0
0.8404 3.9496 0.9084 -0.546 0.811 -0.209 62 61 63 0 0
0.6241 2.8354 1.0603 -0.819 -0.466 -0.336 51 52 56 0 0
0.5708 3.0634 1.0338 -0.421 -0.028 -0.907 24 24 26 0 0
0.4755 3.4327 0.9911 -0.530 0.758 0.379 16 16 18 0 0
0.5063 3.6026 0.9699 -0.942 -0.019 0.335 12 12 14 0 0
0.6003 3.6665 0.9603 -0.447 0.886 -0.124 15 15 17 0 0
0.6272 3.6798 0.9581 -0.401 0.895 -0.193 16 16 18 0 0
0.8619 3.9279 0.9235 -0.625 0.499 0.601 48 50 49 0 0
0.8245 1.9313 1.1788 -0.819 -0.244 0.519 23 23 26 0 0
0.8394 1.9419 1.1772 -0.521 -0.802 0.292 24 24 26 0 0
0.9809 1.9843 1.1695 -0.293 0.200 -0.935 17 16 21 0 0
1.0133 1.9924 1.1679 -0.197 0.509 -0.838 17 16 21 0 0
1.0678 2.0241 1.1631 -0.073 0.548 -0.833 17 16 21 0 0
0.7313 2.1840 1.1499 -0.231 -0.192 -0.954 22 22 26 0 0
0.7452 2.2081 1.1467 -0.113 0.402 -0.908 24 23 29 0 0
0.6270 2.9123 1.0636 -0.972 -0.203 0.121 42 43 47 0 0
0.5217 3.6168 0.9803 -0.625 0.603 0.496 12 12 14 0 0
0.5272 3.6291 0.9787 -0.715 0.514 0.474 12 12 14 0 0
0.6031 3.6683 0.9725 -0.435 0.560 -0.705 13 13 15 0 0
0.7969 3.9127 0.9394 -0.375 0.891 -0.256 50 52 51 0 0
0.8480 3.9287 0.9365 -0.705 0.630 0.326 47 49 48 0 0
0.6371 2.9133 1.0761 -0.711 0.264 0.652 43 44 48 0 0
0.6154 2.9397 1.0732 -0.917 -0.305 0.257 38 37 40 0 0
0.8942 3.4524 1.0064 -0.524 -0.848 -0.080 14 14 16 0 0
0.5960 3.6575 0.9865 -0.383 0.252 -0.888 12 12 14 0 0
0.5936 3.6696 0.9850 -0.377 0.422 -0.824 12 12 14 0 0
0.9358 1.8603 1.2122 -0.546 -0.823 0.157 45 43 46 0 0
0.9379 1.8734 1.2106 -0.686 -0.640 0.346 39 39 41 0 0
0.8395 1.9584 1.2018 -0.694 -0.718 0.044 32 32 37 0 0
0.9780 1.9880 1.1961 -0.495 -0.098 -0.863 20 21 25 0 0
1.0119 2.0365 1.1897 -0.382 0.483 0.788 16 15 20 0 0
0.6393 2.9022 1.0901 -0.855 -0.507 -0.106 42 43 47 0 0
0.8975 3.4158 1.0238 -0.289 0.940 0.179 21 21 23 0 0
0.9200 3.4287 1.0219 -0.664 0.663 0.346 19 19 21 0 0
0.6335 3.7219 0.9906 -0.294 0.033 -0.955 22 22 24 0 0
0.9126 1.9066 1.2204 -0.568 -0.777 0.271 49 48 50 0 0
0.8855 1.9250 1.2185 -0.510 -0.715 0.479 44 43 45 0 0
0.8360 1.9606 1.2148 -0.642 -0.528 0.556 38 38 43 0 0
0.8409 1.9730 1.2133 -0.775 -0.306 0.553 32 33 38 0 0
0.9860 1.9882 1.2094 -0.648 0.341 -0.681 22 23 27 0 0
0.9587 2.0064 1.2076 -0.268 0.611 -0.745 21 22 26 0 0
0.9964 2.0136 1.2062 -0.163 0.805 -0.571 21 20 25 0 0
1.0194 2.0369 1.2031 -0.353 0.865 0.356 17 16 21 0 0
0.9238 3.4433 1.0331 -0.548 0.380 -0.745 14 14 16 0 0
0.8100 3.9189 0.9768 -0.579 0.815 0.013 39 41 40 0 0
0.8741 3.9484 0.9723 -0.444 0.558 -0.701 46 48 47 0 0
0.8650 3.9602 0.9710 -0.554 0.820 -0.143 54 55 56 0 0
1.0091 4.0218 0.9615 -0.482 0.874 -0.053 167 169 163 0 0
0.9118 1.9083 1.2336 -0.666 -0.731 0.147 54 51 54 0 0
0.8575 1.9450 1.2298 -0.656 -0.404 0.637 57 55 58 0 0
0.8464 1.9603 1.2280 -0.656 -0.404 0.637 43 42 47 0 0
0.8503 1.9729 1.2264 -0.775 -0.306 0.553 36 37 42 0 0
0.9394 2.0113 1.2207 -0.589 0.744 0.316 24 25 29 0 0
0.9807 2.0313 1.2178 -0.228 0.945 -0.235 24 23 28 0 0
1.0073 2.0405 1.2163 -0.339 0.941 -0.013 22 21 26 0 0
0.6879 2.8391 1.1227 -0.962 -0.262 -0.082 37 38 42 0 0
0.8956 3.4320 1.0479 -0.457 0.571 -0.682 16 16 18 0 0
0.9116 3.4449 1.0462 -0.489 0.531 -0.692 12 12 14 0 0
0.9102 3.4577 1.0446 -0.467 0.637 -0.614 12 12 14 0 0
0.5362 3.5997 1.0318 -0.611 -0.534 -0.584 14 14 16 0 0
0.8095 3.9206 0.9894 -0.639 0.624 -0.450 38 39 40 0 0
0.8570 3.9489 0.9853 -0.505 0.540 -0.674 50 52 51 0 0
0.8643 3.9619 0.9837 -0.554 0.820 -0.143 65 67 66 0 0
1.0027 4.0231 0.9746 -0.533 0.794 -0.292 168 171 164 0 0
1.0956 1.7937 1.2591 -0.453 -0.768 0.453 165 165 167 0 0
0.8846 1.9283 1.2448 -0.501 -0.170 0.849 56 55 60 0 0
0.8709 1.9441 1.2430 -0.512 -0.359 0.780 55 53 58 0 0
0.9534 2.0105 1.2341 -0.447 0.560 0.698 25 26 31 0 0
0.9918 2.0311 1.2312 -0.296 0.758 0.581 27 26 32 0 0
0.9569 2.7172 1.1477 -0.760 -0.538 0.365 51 49 52 0 0
0.8852 2.7360 1.1461 -0.525 -0.729 0.440 48 48 50 0 0
0.8919 2.7486 1.1445 -0.480 -0.872 -0.095 50 50 52 0 0
0.8842 3.4337 1.0609 -0.447 0.589 -0.673 15 15 17 0 0
0.9055 3.4466 1.0591 -0.406 0.688 -0.602 12 12 14 0 0
0.8373 3.9492 0.9984 -0.574 0.721 -0.387 62 64 62 0 0
1.1075 1.7931 1.2728 -0.486 -0.730 0.481 166 166 168 0 0
1.0402 1.8471 1.2668 -0.958 -0.242 -0.152 78 78 80 0 0
1.0214 1.8643 1.2649 -0.745 -0.411 0.525 69 69 71 0 0
0.9307 1.9081 1.2603 -0.382 -0.266 0.885 67 66 70 0 0
0.9181 1.9238 1.2585 -0.411 -0.475 0.778 63 62 67 0 0
0.8987 1.9408 1.2565 -0.450 -0.435 0.780 59 58 63 0 0
0.8813 1.9573 1.2547 -0.477 -0.545 0.690 48 47 52 0 0
1.0061 2.4482 1.1935 -0.210 0.116 0.971 93 93 93 0 0
1.0988 2.6671 1.1659 -0.409 -0.890 -0.202 90 88 86 0 0
0.9568 2.7188 1.1608 -0.781 -0.575 0.244 58 56 59 0 0
0.9010 2.7364 1.1591 -0.569 -0.763 0.306 48 48 50 0 0
0.8819 2.7510 1.1575 -0.509 -0.827 0.240 49 49 51 0 0
0.5006 3.5899 1.0581 -0.871 -0.489 -0.050 14 14 16 0 0
0.5660 3.6527 1.0499 -0.197 0.652 0.732 14 14 16 0 0
0.8306 3.9505 1.0111 -0.551 0.832 -0.061 85 87 85 0 0
1.0325 4.0419 0.9982 -0.419 0.813 -0.403 168 169 164 0 0
1.1046 1.8091 1.2846 -0.406 -0.708 0.579 165 165 167 0 0
1.0277 1.8647 1.2784 -0.493 -0.424 0.760 91 91 93 0 0
1.0002 1.8834 1.2763 -0.477 -0.337 0.812 86 86 88 0 0
0.9653 1.9034 1.2741 -0.413 -0.364 0.834 80 80 84 0 0
0.9485 1.9200 1.2721 -0.411 -0.475 0.778 71 69 74 0 0
0.9010 1.9554 1.2681 -0.477 -0.459 0.750 48 48 53 0 0
0.8776 1.9729 1.2661 -0.465 -0.541 0.701 35 36 40 0 0
1.1218 2.0267 1.2578 -0.929 -0.226 0.293 34 31 38 0 0
1.0161 2.0575 1.2548 -0.988 -0.100 -0.117 34 31 38 0 0
0.9500 2.7342 1.1723 -0.870 -0.449 0.203 35 35 37 0 0
0.8226 2.8995 1.1529 -0.652 -0.616 0.442 44 45 47 0 0
0.4966 3.5914 1.0704 -0.731 -0.135 0.669 14 14 16 0 0
0.5184 3.6526 1.0627 -0.251 0.830 -0.499 13 13 15 0 0
0.8320 3.9524 1.0237 -0.551 0.832 -0.061 72 74 73 0 0
1.0325 1.8791 1.2902 -0.635 -0.388 0.668 123 123 125 0 0
1.0201 1.8950 1.2883 -0.653 -0.346 0.673 97 97 100 0 0
0.9804 1.9158 1.2860 -0.457 -0.601 0.656 76 76 79 0 0
0.9287 1.9521 1.2818 -0.496 -0.552 0.671 54 53 58 0 0
0.8743 2.3477 1.2335 -0.799 -0.460 0.386 24 25 30 0 0
0.8951 2.3582 1.2321 -0.661 0.086 0.745 34 34 40 0 0
0.8894 2.3722 1.2304 -0.641 0.339 0.689 41 39 47 0 0
1.0475 2.4334 1.2220 -0.201 0.603 0.772 94 93 95 0 0
0.9513 2.7358 1.1854 -0.865 -0.482 0.141 17 17 19 0 0
0.7925 2.8128 1.1768 -0.407 0.602 0.687 23 24 27 0 0
0.8512 2.8995 1.1658 -0.297 -0.950 -0.098 48 48 51 0 0
0.8901 2.9492 1.1595 -0.094 0.943 0.318 23 24 26 0 0
0.4873 3.5807 1.0841 -0.661 -0.620 -0.423 13 13 15 0 0
0.5362 3.6428 1.0762 -0.224 0.975 0.009 12 12 14 0 0
0.8621 3.9439 1.0375 -0.469 0.611 0.637 56 58 57 0 0
0.8653 3.9566 1.0359 -0.618 0.670 0.411 54 56 55 0 0
1.0411 1.8928 1.3021 -0.951 -0.222 0.216 138 138 140 0 0
0.9367 2.0062 1.2885 -0.446 -0.854 0.266 39 40 45 0 0
0.9042 2.3587 1.2453 -0.645 0.184 0.741 40 40 46 0 0
0.9374 2.3679 1.2440 -0.265 0.780 0.567 44 43 49 0 0
1.0359 2.4230 1.2369 -0.138 0.724 0.676 88 86 89 0 0
1.0791 2.4315 1.2357 -0.147 0.680 0.719 89 87 88 0 0
0.9531 2.7373 1.1985 -0.837 -0.507 0.207 16 16 18 0 0
0.9125 2.7536 1.1967 -0.528 -0.681 0.508 15 15 17 0 0
1.0311 2.9435 1.1728 -0.567 0.676 -0.471 20 21 23 0 0
0.6404 3.2521 1.1363 -0.605 -0.743 -0.287 41 40 44 0 0
0.4781 3.6063 1.0934 -0.960 -0.259 -0.109 13 13 15 0 0
1.0969 1.8568 1.3201 -0.682 -0.572 0.455 166 166 168 0 0
1.0546 1.8920 1.3158 -0.929 -0.368 -0.023 162 162 164 0 0
0.9081 2.0529 1.2963 -0.821 -0.571 -0.014 40 41 46 0 0
1.0075 2.0909 1.2914 -0.294 -0.859 0.418 40 39 45 0 0
1.0243 2.3991 1.2534 -0.150 0.821 0.550 68 66 67 0 0
1.0483 2.4097 1.2520 -0.129 0.776 0.618 87 85 86 0 0
1.0853 2.4189 1.2508 -0.128 0.735 0.666 85 83 84 0 0
1.0768 2.6489 1.2225 -0.496 -0.867 -0.046 166 166 166 0 0
0.9529 2.7390 1.2116 -0.810 -0.587 0.002 15 15 17 0 0
0.8052 2.8152 1.2025 -0.646 0.200 0.737 24 25 29 0 0
1.0337 2.9451 1.1861 -0.602 0.583 -0.546 18 19 21 0 0
1.0535 2.9573 1.1845 -0.601 0.441 -0.667 17 18 20 0 0
0.6098 3.1796 1.1580 -0.958 -0.202 0.205 22 23 25 0 0
0.6032 3.5628 1.1108 -0.518 -0.855 0.013 11 11 13 0 0
0.5606 3.5739 1.1095 -0.830 0.466 -0.306 12 12 14 0 0
0.8987 3.9501 1.0625 -0.596 0.749 0.290 53 55 54 0 0
0.9098 3.9635 1.0608 -0.530 0.519 0.671 53 55 54 0 0
0.8772 3.9736 1.0596 -0.628 0.770 0.112 57 59 57 0 0
1.1090 1.8700 1.3322 -0.545 -0.803 0.243 166 166 168 0 0
0.9020 2.2825 1.2813 -0.984 -0.059 0.170 13 12 18 0 0
0.8910 2.2973 1.2795 -0.924 -0.358 0.133 15 14 20 0 0
0.9683 2.3807 1.2692 -0.128 0.829 0.545 46 46 48 0 0
1.0135 2.3886 1.2682 -0.132 0.805 0.578 69 69 70 0 0
1.0583 2.3967 1.2672 -0.132 0.805 0.578 86 85 84 0 0
1.0938 2.4060 1.2660 -0.119 0.772 0.624 87 86 84 0 0
0.8245 2.8155 1.2156 -0.543 0.730 0.414 28 29 33 0 0
1.0252 2.9472 1.1992 -0.706 0.512 -0.490 18 19 21 0 0
1.0411 2.9597 1.1977 -0.646 0.402 -0.649 18 19 21 0 0
0.6155 3.1686 1.1721 -0.934 -0.219 0.282 20 21 23 0 0
0.6332 3.1807 1.1706 -0.898 0.439 0.040 22 23 25 0 0
0.6880 3.2672 1.1598 -0.511 0.850 0.129 44 44 46 0 0
0.9202 3.8902 1.0828 -0.321 0.947 -0.006 56 56 55 0 0
0.8539 2.1979 1.3051 -0.553 -0.038 0.832 37 38 42 0 0
1.0090 2.3774 1.2831 -0.130 0.815 0.565 71 69 70 0 0
1.0553 2.3852 1.2822 -0.129 0.813 0.567 91 89 90 0 0
1.0998 2.3934 1.2812 -0.132 0.805 0.578 87 87 87 0 0
1.0383 2.7091 1.2421 -0.992 -0.127 0.018 20 21 23 0 0
1.0366 2.7226 1.2404 -0.992 -0.127 0.018 15 16 18 0 0
1.0348 2.7360 1.2387 -0.992 -0.127 0.018 13 14 16 0 0
0.9709 2.7542 1.2364 -0.822 -0.540 0.182 13 14 16 0 0
0.9599 2.7682 1.2347 -0.834 -0.522 0.177 14 15 17 0 0
0.9463 2.7824 1.2329 -0.669 -0.731 0.135 16 17 20 0 0
1.0112 2.9497 1.2123 -0.791 0.510 -0.338 18 19 21 0 0
0.6036 3.1706 1.1845 -0.863 -0.008 -0.505 20 21 23 0 0
0.6359 3.1947 1.1815 -0.737 0.675 0.031 27 28 30 0 0
0.6403 3.2570 1.1738 -0.944 0.169 0.284 46 45 45 0 0
0.6634 3.2692 1.1723 -0.572 0.818 0.064 42 40 45 0 0
0.5322 3.5765 1.1342 -0.559 0.357 -0.748 13 13 15 0 0
0.8766 2.2095 1.3170 -0.525 -0.170 0.834 14 15 19 0 0
0.8797 2.2489 1.3121 -0.804 0.589 0.078 12 11 16 0 0
0.9169 2.2704 1.3096 -0.363 0.892 0.269 15 16 21 0 0
0.9500 2.3461 1.3003 -0.200 0.844 0.497 47 45 50 0 0
0.9706 2.3569 1.2990 -0.169 0.860 0.481 45 43 48 0 0
1.0161 2.3647 1.2982 -0.149 0.819 0.555 72 70 73 0 0
1.0492 2.3741 1.2971 -0.130 0.815 0.565 93 91 92 0 0
1.0954 2.3820 1.2962 -0.130 0.815 0.565 87 85 86 0 0
1.1416 2.3901 1.2954 -0.132 0.805 0.578 111 111 111 0 0
0.8600 2.8424 1.2385 -0.930 0.015 0.366 51 53 53 0 0
1.0068 2.9516 1.2254 -0.791 0.510 -0.338 18 19 21 0 0
0.5926 3.1725 1.1969 -0.856 -0.190 -0.481 19 20 22 0 0
0.6113 3.1845 1.1954 -0.910 0.226 -0.347 27 28 30 0 0
0.6341 3.1964 1.1940 -0.670 0.742 -0.024 33 34 36 0 0
0.6368 3.2213 1.1910 -0.756 0.637 0.149 44 44 44 0 0
0.6381 3.2338 1.1894 -0.918 0.113 0.381 47 47 47 0 0
0.6413 3.2462 1.1879 -0.947 -0.099 0.305 47 47 47 0 0
0.7417 3.2951 1.1821 -0.780 0.625 0.000 27 26 29 0 0
0.5670 3.5669 1.1479 -0.682 -0.569 -0.460 12 12 14 0 0
0.5580 3.5789 1.1464 -0.771 -0.464 -0.435 13 13 15 0 0
0.9106 2.1393 1.3392 -0.694 0.368 0.619 46 44 49 0 0
0.9158 2.1519 1.3377 -0.783 0.338 0.521 44 43 48 0 0
0.9182 2.1650 1.3361 -0.689 0.328 0.646 39 40 44 0 0
0.8795 2.2506 1.3253 -0.839 0.534 -0.103 12 10 15 0 0
0.9767 2.3444 1.3140 -0.200 0.844 0.497 44 42 47 0 0
1.0053 2.3542 1.3129 -0.161 0.845 0.509 75 71 76 0 0
1.0493 2.3622 1.3121 -0.144 0.830 0.538 94 92 95 0 0
1.0951 2.3702 1.3114 -0.145 0.835 0.531 91 89 91 0 0
1.1390 2.3785 1.3105 -0.121 0.829 0.546 112 110 111 0 0
0.8897 2.8812 1.2470 -0.878 -0.035 -0.478 61 62 63 0 0
1.0066 2.9402 1.2402 -0.589 0.807 0.040 20 21 23 0 0
0.5725 3.1499 1.2123 -0.926 0.253 -0.279 18 18 20 0 0
0.6068 3.1862 1.2079 -0.975 0.010 -0.221 31 31 33 0 0
0.6507 3.2102 1.2051 -0.774 0.598 0.206 44 44 45 0 0
0.6487 3.2353 1.2020 -0.834 -0.551 -0.006 47 47 47 0 0
0.6599 3.2601 1.1990 -0.804 0.587 0.098 45 43 43 0 0
0.8759 3.9555 1.1136 -0.485 0.083 -0.871 41 42 42 0 0
0.8637 3.9797 1.1105 -0.453 0.875 -0.172 81 83 80 0 0
0.9907 2.0067 1.3696 -0.832 -0.270 0.484 72 71 73 0 0
0.9431 2.1091 1.3566 -0.865 -0.089 0.494 54 54 56 0 0
0.8854 2.2514 1.3385 -0.618 0.772 -0.152 35 33 38 0 0
0.9911 2.3174 1.3310 -0.225 0.748 0.624 46 45 49 0 0
1.0141 2.3413 1.3281 -0.159 0.831 0.534 83 80 84 0 0
1.0469 2.3507 1.3271 -0.146 0.829 0.540 95 93 96 0 0
1.0905 2.3588 1.3264 -0.146 0.829 0.540 96 95 96 0 0
1.1370 2.3668 1.3257 -0.139 0.817 0.560 105 103 104 0 0
1.0510 2.7131 1.2821 -0.926 0.256 0.277 14 15 17 0 0
1.0542 2.7263 1.2805 -0.926 0.256 0.277 14 15 17 0 0
0.5768 3.1514 1.2247 -0.791 0.603 0.103 20 20 22 0 0
0.6689 3.1990 1.2194 -0.390 0.916 0.092 41 41 43 0 0
0.6456 3.2370 1.2145 -0.674 -0.714 -0.191 48 48 49 0 0
0.6507 3.2494 1.2130 -0.873 -0.469 -0.136 47 47 48 0 0
0.7571 3.3363 1.2028 -0.947 -0.012 -0.322 35 35 37 0 0
0.9311 3.4000 1.1960 -0.948 0.262 -0.178 23 23 25 0 0
0.8666 3.9441 1.1279 -0.953 0.094 0.290 55 55 55 0 0
0.8081 3.9523 1.1265 -0.429 0.873 -0.234 68 70 68 0 0
