ply
format ascii 1.0
element vertex 726
property float x
property float y
property float z
property uchar diffuse_red
property uchar diffuse_green
property uchar diffuse_blue
end_header
0.8263044444122583 2.3399341633504847 0.637030736101068 35 35 37
0.81460506607171 2.327140280674625 0.6407913524577189 32 32 34
0.8122953974855911 2.3119577048344895 0.6427802846003947 31 31 33
0.8109513960837269 2.296540524620467 0.6445859222943038 30 30 32
0.8037441150969298 2.2825884448566844 0.6475004732938433 30 30 32
0.8009671685695284 2.267534317359698 0.6495766300907463 31 31 33
0.5556019590101533 2.311846184158954 0.6976563783455467 33 33 35
0.591406471784948 2.287008500358122 0.6924497575439548 34 33 36
0.5705348371436144 2.275982188865139 0.6979967517848533 37 36 40
0.7093751565260852 2.2266455543566606 0.6731802757727426 40 40 41
0.6762641198158229 2.218691004076239 0.6810407688934068 46 46 50
0.7075609114375498 2.195432598091692 0.6766420823643724 58 58 59
0.6378081498399117 2.1959770765778153 0.69149726612025 79 79 79
0.4788772353407903 2.217041250810076 0.7233922998068223 141 141 141
0.38385894747027194 2.222816205577138 0.7431325557423452 172 172 172
0.28591338405475797 2.228950806786217 0.7634630612618205 171 171 171
0.14880147145561584 2.2436738376022913 0.7913190605380356 171 171 171
0.059783642431442185 2.2470845265953887 0.8100096378011217 171 171 171
-0.05033245821225074 2.2549328909046378 0.8327726667377787 171 171 171
1.8709331903951023 3.6165494814593537 0.3026740551413891 171 170 171
1.7570653881479514 3.651873688207096 0.32373379319661305 171 170 171
1.7594918163402853 3.635163519899404 0.3248491523178331 171 171 171
1.7243128948686839 3.6350951058879692 0.33243186551200243 169 169 169
1.6893921650259645 3.6347933920708213 0.339981843178699 148 148 149
1.643059755371318 3.639371945070727 0.34951104304558595 65 65 67
1.5964176701246564 3.6439234678157946 0.35910958301180435 43 43 45
1.572627419536581 3.6383893843868997 0.36477540942660897 42 42 44
1.5581793869830414 3.6287412374910226 0.36883258344317554 48 48 50
1.7760800186955588 3.51905265404924 0.33265779198004986 54 54 55
1.8026991455949686 3.492172144426371 0.3295599794530908 58 57 59
1.7699763109595132 3.4907221786234617 0.3367491761954159 62 61 63
1.8080028256288676 3.459117383010949 0.33165777677640396 70 69 70
1.7755167739667335 3.4574829747492783 0.33881405955801946 65 63 64
1.7815568004801983 3.439525681895223 0.3392734483122848 58 56 57
1.784195519577266 3.4230314442871053 0.3403219240107981 45 43 45
1.7741511256575184 3.4118520363035736 0.34358083803471207 31 29 33
1.7776484004912572 3.3950273709026835 0.3444768062698319 26 24 30
1.7929656515614016 3.3733459479631858 0.3433033186947809 25 23 29
1.7926299012466838 3.3581769787005786 0.34486246469250575 27 25 31
1.786641848169456 3.3453363040045425 0.3474106545000216 27 26 29
1.7826174390569052 3.3316875173219356 0.3496151708759739 32 31 33
1.7842525364042743 3.315742221187985 0.35082597654935743 35 35 36
1.78090926446091 3.301828458518174 0.35290977820382374 43 43 45
1.7231351831857356 3.3097961185814118 0.36457082048083644 46 45 49
1.729254873089692 3.291998577462426 0.36499739458122415 33 33 36
1.595563936750674 3.3299120338274273 0.3900723778289697 31 30 33
1.5723973972737846 3.3235347890325153 0.3956865294722593 29 29 31
1.5025403406386375 3.3355029354134893 0.4095575965576163 25 25 27
1.4451759670572442 3.3423201483086533 0.421243170778923 16 16 18
1.4281412234067574 3.333180830087078 0.4258075350567033 14 14 16
1.3783259487539143 3.336739439798163 0.4361867656743291 13 13 15
1.4950859405456598 3.27566770369016 0.41702791084003993 11 11 13
1.6948525735633175 3.183080923354968 0.38308209928242776 11 11 13
1.572216990264135 3.122144137782462 0.4154653960239963 12 12 14
1.598417956135972 3.097051099245613 0.41228243188731045 13 13 15
1.5608044022598608 3.0955785685531376 0.4205270883002362 14 14 16
1.5461264678280426 3.085574902708951 0.424668620610464 15 15 17
1.6120526396145778 3.046135771450153 0.41433676033840006 17 17 19
1.617525723830007 3.0288902420904815 0.41484847776024336 20 20 22
1.6701111495292165 2.994671541515006 0.40687793417669604 23 23 25
1.717918156582369 2.9623773733543044 0.3997478139999784 20 20 22
1.7230082413037993 2.9455376490373593 0.4003022364180118 19 19 21
1.6649933753818749 2.951164439503687 0.41224458180669943 20 20 22
1.585731999935471 2.964106651300889 0.42804545307246644 21 21 23
1.4988237280194057 2.979463020578772 0.44525650059532496 21 21 23
1.4773923953703392 2.9715991919019293 0.45064267703097516 20 20 22
1.425256858402767 2.9743616755620828 0.46159962618652883 16 16 18
1.4257058660533923 2.9587365111067117 0.4630344850814421 13 13 15
1.4057473330586154 2.9501583415259045 0.4681735032664023 14 14 16
1.3414130781179803 2.956728850638793 0.4813842678778746 16 16 18
1.2120049071800363 2.985260534373509 0.5064565175302466 17 17 19
1.1993193822516859 2.973762494475435 0.5103154479609642 18 18 20
1.183353382459735 2.9633396359003124 0.514775462097426 18 18 20
1.1737889137293651 2.9507267821066865 0.5180715253853183 18 18 20
1.6957319805654736 2.760792927212887 0.42428476015320515 18 18 20
1.671011173229915 2.7541337036623235 0.430261272534032 20 20 22
1.6399970642788142 2.7494755512051263 0.43739694591926337 22 22 24
1.6041945733788112 2.746290554773174 0.44541943162104347 25 25 27
1.6076122544121785 2.7301913663733397 0.446261430707673 26 26 28
1.5962992470890323 2.718899326689912 0.44980458879331076 28 28 30
1.4447682542989604 2.752831931320584 0.47911174033775206 30 30 32
1.4014556525019577 2.7515029563479114 0.48856965231240795 31 31 33
1.6773074557031769 2.6481825297151405 0.43929050541843634 31 31 33
1.2628817929001357 2.7649042994031117 0.5170988457497105 30 30 32
1.304966368082423 2.736113552176006 0.510857687983931 31 31 33
1.3777944628026624 2.697844082086201 0.4989248056840161 32 32 34
1.415896342215026 2.6706826607910896 0.49338164298206355 31 31 33
1.3970418571580105 2.6613361807564955 0.4983582059896141 30 30 32
1.383035077373167 2.6504418319789855 0.5024425042512446 31 31 33
1.3722216840847181 2.638532852217907 0.5059385387930104 32 32 34
1.366387960696213 2.625082049485268 0.5085132965585833 32 32 34
1.3669924589604103 2.609674260816599 0.5098933626940768 33 33 35
1.3458065138125899 2.600845977930949 0.5153212277303256 33 33 35
1.3405327926373947 2.5871924163218774 0.5177952595380092 35 35 37
1.336051894989358 2.57329852771837 0.5201221081896259 36 36 38
1.3341545335252631 2.5586387938419977 0.5219676427060874 37 37 39
1.3521449128432739 2.5381385577100044 0.5201027015536316 37 37 39
1.3750405412989541 2.516282931936023 0.5173142366954205 37 37 39
1.3935099980079602 2.4958087642145492 0.5153435679535364 38 38 40
1.3174184354862462 2.5027172143132033 0.5310532200133076 39 39 41
1.3925136011646875 2.4659856239379367 0.5184813686761459 39 39 41
1.3485965481879818 2.4634753525411037 0.5281852420400872 39 39 41
1.3325064897559797 2.4529371542932665 0.5326832784285245 41 41 43
1.315259175503073 2.4426822811289473 0.5374027662057752 41 41 43
1.2688871809169824 2.440532445934903 0.5475999976342478 40 40 42
0.9525669794707202 2.5133128125830835 0.6085877664353483 40 40 42
1.0016423108925956 2.484010756198972 0.6008912220502746 41 41 43
1.0300921830511869 2.460560111047305 0.5970629564794312 43 43 45
1.0881605368979768 2.429143000230613 0.5876370213015322 45 45 47
1.0624256207659772 2.420662623831025 0.5940104352618031 46 46 48
1.0678548773045362 2.403712909105754 0.5945025959418225 46 46 48
1.07101746545588 2.3874033004066866 0.5954201560113705 45 45 47
1.0612548476408132 2.3745551596982946 0.5987819544576034 44 44 46
1.065771614144614 2.3579164922399625 0.5994401373501126 43 43 45
1.0600896997982165 2.3439835084185803 0.6020294647400223 42 42 44
1.0407440821835943 2.3336056275097845 0.6072128927007899 41 41 43
1.0253752964041607 2.3221453221250217 0.6116459819593867 38 38 40
1.0104120021194531 2.310541631384161 0.6160058004337314 35 35 37
0.8902306017935157 2.3257675908402327 0.6403952130761621 32 32 34
0.7679927520337988 2.3411111851083475 0.6652159649604867 31 31 33
0.7731297686282697 2.3239624794828906 0.665790566189688 30 30 32
0.7672200783709837 2.309609584604121 0.66847010565209 29 29 31
0.770210960682928 2.293040103684552 0.6694501159721862 29 29 31
0.7664674471945111 2.2781569030207485 0.6717151351046458 30 30 32
0.5566124743582088 2.3137583136003643 0.7134191575631155 32 32 34
0.5817352872127778 2.2915016857805823 0.7101903598269431 34 34 36
0.5780451424642215 2.2763044634658653 0.7124746655967676 34 34 37
0.5562569700355187 2.265448351777954 0.7182309889470859 38 37 40
0.6932152799390805 2.2167478096391298 0.6935096899994695 43 43 48
0.6490024055167363 2.2113438435772133 0.703560906102454 50 49 54
0.550374004019944 2.218566485878114 0.7240932149562936 66 66 69
0.4887452324990106 2.216849147102738 0.7375336989170573 96 96 98
0.42720093673548415 2.214915280309128 0.7509772142364257 166 166 167
0.3557016615078066 2.2150687477113857 0.7663600010904672 171 171 171
0.2938603226064751 2.2127928265236307 0.7799010142304955 171 171 171
0.0917697460547251 2.242013375871063 0.8205583665437316 171 171 171
0.024499486595247366 2.2403211861159393 0.8352113162033705 171 171 171
-0.14077597924834295 2.2602257449150898 0.8688534369305846 171 171 171
1.509655370662043 3.797498321740699 0.37807468468738686 172 170 171
1.8038162945170293 3.649557183759004 0.32868040089483735 172 170 171
1.756952745326727 3.6548930055854214 0.33832818357838035 172 170 171
1.7512871737017908 3.641765048218713 0.3408381224740496 170 169 170
1.7171365772423086 3.6412279927902773 0.348300394801444 169 169 169
1.6804071555120135 3.641710636928039 0.3562227395484908 135 135 136
1.634937920836867 3.645899300152958 0.36567989471806805 61 61 63
1.589049669016071 3.6501119936092974 0.3752256226588969 50 50 52
1.5691734206387455 3.6428603990632236 0.38024570303859573 44 44 46
1.7773613614467931 3.5368747069079554 0.3454127641688536 47 47 49
1.7927535820808687 3.514746460937194 0.3442316386761707 53 53 54
1.7919701527203966 3.4996289041328192 0.3458763535990873 55 55 55
1.8001988015046801 3.480675991544532 0.3459397997993695 56 56 56
1.8087678672033944 3.461624885180668 0.34593896235314237 61 61 61
1.7678089534320494 3.4635777191158756 0.35463559001218575 71 69 70
1.7624779958844325 3.450382696897072 0.35707946769162047 71 69 70
1.766508305092365 3.4332571857631478 0.3578755911804198 65 63 64
1.7730305728135987 3.415121880681332 0.3582295240074731 52 50 53
1.7671971404767768 3.402160438500583 0.36075964107713293 33 31 37
1.7879335919347794 3.3782019000668946 0.35859748866676466 26 24 30
1.797275810599169 3.359028274627101 0.3584408469047352 26 24 30
1.7897168474802037 3.346831772448188 0.3612707433978546 24 22 26
1.794249867188896 3.329688655465174 0.3619595079078829 26 24 27
1.7920926736377916 3.3152942324402894 0.3638317553445427 30 30 31
1.7928307215251043 3.299736352625882 0.36518929906540276 35 35 35
1.732858905296144 3.3086195565270113 0.37733521988566965 32 32 34
1.6272736379266046 3.3355562473567577 0.3976170634969656 33 33 35
1.5869098855982742 3.3361177545595537 0.4063202799868988 32 32 34
1.5281657906023443 3.3438334536602166 0.41831370493322345 30 30 32
1.4525918788122834 3.3579879642306687 0.4333306963183603 25 25 27
1.4242174839648611 3.353329361116706 0.4399417278226473 15 15 17
1.3889832586083564 3.3512622692413663 0.44778837852940584 13 13 15
1.3673376584629766 3.3437905238192123 0.453213842819842 13 13 15
1.489093577006328 3.280714642859889 0.4329487506067257 11 11 13
1.7072345988117623 3.180959417353217 0.39534843881137594 11 11 13
1.5901781086555018 3.1180727974592 0.4268816015127168 12 12 14
1.5615876644997635 3.113297683229498 0.4335508764201199 13 13 15
1.5441573490884695 3.1043167841892183 0.438208941402518 14 14 16
1.5378819619308273 3.091194052414064 0.44085068627189955 15 15 17
1.5163314816078801 3.0836385311930963 0.4462636841737057 17 17 19
1.546198755782673 3.057345378652478 0.4423480997609255 20 20 22
1.6338939468623837 3.0102830070584696 0.4279112603522289 22 22 24
1.7188538098564348 2.9645418159001515 0.41393904113469215 18 18 20
1.7094780107910665 2.95286572198356 0.4171123823955283 17 17 19
1.7037317193189354 2.93987824758858 0.4196261313939905 19 19 21
1.5964945749585868 2.9628078126947974 0.4406572918777149 22 22 24
1.5065008250461447 2.9792864323160098 0.4585763329092818 23 23 25
1.4855986040514664 2.9712475208798708 0.46389582875005486 20 20 22
1.4332411336745134 2.9741076974441802 0.4749771651304187 15 15 17
1.4324896842177612 2.958902826736255 0.4766234586978076 13 13 15
1.413293713928471 2.950069762695654 0.48165020815303927 14 14 16
1.3559858639631845 2.954252871576121 0.4936766082917251 15 15 17
1.2528135245996908 2.9738884459043664 0.514147132265278 17 17 19
1.2796490137204313 2.9490473982483354 0.5107477205063367 18 18 20
1.2319591597312292 2.9494720510724313 0.5210538802722086 18 18 20
1.2037541516444623 2.943197342208162 0.5277858111358285 18 18 20
1.3019155507060742 2.8946450616592156 0.5112233906743676 18 18 20
1.320691866045657 2.8728245973158852 0.5092779713048985 19 19 21
1.6067237228087068 2.7628282961064277 0.4579459579152103 21 21 23
1.5567478373991825 2.7642383226970297 0.468652009178208 23 23 25
1.5340988833274947 2.7565562236501675 0.47431569800114304 26 26 28
1.5762541301146875 2.727757544844122 0.4679783263737597 28 28 30
1.441199290977438 2.7563649611082806 0.4944913985511775 28 28 30
1.4080170589223289 2.7517778416203345 0.5021386452062822 29 29 31
1.705734830598387 2.641398214286568 0.44830845484678117 30 30 32
1.3054749649613775 2.7537779577784285 0.5241927728550327 29 29 31
1.3953051349783092 2.709964393583827 0.5089757692529375 29 29 31
1.4287938298286278 2.6841794747371193 0.504224842518476 30 30 32
1.4151088154055076 2.6732568741955363 0.5082596790651259 31 31 33
1.4009793481984945 2.662437548144331 0.5123808769856285 29 29 31
1.3799741615223995 2.6537038924724756 0.5177904867984224 30 30 32
1.3702596028994616 2.6414452771530224 0.5210941563758742 31 31 33
1.3482352359039238 2.6329211636043084 0.5267044635328517 31 31 33
1.3551788498855621 2.615548561762543 0.5268925717830154 32 32 34
1.350349243555041 2.6017643019576644 0.5292851485225616 32 32 34
1.3253770823306006 2.5940132922977175 0.5354596413431845 34 34 36
1.3338929065218517 2.5762121599800567 0.5353484201523869 35 35 37
1.3256324537182749 2.5634233077370197 0.5383883077248467 36 36 38
1.3290658809358122 2.54717771394633 0.539228104072089 35 35 37
1.355992306666753 2.5240860258128452 0.5356383098539916 36 36 38
1.3789929132839092 2.5022458950461886 0.5327782363702092 37 37 39
1.2904912808098643 2.512725005250249 0.5509587794098982 38 38 40
1.3925940531731307 2.468159319413695 0.533152277641758 38 38 40
1.3877121944187756 2.454508273072152 0.5355431968638298 39 39 41
1.3140651919775812 2.4603612992253296 0.5509519099563439 40 40 42
1.2977645547488708 2.4498015873203363 0.5555188755290261 40 40 42
1.2698762111828432 2.4424448007397417 0.5622876550797876 41 41 43
1.2622391201756142 2.429366368048192 0.565220536485826 41 41 43
1.0627191206028408 2.469353116138205 0.6046109811193705 42 42 44
1.0553027888668227 2.4558508303026847 0.6075373101104277 44 44 46
1.085042619525399 2.43218993774102 0.6033925990238618 45 45 47
1.0900960204079648 2.415346560488718 0.6039392131314927 45 45 47
1.069246171699171 2.4055184775060443 0.6094218804394972 46 46 48
1.056702855088468 2.393407046797656 0.6133249664917432 45 45 47
1.0489524874095824 2.3799909042942557 0.6163153701372738 44 44 46
1.0478102117271628 2.3648154974030677 0.6180435896540752 43 43 45
1.048874094950568 2.34907135080377 0.6193486051788384 40 40 42
1.0652991661139506 2.3293388985349117 0.6177096637554805 38 38 40
1.0079167379864338 2.3288000234861514 0.6302128786996013 35 35 37
1.0246266491336533 2.3090091110477937 0.6285178364830277 33 33 35
1.016991322983517 2.295513306120967 0.6314910499318772 33 33 35
0.7920218383195005 2.337174669142405 0.6762400787506423 31 31 33
0.7617094942976977 2.328993448064342 0.6836152340161766 30 30 32
0.7380476943447991 2.3190565640766985 0.6897186427174219 28 28 30
0.7372777454224799 2.3033607169966555 0.6914168453514878 28 28 30
0.6917584937253842 2.2987254296373028 0.7017456360661324 29 29 31
0.5724615657448073 2.312034596348423 0.7263319651550161 31 31 33
0.5983288178171021 2.2896081718404364 0.7229070899265843 33 33 35
0.5748982016393918 2.2792015768928797 0.7290061578033015 34 34 36
0.5547103786105592 2.2679507922573436 0.7344839666108601 36 35 40
0.5716699547598683 2.2477951641681986 0.7327703312035676 39 38 44
0.6598786019876652 2.210861405708949 0.7172340299652079 44 43 49
0.5642014379835907 2.2174220316008015 0.7373537469230491 54 53 58
0.5006811875270907 2.216173036977664 0.7512579987203433 74 74 77
0.4370716242493152 2.2147410546755006 0.7651994799005708 123 123 125
0.3889650185325315 2.2095454241412416 0.7761443279325454 171 171 171
0.33869734062187684 2.2046921961363535 0.7875246765547306 171 171 171
0.340237003817664 2.1879628733567693 0.7888225636105176 171 171 171
0.23018905221850638 2.1963037258212976 0.8118867435404538 171 171 171
-0.05413185721610647 2.2431058998343634 0.8690121559606632 171 171 171
-0.12575529736849234 2.241931396202386 0.8846673440960693 171 171 171
-0.03580812619770324 2.2050871047765295 0.8687450961725027 171 171 171
1.512612694102231 3.799252234606124 0.3926070238317577 172 170 171
1.7766686656543866 3.664696135610092 0.34794782280638475 172 170 171
1.7478072947789598 3.661948734343634 0.35452360027768204 170 168 169
1.7379818620886403 3.6506435188567634 0.357768963908216 165 164 165
1.7034804216875443 3.6502376679585082 0.3653503286454156 162 162 162
1.6676078293567804 3.6503188528338564 0.373184142509641 108 108 110
1.629197877698237 3.6513910363252964 0.3814764107349814 51 51 53
1.5907226164336488 3.6523598935801544 0.3897929867130065 52 51 54
1.5686819617765921 3.6460489626116517 0.3952237221138589 44 44 47
1.7904078588375105 3.53411499398288 0.35762159957767925 39 39 42
1.8169431906804292 3.507191707327578 0.35443479542929035 49 48 51
1.7997053118902837 3.4991720522039667 0.3589815383640683 52 52 54
1.800316756940104 3.483475026576533 0.3603717839150722 53 53 54
1.8100565177658265 3.4639125174526244 0.36014186398389214 52 52 54
1.7886470497757325 3.4575929515596857 0.36543546121528403 57 55 58
1.749981996341941 3.4584813067510893 0.37380134082188143 63 61 63
1.7585812605437208 3.439402583261856 0.37377376464150985 68 66 68
1.7634033617831237 3.421949629582737 0.3744140368823803 68 66 69
1.7654554621214122 3.4056820258068154 0.3755447504780099 61 59 63
1.7698673610494502 3.38846038321 0.3762522360771724 39 37 41
1.7816670419563978 3.368226165607319 0.3756372318106666 28 26 30
1.7935913883244254 3.3480004785075614 0.3749941476966382 26 24 28
1.7940406682016279 3.3325200360152682 0.37639881588113877 22 20 25
1.7972655333742282 3.3159282015483194 0.3773046419497753 20 19 22
1.7992840342198688 3.299851431984116 0.378424173681812 27 27 29
1.7490094619429386 3.3048520734055176 0.3889286458551686 30 30 32
1.6244664522040253 3.339441311967496 0.4127955532789312 31 31 33
1.5835929779151439 3.3402037003752056 0.4216564195806326 31 31 33
1.524152391132885 3.3481985275857298 0.43387388588452497 30 30 32
1.423974429778247 3.3720811496369145 0.45345405498355573 22 22 24
1.3965618994125772 3.3669892120249614 0.45994073152362935 14 14 16
1.371558183314447 3.3608672403202 0.46600084312393497 12 12 14
1.3782418412701851 3.3423251765228277 0.46633991536270797 12 12 14
1.47257592201008 3.2898485313174293 0.45081318923038355 11 11 13
1.5956146813691605 3.1186614141590927 0.44053637262211753 12 12 14
1.5583881633954542 3.11709785696112 0.44882582830113615 13 13 15
1.497396320321896 3.1241810414247895 0.4614709014896553 14 14 16
1.5062861198589843 3.1053952225513566 0.46135137880261906 15 15 17
1.5033566999136234 3.090975020243523 0.46339169498819055 17 17 19
1.5456232068162592 3.0601315525819484 0.4571466602793964 20 20 22
1.6337399833901192 3.0128783610432275 0.4424719216648372 21 21 23
1.7134776782473586 2.9689795003879373 0.42930319105291237 19 19 21
1.7031614215345272 2.9576229354858543 0.4326608332167602 18 18 20
1.701835199407352 2.9430415428863674 0.4343663414932619 19 19 21
1.6174568260873652 2.957892045501442 0.4513696048332388 22 22 24
1.5206087632492027 2.9768417870561166 0.47070075943776557 22 22 24
1.4875007268641065 2.9731040489085627 0.47830099607583054 20 20 22
1.4654724562892336 2.965395530419991 0.48386470562882133 16 16 18
1.428439574648624 2.9628266547248407 0.49220943152821145 12 12 14
1.4271831508066475 2.9477906736788504 0.49394381458712744 14 14 16
1.4152504137129227 2.9364298214018016 0.49765523319456983 16 16 18
1.3030021978679895 2.9592925443396747 0.5199729563869615 17 17 19
1.3031144525710021 2.94360052771271 0.5214718379213249 17 17 19
1.2849120370155003 2.9341106135493935 0.5263721635900283 17 17 19
1.2055149168915795 2.945129566884046 0.5426585087602912 16 16 18
1.3146520287644292 2.892873971423626 0.5238744019083466 16 16 18
1.3119649834125517 2.8781941393400974 0.5258869408755431 17 17 19
1.2471474247100267 2.884055353771629 0.5394869417370552 19 19 21
1.534621253336766 2.773892871411025 0.4873404385248962 22 22 24
1.5102287084500727 2.7667371678610477 0.49336730627918474 25 25 27
1.4458805222145243 2.772496920913221 0.5068745531399876 28 28 30
1.4388219391341983 2.7595175554993077 0.5096776182129464 28 28 30
1.4133429116601435 2.7524490220221125 0.515933526761078 28 28 30
1.7120190597869194 2.6416792375957012 0.4613971715203464 28 28 30
1.3358645527807345 2.7465098268081283 0.5334467730699051 28 28 30
1.410375368538479 2.707557903653624 0.5209403694061182 28 28 30
1.4295984445160403 2.6862640798754334 0.5188054912032244 29 29 31
1.4369331527905274 2.6687686734542275 0.5189006326901223 26 26 28
1.4215279468074815 2.658378805252907 0.5232768622840105 27 27 29
1.4014665847790018 2.649386272528598 0.5285352638605635 30 30 32
1.3912806940853102 2.63730360739203 0.5319348998338705 31 31 33
1.3696095079580193 2.6287053235235427 0.5375069319059367 31 31 33
1.3560910256267258 2.617569524988992 0.5415431432905663 31 31 33
1.3358859976533635 2.60841731374333 0.5468484520201312 32 32 34
1.341149594925698 2.591568507996358 0.5473335616895779 33 33 35
1.3338890644816288 2.578487019716925 0.550190686500187 33 33 35
1.3299499564572643 2.564409737953574 0.5524184274180878 33 33 35
1.3109683949794546 2.5547641499736797 0.5575041864338782 34 34 36
1.334999969973259 2.5324709449146843 0.5544151999114666 35 35 37
1.3518306571808236 2.5123732785935884 0.5526871683869761 36 36 38
1.2849771988197563 2.5165556003452063 0.5668952049982822 36 36 38
1.3964655940688844 2.4692456595128167 0.5471169745579337 37 37 39
1.3815082543004054 2.4584716180454467 0.5514325977634953 38 38 40
1.29349129424889 2.4684029635028177 0.5697088148559117 40 40 42
1.2637909307380346 2.461582163530069 0.5768634506140947 41 41 43
1.2453057847632867 2.451525993556647 0.5818805542644335 41 41 43
1.261285529538018 2.4318158976696123 0.580300911186368 42 42 44
1.1737725472960494 2.440830354052913 0.5985559733628436 42 42 44
1.067618889991548 2.454678797219698 0.6204165639346142 44 44 46
1.0832448814088476 2.4348800998884994 0.6189228524659113 44 44 46
1.08197322266248 2.4197401481921235 0.6206706595832815 45 45 47
1.0964490949386034 2.4003611860896927 0.6193876135070892 46 46 48
1.0375406125347792 2.400719857352265 0.6322300997129737 45 45 47
1.0531883892149516 2.3810307516330638 0.6307209865901438 43 43 45
1.0612216737410602 2.3634256061029943 0.6306740740915473 40 40 42
1.0533756179163232 2.3500364368671836 0.6336890643194774 37 37 39
0.9871961339102794 2.351863083801107 0.6479784659428454 35 35 37
1.0345071568945385 2.3240429630764714 0.640337193411066 33 33 35
1.0126769983910575 2.3142113584534902 0.6460637104742931 33 33 35
1.013046477662263 2.298638840033103 0.6474947619144784 32 32 34
0.8595791793244585 2.3221694274191287 0.6787580774720849 31 31 33
0.8258929214499111 2.3149543040815597 0.6868223057273891 29 29 31
0.703723169199632 2.3298108658657957 0.7120861202288288 27 27 29
0.6963044290505576 2.3157000928621567 0.7150777549833544 27 27 29
0.6805385985658396 2.303641284155763 0.7196948414796399 27 27 29
0.5900564112966387 2.309877600827729 0.7388686762285479 30 30 32
0.6002808426834252 2.291277003287575 0.7384394232474487 32 32 34
0.5908170367531469 2.277490013848617 0.7418466726307391 34 34 36
0.5595988235860709 2.268910683792944 0.7495038305747129 35 34 39
0.569886256483869 2.250340562188872 0.7490578468765733 37 36 42
0.6161686113083024 2.2232994005044864 0.7415658163862219 40 39 45
0.5800172169756541 2.215806440422123 0.7501958929027184 48 47 52
0.518777382405734 2.214056811677568 0.7637526882764685 62 62 65
0.456783399612236 2.212285881404236 0.777476407339439 82 82 83
0.3860327791811704 2.2123294371855713 0.7929381595592514 143 143 143
0.3765956917167872 2.1981571067155565 0.7963769781971871 171 171 171
0.346675496473442 2.1886053132291403 0.8038448005312151 171 171 171
0.27059340783180386 2.1893387816351666 0.8204050253526494 171 171 171
0.2257918490005265 2.1828514503114165 0.8308283860462828 171 171 171
0.03285916446562498 2.2090040767622385 0.870464222396631 171 171 171
-0.034040068014496216 2.2068392414312856 0.8852984630568748 171 171 171
-0.0899738391427144 2.202072473791346 0.8979882722244363 171 171 171
1.5224189147349667 3.797921015632448 0.4059368342653173 172 170 171
1.7543244009095744 3.6777031061494125 0.3664808427976195 170 168 169
1.7083889069553022 3.6825413589334937 0.37612940879036144 166 164 165
1.6974374314843526 3.671653808574746 0.3795930523306454 170 169 169
1.6761757684042813 3.6653067084424804 0.384888556306209 150 150 150
1.6556267106436284 3.6585790471570627 0.39006389633955485 69 69 71
1.620400608393723 3.6582329959552795 0.39785489350231634 54 54 56
1.5806562228347558 3.6597426660593473 0.4064616279586926 48 47 52
1.5779344948964904 3.645000028710844 0.4084853542766713 42 41 46
1.8034278957551857 3.5313609120310834 0.3698058432601271 36 35 40
1.8251735297775178 3.5065089375820064 0.36741801861411877 37 36 40
1.8135712966659656 3.4960796993154584 0.3709806940632723 42 41 46
1.8328268907770802 3.472425406123209 0.3690255185602477 45 44 49
1.8232361824677912 3.4611403393429208 0.3722278967522472 42 42 46
1.7886541922425234 3.460425544779159 0.3799126719439835 44 42 46
1.7720421380395823 3.45201230527899 0.38438384712581175 45 43 47
1.751207153417073 3.445324628800002 0.38961829147082344 48 46 50
1.7581660443981257 3.426951946429217 0.3898608445660431 57 55 59
1.7647663257479234 3.408770083360641 0.3901639356300179 64 62 65
1.7737602489736193 3.3896366414115664 0.3900318296425259 66 64 67
1.7832747281376602 3.3703376678278887 0.3898010784042598 49 48 51
1.796220103683634 3.349681280368494 0.38894591306975346 29 26 32
1.796169644193285 3.334399383211433 0.3904334671458385 25 23 28
1.795300565693642 3.3194651998639033 0.392067705220333 20 19 23
1.7605670455865179 3.3182528495427785 0.399833921371052 22 22 24
1.7686459508221073 3.299672279794349 0.39984990743470983 25 25 27
1.7733167120254856 3.2825040484805306 0.40047999055688344 26 26 28
1.647009731384449 3.317654918962284 0.42489951228934825 26 26 28
1.5265242645579546 3.350032561473595 0.44830494044002484 25 25 27
1.401115161934961 3.3839195529015185 0.4726488377774823 18 18 20
1.3756231615412782 3.378027080811445 0.47883203190451046 14 14 16
1.3422637022700188 3.3751360976143108 0.48645782864479253 12 12 14
1.3508578581855812 3.3557813919909303 0.48643513734604066 12 12 14
1.6125020448919678 3.238304739216136 0.4401651856298245 11 11 13
1.6119028159432438 3.115201644441915 0.4521906038363089 12 12 14
1.5540221265294716 3.121336132817376 0.46434453084214206 13 13 15
1.4904950969357371 3.1293562569663074 0.477559727969292 14 14 16
1.4951068068038398 3.112116548599888 0.4782097211644961 15 15 17
1.5005804260232025 3.0945937767528298 0.47869725076180103 17 17 19
1.544119079277789 3.0632589237999057 0.4721364584866553 20 20 22
1.6330461484583194 3.0156722049442304 0.45715029111236144 22 22 24
1.70025556558669 2.976248689620493 0.4461581513081843 21 21 23
1.7474859592237553 2.944244961702422 0.43884897899683994 18 18 20
1.7311704039699554 2.9350777759319318 0.4433277001731949 18 18 20
1.6096801541751107 2.963156367225471 0.4673697512419834 21 21 23
1.5607613930984239 2.965204891906311 0.4779448245504795 23 23 25
1.4973835270292926 2.972162040264089 0.49122987068768686 20 20 22
1.4731105658737609 2.965251507358325 0.49724296421479036 17 17 19
1.4508405264661763 2.9575713464736544 0.502889326907711 14 14 16
1.448594830080199 2.9429081316189385 0.5048005472825055 14 14 16
1.4391550606589827 2.930723177710999 0.5080566268988519 16 16 18
1.3744344748485613 2.9374102434714238 0.5216634632066242 17 17 19
1.369864295304298 2.9234298033459147 0.5240206205434844 17 17 19
1.3095907393304302 2.928280463875119 0.5368255449433086 17 17 19
1.273701523656362 2.9247266755390284 0.5450724858884693 15 15 17
1.3008482663812684 2.899974808501639 0.5414855463489003 15 15 17
1.3335402678528483 2.8734921283513075 0.5368446390449438 16 16 18
1.2909125544172553 2.8720601149823115 0.5463705529752173 17 17 19
1.480177251729749 2.7941953453052584 0.512213105966 19 19 21
1.4886340043610944 2.7761899933314074 0.5120903077469635 22 22 24
1.473914224992324 2.7657709499485006 0.5163385506044237 25 25 27
1.4492154310829433 2.758542047811233 0.5224761807397963 26 26 28
1.4162465845680348 2.753899347916387 0.5301851959089487 26 26 28
1.386214927448071 2.7482123493119017 0.5373482708997751 27 27 29
1.3525399933281077 2.7435906724879415 0.5452107509984816 28 28 30
1.4159902229887311 2.708136965650045 0.5346629289138947 28 28 30
1.420903791629562 2.691338921097747 0.5352037753478301 28 28 30
1.4335917666942826 2.6721416623328724 0.5342643233381394 24 24 26
1.4079620821178915 2.6649193661512722 0.5406063178823143 27 27 29
1.3744680223156471 2.6600507765244923 0.5484528206492228 30 30 32
1.3722429079449032 2.645465674438131 0.5503519616412983 30 30 32
1.3589432064129259 2.634271142140348 0.5543623949827221 30 30 32
1.3446684563861877 2.6233396747413567 0.5585621397927324 30 30 32
1.3389974359486143 2.609773412957278 0.5611217112156583 31 31 33
1.338723644052139 2.594581132602022 0.5626497897906483 32 32 34
1.345935129562866 2.577168647569668 0.5627439477147327 32 32 34
1.3411192342415117 2.5633640584681854 0.5651382274481501 32 32 34
1.28525815683621 2.5646073642455085 0.5773199470103066 33 33 35
1.3504213441562234 2.5301977749639972 0.566294017768231 33 33 35
1.3462110050770604 2.516242305742433 0.5685695177730239 34 34 36
1.3368308997442664 2.503782955224148 0.5718389685350962 35 35 37
1.3487514790550361 2.485175653532739 0.5710115159980188 36 36 38
1.3730697531921443 2.4630797030068177 0.5677908694387492 37 37 39
1.3831748222998281 2.445123522793255 0.5673003249449665 39 39 41
1.1803051140699163 2.487365946944632 0.6078955044177213 39 39 41
1.1722731909571538 2.4742232573790215 0.6109340757160027 39 39 41
1.150951861071821 2.4647729358439863 0.6165425335733422 40 40 42
1.1323339736506968 2.454512681391308 0.6216338845125682 41 41 43
1.0990190460307825 2.4482482166153563 0.6295757991947196 41 41 43
1.1025264698636024 2.431806513954077 0.6303918821613256 41 41 43
1.0848757325184717 2.421143250130005 0.6353091816016925 41 41 43
1.0967365799052438 2.402462114050992 0.634502016769313 41 41 43
1.141831220001083 2.3749199989366727 0.6272321311858677 40 40 42
1.1038767102889095 2.369688532811795 0.6360959821683116 38 38 40
1.0581198049571516 2.3664045160616656 0.6464899421386782 36 36 38
1.0664155193766034 2.3487557233332756 0.6463681595470715 34 34 36
0.929137952928083 2.3691897179243515 0.6746254989350903 34 34 36
1.0030890187679482 2.334332088996556 0.6617075720221589 32 32 34
0.9929507137348329 2.3214266774557077 0.6651870907031928 32 32 34
1.0226186133653263 2.2983074654108373 0.6608871999012689 31 31 33
0.8399814088878197 2.329299892541289 0.698113640955522 30 30 32
0.7080647143688232 2.346859483433942 0.7254681052232143 28 28 30
0.6798145837252951 2.3379710943847876 0.7325481472501071 26 26 28
0.6851532356392933 2.3206324799187166 0.7330476074818737 26 26 28
0.6711017835223532 2.308123763758397 0.7373505611303247 26 26 28
0.608291182633604 2.3075577221012002 0.7512375267691211 28 28 30
0.591575178338047 2.2955467059011427 0.7560791888428494 30 30 32
0.5815940336334503 2.2818618963016517 0.7595993979460771 32 32 34
0.5668825437173468 2.2692948837508227 0.7640533386948667 34 33 38
0.5295708490627755 2.2620866708427534 0.7729666086089 36 35 41
0.5431630692605344 2.2427018099028975 0.7718461468522064 39 38 44
0.5819007837463719 2.217463593478976 0.7657536079984 44 43 48
0.5410955651425949 2.210948937108708 0.7753692217428125 51 51 54
0.49295737745843043 2.20600839756019 0.7864476354759209 67 67 69
0.42742024999520084 2.20492022968035 0.8009854869255515 88 88 89
0.37311747350627433 2.2010562722653924 0.8133174662726045 131 131 131
0.35321915727677733 2.189223472466609 0.8188427253904097 169 169 169
0.3071611744259253 2.1832214650319566 0.8295655846065089 171 171 171
0.2735106975569107 2.174307255783516 0.83783739644463 171 171 171
0.13332440521414024 2.1888900992525873 0.8673006031645247 171 171 171
0.06770319006722458 2.186620218903156 0.8819711422783059 171 171 171
0.0012542446845903443 2.184321909766107 0.8968267124398227 171 171 171
-0.06603648400214979 2.1819942608067064 0.9118704964628703 171 171 171
-0.08333266712068221 2.168720864363065 0.916961890018185 171 171 171
1.5187571949086807 3.8188454097492683 0.4200972517531417 171 171 171
1.5309746391278805 3.7971503239761377 0.41947271062695685 170 170 172
1.7342684458287443 3.689702394913201 0.3847030830846185 171 171 171
1.7182643846632355 3.681122830569744 0.3890784178363914 170 170 168
1.6939672046276184 3.676189647407329 0.3949429780666732 168 168 167
1.6699048887832424 3.6710742400363574 0.40077295420118275 129 129 129
1.6295739814261068 3.673062841580503 0.40952905998450057 53 54 56
1.6081226961749118 3.6666145915634814 0.4149079318670337 50 51 53
1.5852610083371699 3.6607166919638 0.4205467844149687 47 49 49
1.5855596968520544 3.644656983150229 0.42202457501548396 43 43 44
1.544530557337856 3.6465391101803117 0.43094581859694014 39 38 41
1.8464445599304746 3.5001926268801116 0.3780374611590993 35 34 37
1.8432906953535397 3.486165590913936 0.3800857605504818 33 33 35
1.804260371949479 3.487496265492872 0.38861659152619465 34 34 36
1.8224827235166665 3.4642988811652446 0.38680431634540957 35 35 37
1.7679643011100736 3.4720405858949888 0.39815475303484454 35 33 35
1.7679947407621128 3.456555555930292 0.399636801644195 35 33 36
1.7604892715617237 3.444253594365615 0.4024846358154293 35 33 38
1.7643386935540326 3.427186684687755 0.4032715430172922 38 36 40
1.761428059902153 3.4129654842710604 0.40528455016583975 45 45 47
1.7630975608566437 3.3968491455095986 0.40646367452168075 61 61 63
1.7853973717458005 3.372238833196395 0.403882671746413 67 68 70
1.8020691064149046 3.3500404797048198 0.4023183451976625 56 57 59
1.8046575286323856 3.33367994386288 0.40331708766427465 32 33 35
1.7282634909412629 3.349496500617525 0.41874421525395555 26 24 27
1.7234700178222913 3.336027268252903 0.4211026274278707 21 20 23
1.7316623585053383 3.317317728553389 0.42108400022024584 22 22 24
1.739312524911477 3.2988717480222807 0.42116031307679747 22 22 24
1.6066106277351615 3.336545284875778 0.4469777518750093 21 21 23
1.5378769720700747 3.3482970620850456 0.4610962516170003 20 20 22
1.3863381857250199 3.392577670554199 0.49045736754103514 17 17 19
1.3558945687563635 3.3886054243012937 0.49759310875166995 13 13 15
1.319279623750163 3.386953735079706 0.5058748328714201 12 12 14
1.3481002130383404 3.3596510123996683 0.5021060742808374 12 12 14
1.6042401064425722 3.244210188657937 0.45638116359856457 11 11 13
1.584682419052153 3.127978783679086 0.47189500041430077 12 12 14
1.5607848401832942 3.1214459481744674 0.47782470813108713 13 13 15
1.489365170358023 3.1324055865025744 0.4926152524567924 14 14 16
1.4721647794309796 3.1231741574012375 0.49731866287844884 15 15 17
1.497813277756861 3.0982139983642636 0.49402839902194745 18 18 20
1.5640333998441027 3.0585920395449966 0.483147086327234 22 22 24
1.598874991841177 3.030596374574621 0.4781092077605312 23 23 25
1.6609987454610824 2.9929117765329747 0.4679503962355803 21 21 23
1.73866774219898 2.949897263485467 0.4548553583829922 18 18 20
1.7263391776139982 2.939286571877239 0.45861057635493574 17 17 19
1.6393139877813403 2.9551525167215043 0.4763914469241103 20 20 22
1.581761000630925 2.960308300384447 0.4886637155881286 22 22 24
1.5263884034623947 2.964501497448634 0.5005448183068625 21 21 23
1.5145705774126954 2.9532898944616646 0.5042445047295079 18 18 20
1.4864799726944757 2.9477049128215267 0.5110132925035376 15 15 17
1.4832033156924904 2.933453753632143 0.5131103812821901 15 15 17
1.4659705247699801 2.9240043920132845 0.5178419325806234 16 16 18
1.4170516581317913 2.9253445567311687 0.5285655967975228 17 17 19
1.3844158452824125 2.920981160144312 0.5362252775155693 17 17 19
1.363784257297922 2.912451459300929 0.5416224220480017 17 17 19
1.3470517551413201 2.9025491310720395 0.5462865359629516 15 15 17
1.3259405182247748 2.894066488168857 0.5517855649043173 14 14 16
1.3489706358634785 2.870826321963482 0.5489108135091364 14 14 16
1.3453365005926938 2.8565134215713273 0.5510931439236012 15 15 17
1.4963559322994715 2.7912766300029297 0.5238620686052571 17 17 19
1.4562587548493782 2.7891882828054455 0.5329582985495134 20 20 22
1.4708908603570925 2.769145932412097 0.5316391700343859 22 22 24
1.4586121874906315 2.757886242282378 0.5354457173524323 25 25 27
1.4279079494344113 2.752530482248112 0.5427722939614218 26 26 28
1.413013801375878 2.7420153622375665 0.5470874907629383 26 26 28
1.3854876180667686 2.735483450947729 0.5538221053703956 26 26 28
1.417502701483852 2.7100145667938103 0.5491683435714787 28 28 30
1.4140651563883253 2.6958369919684557 0.551294050186711 26 26 28
1.4142578543563946 2.680525232751846 0.5527234432006293 22 22 24
1.3966652435334077 2.6707639101768637 0.557564812890127 25 25 27
1.366046431151762 2.6649845291575933 0.5649131669098961 27 27 29
1.3725212736772838 2.647698534945272 0.5651386956961191 28 28 30
1.3612528940781516 2.6358768725640735 0.5687751428587174 28 28 30
1.3431662125881245 2.626102425830397 0.5737273825608025 29 29 31
1.3228205894431164 2.6169605188040324 0.5791199468939535 30 30 32
1.3340976478455084 2.59825875362851 0.5784162362073889 29 29 31
1.2971572437168966 2.594013486654653 0.5870195209434489 30 30 32
1.2681489231291079 2.5872958322398008 0.5941008017549341 31 31 33
1.2702930476331358 2.571295758607456 0.5951634539424872 32 32 34
1.2927822821240809 2.549350029856159 0.5922842428276845 32 32 34
1.2958986138275308 2.5331471045879694 0.5931507166499754 32 32 34
1.3618914763885808 2.498749801654462 0.581817498547554 34 34 36
1.330960119390571 2.492515306804893 0.5892789464404542 35 35 37
1.3648103844861526 2.4676434181814226 0.5841606568385346 35 35 37
1.3355791736369873 2.4608493828207005 0.5912987288445333 35 35 37
1.3823772718132348 2.432474307316894 0.5836448110772327 37 37 39
1.162617028235008 2.4791574002845924 0.6279096806890447 37 37 39
1.1516995474259943 2.4667813521343365 0.6315215831180941 37 37 39
1.152734621692382 2.4510659789227227 0.6328029026000025 37 37 39
1.0935228648448811 2.4519733156259855 0.6458516297929815 38 38 40
1.1065642596687753 2.432900244010653 0.6447922051029982 38 38 40
1.1114660166391805 2.416102388198923 0.6453197866639659 38 38 40
1.1038057128992391 2.402732172773768 0.6483046772538655 38 38 40
1.109899039268966 2.3856558167421866 0.6485946887595428 37 37 39
1.0972348508892213 2.3736200658973696 0.6525613756406782 36 36 38
1.0041974801975333 2.3828575759451214 0.6723133197415236 35 35 37
0.9594004039878629 2.3790816651469204 0.68261445916214 34 34 36
0.886668954066151 2.382469660696118 0.6984239905801364 34 34 36
0.9602890005540368 2.347595837377742 0.6854445178983072 32 32 34
0.9399430370612658 2.337242205933615 0.69095365846083 31 31 33
0.8933202358967507 2.3335670021426607 0.7016501474256598 30 30 32
0.7655355484347558 2.3504042213864493 0.7283800158133978 30 30 32
0.6984937848631998 2.3514538458092638 0.7431521279124036 28 28 30
0.6480403739583589 2.348119932647471 0.7546656136960331 26 26 28
0.6730914285927446 2.3257996183378227 0.7512540843134384 25 25 27
0.6712981791761048 2.310227977731045 0.7531490403863619 25 25 27
0.6341804799844333 2.3033499064931666 0.7620447873725948 25 25 27
0.6083597889164588 2.293600131600038 0.7687104234104821 28 28 30
0.5923927060531415 2.28138743168559 0.7734268608897381 32 30 33
0.5773472586689086 2.2689126559405057 0.7779640332832757 33 33 38
0.5332434408283027 2.2633436789898296 0.7882837688489697 35 36 40
0.5003067305777378 2.254988433791195 0.7963939973859142 37 38 43
0.48466917810960375 2.2424610538816987 0.8010675842415078 41 42 47
0.5685691949288332 2.2066283633136354 0.7858997187663851 45 46 51
0.4863561963554796 2.209641890654929 0.8038487083259606 53 54 59
0.43148640923618775 2.2060900707491307 0.8163629053742574 70 68 73
0.38544860247965385 2.200345699767644 0.8271285541570315 90 88 91
0.3708622804430166 2.187323120724677 0.8316165391889961 108 106 107
0.35499820125724235 2.17455331494559 0.8363636882946952 151 150 151
0.3208152759033511 2.165837176909128 0.8447850840547206 172 172 172
0.2321384332344305 2.169100985946935 0.8641439961266322 170 170 170
0.29877194114379424 2.137908153723564 0.8523605601837079 171 171 171
0.258949449944043 2.130196773241426 0.8619364758735977 171 171 171
0.22983390938820814 2.1200455754164826 0.8693716596929555 171 171 171
0.23654236662188033 2.102112680884464 0.8696075576630398 171 171 171
0.20812108462684542 2.0917063756200798 0.876913249357237 171 171 171
0.2053763904233019 2.075788883076077 0.8790525325818347 171 171 171
1.5290405205972302 3.817288179335981 0.43333947860711536 170 170 170
1.5167614709733974 3.8066554026303847 0.437100817056778 170 170 172
1.7320679437272244 3.693694273382387 0.39979295467614784 171 171 171
1.7060229473231359 3.689599222035898 0.4060051286271882 171 171 170
1.6808768653513517 3.6850186028805028 0.4120628751905595 159 159 158
1.653400201630249 3.681390660500211 0.4185502990124723 88 88 88
1.627690320075197 3.676891950170163 0.4247262035246312 51 52 54
1.6017469245420322 3.6724126289340804 0.4309524372977568 52 53 55
1.5875906614070563 3.662687337044622 0.4350464607131258 50 52 51
1.5749320957772426 3.6522703458586676 0.4388719658797706 50 51 51
1.571041576575644 3.6380143806607768 0.44110533375976635 45 44 47
1.628307183498009 3.597329421262797 0.4322004865633752 38 37 39
1.8632970505078847 3.4804128966787116 0.39087232869725846 35 35 37
1.8181014014314567 3.4844258665921926 0.4005884422060304 33 33 35
1.778741450908948 3.4857926456861525 0.4092536026348604 31 31 33
1.7706374527150683 3.4737554711620455 0.41221629110847874 28 26 29
1.8154840863854806 3.4393249316708037 0.40548837102459756 27 25 28
1.7493300059403845 3.4517793354242987 0.41908051647529465 26 24 28
1.7685978096545074 3.4282219116927504 0.41702851654387857 28 26 30
1.7614854022941435 3.415750918182831 0.41981111579790287 31 31 33
1.7511054968177464 3.4046240338228233 0.423195318540724 38 39 41
1.7674013898544318 3.382452960942057 0.4216748245112518 49 50 52
1.7865229757294754 3.359196841861063 0.4196266731814492 61 62 64
1.8065717987522576 3.3356486864981587 0.41739924896549085 58 59 61
1.8214697742846995 3.3142899735039237 0.41611343075720136 37 36 38
1.774260428466176 3.3181889671945837 0.4262904578595752 28 26 29
1.7709396878095198 3.3042092189901027 0.4283700680007193 22 22 24
1.6541942445888473 3.335800858769777 0.4514371164015817 20 20 22
1.6054950711251006 3.339757610021814 0.46194155534747605 20 20 22
1.4445225329384674 3.3882293952933695 0.493277204989522 18 18 20
1.4650063010472387 3.3642348195785985 0.49099529305815715 15 15 17
1.3772448873241774 3.383005771815538 0.5088117813444402 14 14 16
1.3574561654286177 3.374793580104724 0.5140197473430496 13 13 15
1.4249042296378438 3.3324591416207507 0.5029971990811988 12 12 14
1.6337084550665657 3.235462320325499 0.4656150367650544 11 11 13
1.5962087149367672 3.126297735843694 0.48443956424155155 12 12 14
1.5188993129372779 3.1396426563830886 0.5004394342913214 13 13 15
1.499611500788899 3.131250014904543 0.5055527244799896 14 14 16
1.5116485449466959 3.111270099832802 0.5047743338068814 15 15 17
1.5157445562554615 3.0942582201422946 0.5054865913163322 18 18 20
1.5662257802721522 3.060373729573516 0.49744724343674723 22 22 24
1.6143350478512613 3.0275508179348223 0.4898363997827193 24 24 26
1.6638590825715607 2.9944101638898366 0.48193979237945905 22 22 24
1.7283471577692686 2.956097046584219 0.47119398534737145 18 18 20
1.7269251480844083 2.9415672276346316 0.47290190637810153 17 17 19
1.7318225501985745 2.924802180671293 0.4734114581592287 20 20 22
1.5901462235225048 2.9598590477121305 0.5017183763931704 22 22 24
1.571679155870478 2.951102032185249 0.5066831129455844 20 20 22
1.5363013809589257 2.948204850992234 0.5148663144526414 17 17 19
1.5075042439420494 2.942903644393216 0.5218089191325892 16 16 18
1.5101725562861104 2.926624829170695 0.5227700944265296 16 16 18
1.5213566771068965 2.9074397428653973 0.5221062648182699 16 16 18
1.4620971051758813 2.912425375858671 0.5348722404503685 17 17 19
1.4519133241247455 2.9004986217293047 0.5382891419271196 16 16 18
1.4429444831117557 2.8881379840817423 0.5414760476109762 15 15 17
1.4255088661764233 2.8786114644335297 0.5462839039325111 14 14 16
1.354209610771942 2.887082169619889 0.5614070022915183 14 14 16
1.3426774642306312 2.8753930006559276 0.565102497507777 14 14 16
1.3938731886785432 2.8428892560924552 0.5567713746169574 14 14 16
1.4268678601654006 2.8165850532264685 0.5519145739743353 16 16 18
1.4492213713036355 2.7939031536020575 0.5490892328911657 18 18 20
1.4864153985180188 2.7664798216933963 0.5434010578351022 20 20 22
1.4714634336624888 2.7561081875455 0.5477347386454862 22 22 24
1.4477976311925633 2.7485056449346614 0.5537508033656218 23 23 25
1.4299177816315471 2.738977570265304 0.5586580829198873 23 23 25
1.4052296129576178 2.731569329183909 0.5648840301614347 24 24 26
1.4141050122179286 2.7134501268831235 0.5646341615382354 27 27 29
1.4116065736782402 2.698961436751916 0.5665787014708539 24 24 26
1.4105804822168542 2.6840170254711024 0.5682378111342302 25 25 27
1.4028286462624633 2.671178533118218 0.5711984664851228 26 26 28
1.3754947050788275 2.6643912914708867 0.5779562611277231 26 26 28
1.39127965513283 2.6442438618211703 0.5763563377487098 27 27 29
1.3897193964022492 2.6294771794360923 0.5781178157337074 27 27 29
1.345609802064473 2.6276678883627627 0.5881482683748411 27 27 29
1.3381183219906407 2.614637134984463 0.5910691354991638 27 27 29
1.3415778724151073 2.5983007351130296 0.591858999033359 27 27 29
1.2998170604109807 2.5955097853623723 0.6014584798982084 27 27 29
1.2883598272105412 2.5835790788929653 0.6051603430017292 28 28 30
1.2517470379440605 2.5790524246463655 0.6137754377978974 29 29 31
1.27404913410404 2.557112667756065 0.6108905822047239 29 29 31
1.2731223929178004 2.542045442946901 0.6125392398319747 30 30 32
1.356197619802314 2.502625993233928 0.597745535287082 31 31 33
1.314582209221214 2.499459337804374 0.6073484683081153 32 32 34
1.2387264896875312 2.505968403445772 0.6236774977229114 32 32 34
1.2424330647483495 2.4895707964691858 0.6244180136483731 33 33 35
1.2831022770995402 2.46274286799108 0.6178962597996999 35 35 37
1.1707288325482395 2.4791033536231937 0.6414435189857698 34 34 36
1.153663227892251 2.468452210646195 0.646276285381504 35 35 37
1.1453745332970853 2.455318603280033 0.6493851497934353 36 36 38
1.083068951802904 2.457071374090566 0.6631411331911921 36 36 38
1.1182234901793973 2.431905486530081 0.6576927501962502 36 36 38
1.099826468912124 2.4214620195703502 0.6628031842515596 37 37 39
1.104893423529405 2.4046196380057046 0.6632822444303578 36 36 38
