ply
format ascii 1.0
element vertex 727
property float x
property float y
property float z
property uchar diffuse_red
property uchar diffuse_green
property uchar diffuse_blue
end_header
0.7242094237854018 3.840722757524977 1.0001220386133995 28 28 28
0.7542771246936046 3.8549101321343993 0.998034062327427 31 31 31
0.8008163556948038 3.8702268368885893 0.9956124545534328 31 31 34
0.8457588001679373 3.885581202659508 0.9932052434400152 32 33 36
0.8468511543389813 3.8981649634036666 0.9916574493900557 35 36 38
0.7850052834580096 3.906476377576689 0.9913792442016947 37 39 40
0.8095392450584122 3.920585024934451 0.9893666809921855 38 39 40
0.9025819824464414 3.9396287854704326 0.9859374445538427 41 43 42
0.8570313554091329 3.9489030883781218 0.9853480047449545 50 52 51
0.8642875140094693 3.961943580647352 0.9836712004280128 65 67 66
0.8861756317079581 3.976109027434069 0.981683175721601 91 93 91
0.9150757584905604 3.9908794568451613 0.9795379715916294 84 86 82
0.974639995185919 4.00815203214082 0.976722910098618 147 150 144
1.0026569280312565 4.023069721825456 0.9745702486176385 168 171 164
1.029052262835492 4.037936803677143 0.9724430447556764 168 171 164
1.051040065628709 4.052512962933403 0.9704037411758167 168 171 164
1.054480493399581 4.065574553916651 0.9687697427524934 170 171 166
0.978305051701851 1.6934377769011004 1.2725645936184564 166 166 168
0.9621920992525022 1.7104136798939291 1.2706557688966267 166 166 168
0.9505919517960191 1.726410416525482 1.2688202689797556 166 166 168
0.9524266679817194 1.739649319267101 1.2671838539407487 162 162 164
0.9758122877438126 1.7485732338024271 1.2658534904143444 166 166 168
0.9972217616188452 1.7579623412543848 1.2644865683800817 165 165 167
1.0203274907558813 1.7670836429357417 1.263134959704226 165 165 167
1.1780295123145892 1.7500058920925434 1.263603131060418 166 166 168
1.1333459188277353 1.772614413326173 1.2612993031803483 165 165 167
1.0956127678054464 1.7937333349219484 1.2591061500867835 165 165 167
1.047832063617221 1.816629771251236 1.2567989284772032 117 117 119
1.031882548939759 1.8333607840671307 1.2549183481583714 78 78 80
1.006640850823182 1.851767815489297 1.2529283483604825 66 66 68
1.0005079776260521 1.8665470808929854 1.251185494847402 60 60 62
0.9787591417895072 1.8841641251054528 1.249256172585195 59 58 60
0.8971770571085681 1.9125766778130626 1.2466218644452556 56 56 60
0.8846267961598047 1.9282792963430044 1.244832051942195 56 55 60
0.8709484534582461 1.9441352319399205 1.2430350837599642 55 53 58
0.8574332496499582 1.959910665331671 1.2412462774227118 47 46 51
0.8405123060402492 1.976231161040176 1.2394258254016481 36 37 41
0.8362110065054934 1.99030132237281 1.2377508162173276 32 33 38
0.9500382421732723 1.9840688520386291 1.2373441421320506 29 30 35
0.8827345482443021 2.0090081839449834 1.2349876709681562 27 28 33
0.9534430301352584 2.010481664807397 1.2340819691293594 25 26 31
0.9882448597480188 2.0181706307888407 1.2327853348395623 26 27 32
0.9918300772078289 2.0311211363024806 1.23116619239635 27 26 32
0.9935149507999648 2.0443881245587456 1.2295278835507475 28 25 32
1.0198121426340165 2.0536755922899337 1.2281232187144648 27 25 31
0.9531933294764158 2.0779123073247634 1.2258455675032685 25 24 29
0.9728470505089153 2.088260411733539 1.2243794900264233 22 21 26
0.8930354074370486 2.1142520205443165 1.2220228135101738 19 18 23
0.9276995573389054 2.122226924270487 1.2206926551006863 19 18 23
0.9598042133127968 2.130703923175323 1.2193274160802032 20 20 24
0.9035118455404263 2.1526901919119705 1.2172187559762442 20 21 25
0.5703717201160572 2.216015751903743 1.2129003123272257 22 23 27
0.628510465421271 2.220179080392814 1.2117949538536419 23 24 29
0.7102836348198922 2.2210630439245396 1.2108477273013456 28 29 34
0.7401182090681777 2.229745911524218 1.209480631714405 30 31 36
0.7440662608759021 2.2422336311260125 1.2079143107435057 36 35 41
0.7273024080572583 2.257663940685123 1.2062010132844376 38 38 44
0.7506832491332089 2.2674105192811513 1.2047701821878347 39 40 45
0.7756512586433103 2.277009328737255 1.2033411173949995 41 42 46
0.800686284178276 2.286676078141704 1.2019030636379813 43 43 50
0.8118955122424931 2.298287718477364 1.2003692659182639 34 34 43
0.818147574524414 2.310592205385819 1.1988016875470549 27 28 33
0.8200662419588096 2.3234827063322943 1.1972069801559537 17 18 23
0.8259585916109937 2.3358568183352797 1.195634586344813 14 15 20
0.8396235993284081 2.3472462333396478 1.1941027379382234 17 18 23
0.8713256835466053 2.3563878730134653 1.1926604217721146 29 30 35
0.87609441105646 2.368999462889646 1.1910705433866076 49 50 55
0.8816047450600664 2.3815294922310515 1.189483019471167 66 66 71
0.8956390313902932 2.3930333216707913 1.1879334015941705 75 75 79
0.8958161876216311 2.4062434223115443 1.1863175168933862 80 80 83
0.9157728911474334 2.4171034431122407 1.1847857818398257 84 84 86
0.9470188644522817 2.4267037840120604 1.183292100562726 87 87 89
0.9871193472024964 2.4353808484197854 1.181820357266537 90 90 92
0.9951027848090858 2.4478330730404703 1.1802169589445564 93 93 93
1.0205021342111409 2.4583558880683682 1.1786705684529974 95 94 95
1.0413432754287575 2.469459383582738 1.1771000078276657 99 97 98
0.9849733116954036 2.4890162611006104 1.1752889774816964 100 98 97
0.9705452367145669 2.5038930356377618 1.1736193417228253 103 102 100
1.0699874527095565 2.5067166978662674 1.1722537809381188 106 106 104
1.072311280429646 2.5199363930796426 1.1706146931126127 109 109 106
1.0558157985052963 2.535079294160229 1.168933758218819 111 110 105
1.0567968062064947 2.548406620533917 1.1672953006253222 111 110 106
1.0007824628759718 2.567363292151452 1.1655539563486306 113 111 109
0.9796021116141843 2.582745464640828 1.1638918660377484 114 111 109
0.9953662140972043 2.594522988400534 1.162291054294471 112 108 105
0.8779640759556775 2.6188500629053397 1.160523540706421 113 110 106
0.8378066448357829 2.6356604040221736 1.1588817082551894 109 105 102
0.9465860269950976 2.638837074410693 1.15737719013488 101 100 96
1.181999121114572 2.631096094570121 1.1559070231853397 100 99 95
1.1672853503268248 2.6459673320789516 1.154240995997691 101 100 96
1.1410132109542306 2.6617752607228256 1.1525791408841954 89 88 85
1.1149200255110505 2.677476405970897 1.1509284964576847 82 80 79
1.0710070506137692 2.6945555538874997 1.1492923623645366 56 54 56
0.9569326828447627 2.717155095715035 1.1477017739285702 51 49 52
0.8852116265931742 2.736023034355778 1.146132465977285 48 48 50
0.8918975368941626 2.748571218213441 1.1445306591836322 50 50 52
0.8884542889346589 2.761904521584692 1.1429368764607994 51 51 53
0.6506820531505824 2.7926274714328008 1.1416232193931226 57 56 60
0.6636270396518505 2.804354520310734 1.1400575068559433 63 62 67
0.6723923696921426 2.816415149725152 1.1384939309201907 51 52 54
0.6945597014990696 2.827568837778546 1.1369036271525703 48 49 51
0.7145225514964308 2.8389386225696644 1.135309543874921 55 56 60
0.6164437770720922 2.858175209889688 1.1339656963340148 39 40 44
0.6856457921283048 2.8662953447074733 1.1322633384313943 34 35 39
0.6859809200101437 2.8789659920387622 1.1307117452143545 34 35 39
0.6990873621708238 2.8908498586957516 1.1291252150263151 33 34 36
0.6927770524994199 2.9039288526137916 1.1275919289456708 34 35 37
0.693537358105938 2.9165716931646966 1.1260393697742015 35 36 38
0.6798738500077344 2.9300249562077907 1.1245358181546063 36 35 38
0.6630243390996623 2.9436029471939524 1.1230497239898427 34 33 36
0.7695413132084586 2.9505639950975504 1.1211060330397808 29 30 32
0.798165794281904 2.961878601695101 1.1194297992491855 24 25 27
0.8439829758841917 2.9724223983868456 1.1176713013931494 21 22 24
1.1277793008253505 2.9716171902993906 1.1148571457026766 19 20 22
0.940363647884042 2.993717031936558 1.1140802983017317 20 21 23
0.9618291533249029 3.0057939921775274 1.112384387880256 22 22 24
1.0117817376129843 3.016697435490168 1.1105395061311227 25 25 27
0.51130764998636 3.0631091157890373 1.1100049843945115 24 24 26
0.4926421178596172 3.0761580844966216 1.1086021658615328 21 21 23
0.6903493843947123 3.08114141871705 1.105964254449535 20 20 22
0.7041060923742726 3.0932620619924327 1.1043421203462356 19 19 21
0.7393181138972256 3.1046976425489237 1.1025834989567767 18 18 20
0.7269600243889036 3.1177700053312107 1.1011130901350874 16 16 18
0.7190872207203707 3.130660205689816 1.0996189071921534 15 15 17
0.6930507759276849 3.144044767178339 1.0982507305586882 15 15 17
0.6610299630590784 3.1575034514026084 1.09693491354984 15 15 17
0.6596920452041674 3.1700653757850663 1.095413774669174 17 17 19
0.639165330455356 3.1830797558206996 1.0940342832372103 19 19 21
0.6828833571138102 3.194578896254624 1.0921806005644492 20 20 22
0.6966484218205555 3.206838285715802 1.0905414280956054 21 22 24
0.7350477059958724 3.2186620983959076 1.0887026606673642 25 26 28
0.7170892614762274 3.231598822099758 1.0873063000238474 28 29 31
0.6352518335685996 3.245497633422982 1.0864479634013586 30 31 33
0.5980725364595096 3.2584833851615183 1.0852428716986808 32 33 35
0.6293371485339984 3.2704657730558995 1.0834579504480875 34 35 37
0.6430737743440164 3.2827400784842364 1.0818172473447538 33 34 36
0.7184567418025829 3.2944592756241766 1.079611706858055 31 32 34
0.7523316527092678 3.3067480505104654 1.0777625610100388 28 29 31
0.8051045276451472 3.319018458815208 1.0757217136082218 26 27 29
0.8135632336571044 3.331666420918828 1.0740895216681279 24 24 26
0.8095070552625476 3.3443764478462144 1.0725781838971211 25 25 27
0.8341852226360338 3.357021269803312 1.0707799188578744 29 29 31
0.8244021611954321 3.36974064620323 1.0693262124733616 28 28 30
0.7903925838935129 3.3823853641679333 1.068130259596107 23 24 26
0.8940367105829767 3.3953516545557694 1.0654823058429115 23 23 25
0.9260501067162886 3.408302469394387 1.0635713734404733 22 22 24
0.971961266344754 3.421438370377991 1.0614951967218427 20 20 22
0.8842126027611594 3.433652346055764 1.0609033862388448 15 15 17
0.9054739817935981 3.446621714824603 1.0591005324318963 12 12 14
0.9036369770617576 3.4593960871181615 1.0575585577761715 12 12 14
0.9274519759692919 3.472485823163646 1.0557147897397758 11 11 13
0.4593638169122578 3.5629693726363207 1.0494630088837105 13 13 15
0.5302313642898382 3.589058182090928 1.0455480684834146 14 14 16
0.5061757601615055 3.600466004638615 1.0444010893332378 14 14 16
0.48757511936472275 3.611965884920221 1.043186879082855 14 14 16
0.46427460901772033 3.6232447850500464 1.0420479028630731 16 16 18
0.4835022057650896 3.635931921638497 1.040300405652469 20 20 22
0.5138783535179341 3.649082342918442 1.03838188720262 19 19 21
0.5477755128467209 3.662458067951133 1.0363997048070297 19 19 21
0.574658022083227 3.675657310992975 1.0345110755516207 15 15 17
0.5986951136292873 3.6888189122987294 1.0326562474223626 14 14 16
0.5934273027409448 3.7007948071776005 1.031247043762955 14 14 16
0.6052753173826637 3.713509815404417 1.0295718761094974 15 15 17
0.587915037948542 3.724912428179445 1.0283568208622993 16 16 18
0.6042548136107657 3.7378596989968043 1.0266071764138371 20 20 22
0.5492795377055366 3.747345189629058 1.0260123978093634 21 21 23
0.561228078992893 3.76004983348937 1.0243374648356027 22 21 24
0.6428277308568273 3.7764330100906833 1.021498258925253 21 20 25
0.6502993587845698 3.7890710858013943 1.0198774051128725 20 19 24
0.5878495668441444 3.7978470789349466 1.0194460252659487 19 18 23
0.6639826929754526 3.8143304022595665 1.0166506847557049 17 17 20
0.6836943641700356 3.8277393649400273 1.0148100237965973 18 18 20
0.7274528027068003 3.8426532242717517 1.01253870142866 22 22 22
0.7665008480661645 3.8574084482725413 1.0103351035361934 26 26 27
0.8058525703855759 3.8723004470810833 1.0081116773427827 30 30 34
0.8488795548117942 3.887549507409498 1.0058069054368441 33 32 38
0.8549160249272554 3.9004684224328745 1.0041664661862746 35 36 40
0.8687630134968266 3.9139326960771634 1.0023792350489793 36 37 41
0.8731677658439858 3.926777550337039 1.0007645908208784 38 39 44
0.8895663997041496 3.9404850322360403 0.9989214564828721 46 47 49
0.8373165767940485 3.9492424474394454 0.9983876665211787 62 64 62
0.8390274877240539 3.961842590929688 0.9968305684051562 82 84 80
0.8721695630470456 3.976828866064881 0.9946593513726115 63 64 65
0.9057182568160064 3.991945173617414 0.9924680733873164 40 42 41
0.9674016595313362 4.009385098357056 0.9897041455687521 119 121 116
1.0101784149216642 4.0254886961243885 0.9872975306700899 166 167 162
1.042746875756905 4.040881911339334 0.9850824788381642 169 170 165
1.0407766607013371 4.053479475780252 0.9835634744302846 169 170 165
1.0476507926107999 4.066819910165389 0.9818629354022703 170 170 168
1.0097822116240065 1.6885016615560375 1.2864679053729213 167 167 169
0.9927696499234568 1.7057135042934892 1.2845080061292062 167 167 169
0.9717676065747146 1.723673445266919 1.282490977138769 165 165 167
0.9677600251607278 1.7381283783013322 1.2807562642954131 163 163 165
0.9624385547689241 1.752826659219973 1.2790031072552202 163 163 165
1.0071729405689962 1.7575722582586097 1.2780360738569834 165 165 167
1.019277441654332 1.7688798828682444 1.2765475111803355 166 166 168
1.1908738945723938 1.7491233915007438 1.277484452826614 166 166 168
1.1398007153317047 1.7729813887689467 1.2750050774088395 166 166 168
1.1074724632185913 1.7930695350990644 1.27282532468116 166 166 168
1.075411873901297 1.8129920847246566 1.2706635306982677 158 158 160
1.0468469647381204 1.8321427494219804 1.2685660406746335 103 103 105
1.040241880052691 1.8470941318842167 1.2667929842309373 78 78 80
1.0213505087147854 1.864289125081327 1.2648513659967597 69 69 71
0.9747070610208848 1.8864996276854 1.2625354075378326 68 68 70
0.9307459943264744 1.9080607148594846 1.2602757832751623 67 66 70
0.9180740518654464 1.9238404364763988 1.258453708162168 63 62 67
0.8987420615144357 1.940758589004535 1.2565497792761313 59 58 63
0.88133618945213 1.9572660974679417 1.254679486921474 48 47 52
0.8544678699092109 1.9753639352362689 1.2526962190567796 35 36 40
0.9880574957211326 1.9655790110660936 1.252740713675088 33 34 39
1.005008002684531 1.9762388487675013 1.251289608629857 31 32 37
0.878101320983305 2.0113804315477264 1.2480837271809955 29 30 35
1.0202639736942225 2.0008460973135813 1.2481459452138375 28 29 34
1.0476867477383274 2.009883521998048 1.246803025632247 29 30 35
1.0151201340802634 2.0288938128130236 1.2447572618368081 31 29 35
1.0869361909440074 2.030759760355035 1.243908923301234 31 28 35
1.000074572817868 2.058482412421066 1.241265447105205 30 28 34
0.9292240446273965 2.0833506302651017 1.2388331445932588 30 29 34
0.8852167063118396 2.103731658477088 1.2367183609413308 28 27 32
0.7899286007803269 2.131984437754284 1.2340827369315668 27 26 31
0.7721615694665602 2.1479128498326436 1.2322864445998005 25 24 30
0.7960094351015616 2.1574031989572746 1.230918946280721 24 24 29
0.7461058545201653 2.1781392375785797 1.2288116073660988 23 24 28
0.6089928220241232 2.211769135029674 1.2258788638052915 25 26 31
0.6602929044214292 2.217022841569731 1.2247929596203408 26 27 32
0.7362425655830929 2.2188304666417555 1.2239160770108926 29 30 35
0.7510783738763411 2.2297361065410803 1.2224531402499346 33 34 39
0.7558807342485219 2.2421218575701154 1.2208956479591153 37 36 42
0.7473817807974943 2.2564001732132284 1.2192213246056933 39 39 44
0.7837921359034463 2.264363896428542 1.2179322436562825 40 41 46
0.8134981442280242 2.273369223246475 1.2165735431620341 41 42 47
0.8240240378638618 2.2850861442216908 1.215048509069172 35 35 41
0.8318564706315519 2.2971955334636394 1.2134986871851483 27 27 33
0.8421725858746503 2.308994269207136 1.2119654497154877 19 19 24
0.8558007136639036 2.3203856914817895 1.2104534775415465 14 15 20
0.8664140812576462 2.332208158319106 1.2089147693514932 14 15 20
0.8776190840205047 2.3439841292713317 1.2073766451156736 17 18 23
0.8926833275699162 2.3553028205139146 1.2058611782445694 30 30 36
0.8959023479018059 2.3681456748702585 1.204261403739552 41 40 46
0.9062997150584184 2.3801083233122324 1.2027074016860535 53 52 58
0.9166010433770988 2.3921112539569824 1.20114929806774 58 57 62
0.9436708208050689 2.4021302349453175 1.1996892815653561 68 67 70
0.9626383619330956 2.413191690714455 1.1981716059973178 74 74 76
0.9700947346481401 2.425653309603809 1.1965819169126386 82 82 84
0.9967586125809478 2.4359238636874245 1.1950946113241199 88 88 90
1.0060784016098063 2.4482434190911424 1.1935062253291817 93 93 93
1.0065808334567101 2.4615732970994295 1.1918702889432018 96 95 95
1.0758145658224256 2.4673309023471437 1.1905678966471134 102 100 101
1.0697645650990493 2.4814763283176267 1.1888886989209453 106 105 104
1.0301655131024992 2.4991797847729322 1.1870636004978676 107 106 104
0.9965947291537336 2.516113170299175 1.1852807217376886 103 103 101
0.9786646237576384 2.5313110801480896 1.1835752518092342 113 113 110
0.9596225970197931 2.546557614525621 1.1818734286847408 121 122 118
0.963391843902912 2.5594490483816754 1.1802629582038808 122 121 119
0.9265715689665804 2.5763495882613294 1.1785121506448115 120 119 119
0.9060181620994966 2.5915462262425932 1.1768294817289402 121 120 119
0.9731713026792452 2.598308870752573 1.1754220314161032 125 124 122
0.8792862311053347 2.6203734591582704 1.1735317407234327 122 121 119
0.8460137481642668 2.636545262871998 1.1718395057942694 117 116 113
0.9371166968456741 2.64135731030346 1.1704640679702119 114 110 109
1.1692095768733513 2.6339455195238 1.1693677696472227 103 99 98
1.1337905069812517 2.650598418671936 1.1676351779912044 94 90 88
1.098766007878657 2.667095869328863 1.165918207403846 90 88 86
1.0873325454321234 2.6814944224048816 1.1642544985843015 74 73 72
1.0292865502603996 2.6996829854139794 1.1625292633277946 56 54 55
0.9567689518162625 2.7188425647491727 1.1608100984321075 58 56 59
0.9009534727852124 2.7364406576417983 1.1591378830365497 48 48 50
0.8819000619888766 2.751007832634996 1.1575193129003452 49 49 51
0.8027012450322097 2.7700605163313736 1.1558709070221573 54 54 56
0.6899117265235859 2.7913374975232372 1.154240211120744 62 62 65
0.713520083588022 2.8023599620334023 1.1526872468631464 62 61 66
0.7270348308543794 2.8141686567938677 1.1511251785877281 48 49 51
0.7349415071117045 2.826403882233392 1.149559313246181 37 38 40
0.7449561867555559 2.8385169375002626 1.1479902046513966 33 34 38
0.7433732638384289 2.8514217324904005 1.1464243007064638 34 35 39
0.7473712424459468 2.863956994205929 1.144855451788007 36 37 41
0.7467828176844691 2.8767872297012764 1.143290089163546 37 38 42
0.7451228384957946 2.8896754778046976 1.1417268757640042 39 40 42
0.7641516598674308 2.901323304152925 1.1401368984690483 40 41 43
0.7653958204856913 2.914055499654283 1.13856771653017 39 40 42
0.7681031302971622 2.9267040299436267 1.1369961448930572 39 37 40
0.7547413339217253 2.9402325954642423 1.135455570105281 35 34 36
0.8074752217244303 2.950213259724008 1.1337787012935217 28 28 30
0.8671769039765034 2.9600018149755383 1.1320651982973382 23 24 26
0.9122358977657095 2.9707060291891265 1.1303660183675506 20 21 23
1.1129911572413151 2.974064923017772 1.1282218885964703 19 20 22
0.9630323438301054 2.9943624281420678 1.1270319416520047 20 21 23
0.9778106574928573 3.0067817692019005 1.1253842216708432 24 24 26
1.1660207864815502 3.0117467773430397 1.1231517951682104 26 26 28
1.1494398144510913 3.025835668279127 1.121570424765081 25 25 27
0.5134645511932105 3.0646359914274752 1.1223111806129056 21 21 23
0.5233777263424836 3.076588976064407 1.1207625411543551 20 20 22
0.6931430032617911 3.0826922140203195 1.118550016395365 19 19 21
0.7221308082604658 3.0942861964817223 1.1168806599553507 19 19 21
0.739153288323565 3.106369561835287 1.1152546914624977 17 17 19
0.7427952827461087 3.11892954405157 1.1136858897042827 15 15 17
0.7160092323681537 3.1324181255529333 1.1122660922820686 15 15 17
0.6837090825290938 3.1459732180537654 1.1108857536022847 15 15 17
0.6428676567612319 3.159650241304612 1.109564221931553 16 16 18
0.6386970723178118 3.1722560635599946 1.1080572504221657 19 19 21
0.6294686300129244 3.1849638483147795 1.1065814598821102 20 20 22
0.6572315452796267 3.1968131316174855 1.1048914279081985 20 21 23
0.6841883851546386 3.208763005091474 1.1031960418789792 21 22 24
0.7246705408153351 3.220536565691046 1.1014054811794955 26 27 29
0.6960030410303693 3.233640804725725 1.1000489692987494 31 32 34
0.6175543394172821 3.247435856547665 1.0990376310124104 33 34 36
0.6185017642696737 3.2598439627566873 1.097510679676837 35 36 38
0.6443966662215135 3.2719348388792127 1.0958072017404603 35 36 38
0.6895024389764061 3.2838917317046006 1.0939542880546256 33 34 36
0.7196639516189209 3.2961286665736047 1.0921961012824273 30 31 33
0.7786311633711294 3.308231755981013 1.0902056356901806 25 26 28
0.8240113946047642 3.3206028055773564 1.08829965929809 23 24 26
0.8456056957239133 3.333223500996215 1.086568455018548 24 24 26
0.8612450909953215 3.3459258286051323 1.0848786638306187 29 29 31
0.8645651941439789 3.3586901728674987 1.0832876265062408 32 32 34
0.912932336184038 3.371468010251662 1.0813060744657674 28 28 30
0.9103092529879218 3.384304094903668 1.0797575598386024 23 24 26
0.8876188467714734 3.3970584934816253 1.0783922724706392 23 23 25
0.8780839692791234 3.4098004386885767 1.076914945899346 22 22 24
0.8744172107675494 3.4225450717501267 1.0753866345001255 20 20 22
0.8765967014358361 3.4353203236198095 1.073804108266305 16 16 18
0.8960375549295887 3.4482656261450404 1.0720517609150666 12 12 14
0.9273679265957131 3.461402515538686 1.0701733281799148 11 11 13
0.9029682316976955 3.4739120537738724 1.0688527673531123 11 11 13
0.49307589276071256 3.56548627997113 1.0611822762284293 12 12 14
0.5124369711148817 3.5781012766937574 1.0594710475052105 13 13 15
0.5005656758286824 3.5898715955025975 1.0581328184636072 14 14 16
0.5136832669985518 3.6023596212839797 1.0564910273452932 14 14 16
0.49463790357048293 3.613854280513428 1.0552484687728054 14 14 16
0.4714203533335073 3.6251432428524937 1.0540671037412055 17 17 19
0.5287262881906796 3.6391869601234363 1.051853442848518 17 17 19
0.5660258090141247 3.652671385060325 1.0498809432248746 14 14 16
0.5999092724218136 3.666137716253818 1.0479401470095149 13 13 15
0.6231305205957639 3.6792802916835696 1.0461310193255917 13 13 15
0.6214971788694533 3.691459246930008 1.044654394604901 13 13 15
0.6211645954274105 3.703683907404325 1.043160946849258 14 14 16
0.5651617130815534 3.7134151381409373 1.042453266181718 15 15 17
0.5568517560158619 3.7251704056857866 1.041086136616733 16 16 18
0.5980535395200396 3.739262691224454 1.0390055480336142 17 17 19
0.6953235260625213 3.756250365476183 1.036086557056824 17 17 19
0.6052602211176117 3.7639875574616646 1.0359169725378894 16 16 18
0.7866213277942052 3.785703455967866 1.0316933325981912 16 15 18
0.7637083082037579 3.7969258645524886 1.0305174850325391 16 16 18
0.7743405055892032 3.809939883341541 1.028832766359013 17 17 19
0.7380015326956034 3.820291032367675 1.0278794603343369 17 16 19
0.6888772845578153 3.829769910038549 1.0271432891200916 18 18 20
0.7254330027273002 3.8442674594110335 1.0250532021699434 21 21 21
0.763879619547885 3.858992046905227 1.022919002421908 26 26 26
0.7941805853652274 3.8733143537995907 1.0209043588381406 30 30 32
0.8247342988254243 3.8877431116887466 1.0188745036622668 34 34 39
0.8531485722544132 3.902119833158823 1.0168694862887901 35 36 39
0.8479154296757816 3.914282515700627 1.015425928221292 37 38 40
0.8633279881651761 3.9278659038741024 1.0136302518983757 47 48 51
0.8574176211865195 3.939969184781989 1.0121998107475456 68 70 70
0.8306062920069315 3.950522835859507 1.0111394718991187 85 87 85
0.8273555468825913 3.9627440564356786 1.0096716358718383 67 68 69
0.8596376568059505 3.9776551518795267 1.0075678216040913 43 44 46
0.8919468313509411 3.99266420157033 1.0054517839417705 30 31 33
0.9378580288984486 4.008847317805833 1.0030746207600598 59 60 58
0.9974462372180715 4.026274348057013 1.0004271352896386 155 156 151
1.0325395223924831 4.041864177496168 0.9982159757221305 168 169 164
1.0638854513610394 4.057243754544927 0.9960628999972826 170 171 166
1.0196232930125007 4.066249803249999 0.9953426324293437 170 170 167
1.0261588493191618 1.7004495147986634 1.2985157024317753 167 167 169
1.0176783319784501 1.715918572723747 1.2966782763536624 167 167 169
1.0297492564235657 1.727211292658782 1.2952090588474579 166 166 168
0.9706565481393994 1.752760309882837 1.292489996800335 166 166 168
1.0182264478568066 1.7706763139238915 1.2899600930896922 166 166 168
1.1977953588610069 1.749400071381696 1.2913117208691156 166 166 168
1.1876391787617582 1.7653597511558394 1.2894258672763783 166 166 168
1.1459164444174819 1.7873218451436101 1.287025015236201 166 166 168
1.1046295764370897 1.8090548444191803 1.284649202881455 165 165 167
1.0786620781241156 1.8277619657360757 1.2825371629021711 157 157 159
1.0555035131407533 1.845852268358652 1.280481090023685 111 111 113
1.0276924979685302 1.8647181320732107 1.2783624925190016 91 91 93
1.0002286462642842 1.8834211147305833 1.27626143669071 86 86 88
0.9653307865458712 1.903374155599156 1.274059148811952 80 80 84
0.9485105377165151 1.9199561300411452 1.2721436482713027 71 69 74
0.9239558524742119 1.9378525254953143 1.2701211270108212 61 59 64
0.9009803808712955 1.9553822954829543 1.2681325042240827 48 48 53
0.8775770099837398 1.9729039713099112 1.2661478698598232 35 36 40
1.0141770484472201 1.9626648156800133 1.266446985072763 35 36 40
1.0077765277036743 1.9773732080414457 1.2646882680990565 33 34 39
0.9137584908925184 2.0069168029535853 1.2617239230928 32 33 38
0.8610198335283202 2.0292069381994793 1.2593599745706854 32 33 38
0.8127249609484324 2.0505760349170608 1.25707784995336 33 34 39
1.3622919618118017 1.9733596486499028 1.2626982782860117 34 32 38
1.1218136938623213 2.0267085349189458 1.2578403863748535 34 31 38
1.0160828354773868 2.057516743645072 1.2548029825045264 34 31 38
0.9643178394087404 2.0793526994502156 1.2524879080029048 34 31 38
0.9492762593426223 2.0952098977801596 1.250648825571504 33 30 37
0.8843504784315654 2.1188068662957003 1.2482099620837939 31 29 36
0.6213784249478612 2.172801924100106 1.243430326739603 30 29 35
0.6900122178870014 2.175197489503726 1.2426560472453447 30 30 36
0.6287597827684135 2.197465378455321 1.2403544354971165 29 30 35
0.6004748754705179 2.2145912584377427 1.2384525111951759 30 31 36
0.6852348734086905 2.214891828895451 1.2378222109944386 32 33 38
0.7476964645149748 2.218730700759936 1.236914169023622 34 35 40
0.7352040118421467 2.233612243496085 1.2351768729785588 37 37 43
0.7499330410967177 2.244554721290673 1.2337319912138527 39 38 44
0.7727216460028344 2.2544015224456473 1.232365031475698 40 39 45
0.8055412353664881 2.262917426946533 1.2310910334754903 39 40 45
0.8211752219503683 2.2739080114935537 1.2296339168725792 34 34 39
0.8372970446809408 2.2848782164890484 1.2281758836224241 25 24 28
0.8521904858786843 2.296061574733584 1.226700314185481 19 19 21
0.8731972456692214 2.306475342778601 1.225276309004012 16 15 20
0.8880616826365036 2.3177598370015673 1.2237885414353444 15 16 21
0.8881540550236268 2.331003895998773 1.2221639199281764 15 16 21
0.8778977090029392 2.3455677401336645 1.220449923771823 18 19 24
0.9068491599838935 2.3551359126778983 1.2190739802495425 26 25 31
0.9077830784582797 2.36828926518192 1.217454589033059 37 34 41
0.9119829636964593 2.381037916718971 1.2158619553242973 46 43 49
0.9465136431469738 2.390111097677353 1.2145076444346603 55 53 58
0.9683639899075653 2.4008115911897945 1.213042574882528 66 65 68
0.9803445234472459 2.412744507338353 1.2114954899537156 73 73 75
1.0135447114530654 2.4222391253153224 1.2100988182256547 81 81 83
1.0660143269670141 2.429624348247388 1.2088258843427846 86 86 87
1.0864823472384058 2.4407993042872604 1.2073123149328446 96 96 96
1.1419385963320292 2.448132769999035 1.2060248166512877 104 103 103
1.1265204548872785 2.4634326298505074 1.2042567110525804 92 90 91
1.1034700262460282 2.479502145326119 1.2024476681880365 121 120 118
1.0632544843778957 2.4973200500608224 1.2005444203957916 156 155 153
0.9740340194879338 2.520144038325348 1.1983704375431454 166 166 164
0.9239290460617792 2.538627161322051 1.1964548618285622 166 166 164
0.8214648475226077 2.5622641266142114 1.1942739180477144 166 166 165
0.7858123256645708 2.5788747390009363 1.1924867595279105 166 166 166
0.7669396045287016 2.593711495995088 1.1907996263241498 167 167 168
0.7966091071458343 2.603783668975464 1.1893568552990754 167 167 167
0.82749551291053 2.6138318149789486 1.187908510330643 166 166 164
0.8628872413748838 2.6235544483101427 1.186468535559035 166 166 165
0.8700434703564582 2.6359807112855833 1.184894734099925 166 166 165
0.9883306163201773 2.6384000503265264 1.1837698930797662 167 166 166
1.1731286233008742 2.6353102379151347 1.1828549055760793 167 166 166
1.1425456575400879 2.651543194858657 1.1810785604906364 166 164 165
1.111645104342046 2.6676973353638407 1.1793141033856116 150 149 148
1.0633513064841817 2.685199753290303 1.1775060999666875 90 89 88
1.01324777191032 2.7026869598334744 1.1757126325700271 67 65 67
0.9598199670124705 2.720271950796016 1.1739304497110132 47 45 48
0.9499771905973162 2.734243925063994 1.172286132517792 35 35 37
0.8919285108201325 2.751896147908947 1.1705280586583051 33 33 35
0.8303832019366981 2.7696172666373076 1.1687860183878267 32 32 34
0.7428497261567495 2.7890516702583676 1.1670158519947327 29 28 32
0.7677088188166253 2.800076283405867 1.165489973538645 53 52 57
0.7822589757145835 2.811904273255382 1.1639377634406494 33 34 36
0.7851840779773569 2.824576003344052 1.16236348712543 34 35 37
0.8082888794702452 2.835892613841535 1.1608140868289671 35 36 40
0.8246996206671746 2.847718838541063 1.1592490663483699 37 38 42
0.7979384547580092 2.8623600582194846 1.1576411404601794 39 40 44
0.788265372087509 2.87584120028535 1.1560558205706062 42 43 46
0.8095079381607551 2.8874043012580577 1.1544892342147437 44 45 47
0.8226122541461439 2.89951284774559 1.152912745521358 44 45 47
0.8052749337668539 2.9134117551025325 1.151329860546937 42 43 45
0.7660099076331011 2.9284762120041696 1.1497575830785844 40 39 41
0.8146317708008494 2.938630980694345 1.1481719898715361 34 33 36
0.8525214769756336 2.94950385891943 1.1465734835773946 24 25 27
0.920585303558175 2.9589519039349885 1.144938425891653 20 21 23
1.091976432149255 2.9635015117514176 1.1431805673035325 20 21 23
1.1090454095502433 2.975987865142788 1.1415299938078443 20 21 23
1.111999369042255 2.989176590768627 1.139892121915508 22 23 25
1.1963330814801365 2.9987370898760997 1.1381293621035184 25 26 28
1.0886943408656473 3.0168221295563002 1.1366654199129478 26 26 28
1.0626408269006684 3.0311759645249268 1.1350877782796025 24 24 26
0.5348366815099586 3.0653998001886205 1.1345866863979688 20 20 22
0.7069277449320029 3.071201116287173 1.1326704438785646 19 19 21
0.705652050603068 3.083889514283153 1.1311235355074345 19 19 21
0.7360401724533174 3.0954621676845755 1.129491745513834 19 19 21
0.8912187340595361 3.1029691102355432 1.1274847729531234 16 16 18
0.741182496608026 3.120649506647738 1.1263672925308121 14 14 16
0.715068886834077 3.1341108252868035 1.1248995112169575 14 14 16
0.681835623383678 3.14768537825433 1.123467693246378 15 15 17
0.6543784698138229 3.160992234957812 1.1220282586985855 18 18 20
0.6253713968754588 3.1742444650774804 1.1206063741268124 20 20 22
0.6452513361608463 3.1862414729082116 1.1189961228864937 21 21 23
0.6541888509857321 3.198538367109389 1.1174257128936844 21 22 24
0.608962796616044 3.2119657780575204 1.1160959045036405 23 24 26
0.6630818741781435 3.2233714987906326 1.1143184320894162 29 30 32
0.6878797813446538 3.2354508987906683 1.112663644993576 32 33 35
0.6237485300759313 3.2489937315627584 1.1114520478363326 35 36 40
0.6578069660465364 3.2609491471585863 1.1097476262906285 36 37 41
0.6589498129122494 3.273417061635678 1.1082108200712155 36 37 40
0.6867013810667525 3.285595744887679 1.1065231789845629 33 34 38
0.7378130076435674 3.2976430683930125 1.1046880903831555 29 30 32
0.8021681069838933 3.3097481798607022 1.102753192105961 24 25 27
0.8422840787800356 3.322199511838961 1.1009455500826784 24 25 27
0.8534236880402704 3.3349013509039946 1.0993100682134707 26 26 28
0.8665712792916396 3.3476277869142685 1.0976575114645246 29 29 31
0.8708232729543067 3.360401509600614 1.0960614387181475 30 30 32
0.9143970774611724 3.3731991135415016 1.0941871272246615 26 26 28
0.9100823131008087 3.3860348599334653 1.0926434290792622 23 24 26
0.9059982973402028 3.3988521756814407 1.0911003753038557 23 24 26
0.8781740294683615 3.4115276977091624 1.089740924793406 22 22 24
0.8621660703395955 3.424189152371662 1.0883004676886716 19 19 21
0.8757124190138998 3.4370418925335375 1.0866296317488788 16 16 18
0.8894895937133778 3.4499347227754287 1.0849522638777271 12 12 14
0.938804955094775 3.4632773704963795 1.0829709202656521 12 12 14
0.886458553691737 3.4754331186480956 1.081846894930238 11 11 13
0.49732539743605464 3.567255462255734 1.0733122244390405 12 12 14
0.5065348239209742 3.579603649618288 1.0717336211431658 13 13 15
0.496639856870579 3.591420640162037 1.0703539115535385 14 14 16
0.4906824702517734 3.603321796658544 1.0689363127612024 14 14 16
0.5194643881867957 3.616318841770659 1.0671411109069857 14 14 16
0.4673655218615449 3.626666417137998 1.0662370690050358 14 14 16
0.4874614736937535 3.639399951838916 1.064534993088105 14 14 16
0.5184317986317417 3.652594268621437 1.0627002798923695 13 13 15
0.5689551835342891 3.66663572428619 1.0606247911306574 12 12 14
0.6201293951980792 3.6808580507516497 1.0585225674082765 12 12 14
0.6670179654522007 3.695058208376583 1.0564530677959332 13 13 15
0.7105374585311344 3.7092554766252666 1.0544075109665323 14 14 16
0.7581072780730398 3.723766902764865 1.052295074139134 14 14 16
0.7709294456164085 3.736808406106642 1.0506061625575915 14 14 16
0.7194317497360517 3.746794226894274 1.0497422696048992 14 14 16
0.7208563713928375 3.759238937526729 1.0482063357827998 15 15 17
0.6475809183295848 3.7678574705688925 1.0476625747373731 15 15 17
0.6628923982128648 3.780915958551059 1.0459541516705317 15 15 17
0.6718374614740621 3.793671425596211 1.0443274590322735 15 15 17
0.7727039700019117 3.811591856840826 1.0414238578949784 16 16 18
0.7501918420678821 3.8227288325124626 1.0402158697894441 17 17 19
0.6927042647896045 3.831723064103176 1.0395155025947123 19 19 21
0.7237420290198968 3.845901186475053 1.0375596838562648 23 23 23
0.7548263009851084 3.860174633155187 1.0355918509132311 29 29 28
0.8177631241254537 3.876572974439881 1.0331404506218038 35 35 35
0.8569498230636976 3.8916111649614025 1.0310221165742084 40 40 43
0.8539404514626199 3.9039422483807034 1.029531160087561 47 49 50
0.8517243363942499 3.9163129398121677 1.0280297929403919 60 62 61
0.8574903888706089 3.9292308358195602 1.0264054411530887 73 74 73
0.8404345769519248 3.9405262106353627 1.0251398280563069 83 85 84
0.8320455387196819 3.95239742883599 1.0237429254052117 72 74 73
0.8128513463154592 3.9634289423672624 1.0225246385502342 67 68 69
0.8602391057570653 3.97947914627988 1.0202247928456294 64 65 63
0.8934693244387353 3.994569313093236 1.0181417896245013 38 40 39
0.9241737877681985 4.0095574746944065 1.016088978190389 37 38 37
0.9898596648479906 4.027471849266602 1.01343243582562 130 131 126
1.0257104268069812 4.043121451089928 1.0112624875267398 168 169 164
1.0522689025566523 4.058095560095426 1.009240427213928 169 170 165
0.9794396703779709 4.064625288553571 1.0089496693317113 169 169 167
0.9924096050751604 1.7226329082974632 1.3096278706772309 166 166 168
1.3484236016712439 1.7217151014544796 1.3078287981345023 166 166 168
1.2924470335317915 1.7467671041584603 1.305052091423336 166 166 168
1.2405981277856444 1.7708352271055465 1.302374075436724 166 166 168
1.1745003373808627 1.7974236923136941 1.2994629863110811 166 166 168
1.1372914201589412 1.818356512271888 1.2970914829215592 164 164 166
1.0875315156720349 1.841495094187747 1.2945164305849493 165 165 167
1.0529572331180148 1.861658604210254 1.2922252785186426 148 148 150
1.0324654123694303 1.879125309729996 1.2901897693179802 123 123 125
1.0201496286663212 1.8950361418131796 1.2883014726466215 97 97 100
0.9804258269848181 1.9158188237940725 1.2859619167551823 76 76 79
0.9473906211924847 1.9352731364071096 1.2837496151921413 64 63 67
0.9286952187665876 1.9520852123468726 1.2817848716293339 54 53 58
0.8670146325580084 1.976327595798477 1.279138246681506 40 40 45
0.8356219628357167 1.995124527249284 1.2769978751067599 37 38 43
0.9603871458817868 1.9870913103038346 1.2773146531985282 35 36 41
0.9385008659303287 2.0043170313598577 1.2753162340331807 35 36 41
0.904781557608111 2.0234487889144597 1.2731472277120455 36 37 42
0.844445304273875 2.046882757484281 1.2705926865920665 37 38 43
1.3550897048393449 1.9762295259795148 1.2765293058668319 36 36 42
1.2960928766963125 1.9999841326391463 1.273928185863678 35 35 41
1.2439336213882641 2.0224342622808953 1.2714505853194982 37 34 41
1.1385109666037057 2.0531950768489176 1.2682381553217248 37 34 41
0.9550414477189558 2.0959097128536848 1.26397647368383 37 34 41
0.984675000905816 2.104746118750396 1.2627319056829949 35 33 39
0.8772439708975778 2.134839799094202 1.2596122092818018 34 33 39
0.8713758682826696 2.1490564136994004 1.2578974002133323 34 33 39
0.8452250770426468 2.1663120500084267 1.2559182069964698 34 34 39
0.622771743181085 2.212806075212673 1.2514016229372222 34 35 40
0.6976479804924685 2.2146224242796038 1.2507764196199649 36 37 42
0.7237787706376507 2.2238034780228286 1.2495083262496056 37 38 43
0.7516067845807648 2.232820588951598 1.2482512568864845 38 39 44
0.7743340796721245 2.2426527057546033 1.2469214660594732 39 39 45
0.8014089655091489 2.251941114707222 1.2456351156958965 40 40 46
0.8214606408656737 2.2622930809765434 1.244255836521643 31 31 37
0.8403128889585217 2.272871129990033 1.242855227088295 23 22 28
0.85577294390252 2.2839677661200763 1.2414091324053254 18 18 22
0.8782512128783242 2.2941661295839353 1.2400356903542509 14 14 18
0.8970385385125141 2.304923460984246 1.2386134071129746 14 13 19
0.9052510124535176 2.317124303337853 1.2370705953253236 14 15 20
0.8903220892793774 2.332343593652596 1.235281278005145 15 16 21
0.8742533933345821 2.347653449925378 1.2334869565040067 24 25 30
0.8951202681873933 2.358243107057335 1.232074102522702 34 34 40
0.8893886397794917 2.3722088081012314 1.2303893819580105 41 39 47
0.9214841796626545 2.381501027452964 1.2290756023762306 47 45 51
0.9672711754919772 2.3892335169213212 1.2278798909632473 55 53 58
1.001051506839538 2.3985473427606143 1.226554409899436 63 62 65
1.0444596512399777 2.4068313330301656 1.2253037285352604 67 66 69
1.0820804738276681 2.415925744503312 1.2239845759647037 77 76 78
1.0474850077464954 2.4334176199551125 1.2220217122503036 94 93 95
1.1605770075413375 2.4341013552157733 1.2213304148567865 93 93 91
1.14497347923635 2.4494820800092456 1.2195248901318485 102 101 100
1.1314406882688548 2.4645783510752737 1.217743186782682 151 150 150
1.0957349710668274 2.482020138706968 1.2157924377911244 167 166 164
1.0547227814342883 2.499903244751331 1.2138159747521933 165 164 162
0.9959439511329292 2.5195069967649086 1.2117235610986599 166 166 164
0.9631359291494133 2.5362334869574368 1.209845116068881 166 166 164
0.8190655181521698 2.5641374439309934 1.2071911532095287 166 164 164
0.8086244255112476 2.5782210449962553 1.2055172402600325 166 165 165
0.7441061473265285 2.5975749676593214 1.2034863359229584 167 165 167
0.7699910944428775 2.6079825200310194 1.2020689037799555 166 166 166
0.863366161595785 2.6120634980160737 1.2010661814362722 165 165 165
0.9227199424397455 2.619618454393693 1.199819423281008 165 165 165
0.9618903134694154 2.6292118610853636 1.1984306546658166 165 165 165
1.1833704148217892 2.622520019025452 1.19806329886786 164 165 165
1.1748907042035943 2.636867611743977 1.196346425353648 164 165 164
1.1479872254851775 2.6527794040184105 1.1945363473824382 165 166 166
1.1267297259521107 2.668116899206065 1.1927664949430554 165 165 164
1.0665996132011148 2.6866231522851876 1.190816150817242 99 98 97
1.0131656598333962 2.704379141674717 1.1889220078484426 48 47 49
0.9608580835197953 2.721864441004911 1.1870550668343944 28 26 31
0.9513268276322826 2.7358129351036675 1.1853928641012028 17 17 19
0.9008693892669446 2.7528727136212137 1.1835682572983797 16 16 18
0.8575611772473393 2.769223892539501 1.1817923007839035 15 15 17
0.7933032437662837 2.7869712876970274 1.1799573388124671 32 32 35
0.8041765869069065 2.7990919946556847 1.1784100815871488 38 38 43
0.7924850962178805 2.812831117601656 1.1767851978695998 23 24 27
0.8109057958242634 2.8244557886139905 1.1752583423506813 31 32 34
0.8241977982234242 2.836479246357444 1.1737100425711677 36 37 41
0.8313700155614973 2.848941345170554 1.172140725149306 40 40 45
0.8422409134837511 2.861184919553732 1.1705783884341963 45 45 49
0.8304623584223638 2.8748684656295227 1.168960799132258 50 49 52
0.9067155164430811 2.883170287663882 1.1675315480195665 49 50 50
0.8512278831591443 2.8994884921455695 1.1658250460710045 48 48 51
0.8005118014337589 2.9153470437139535 1.164149382869794 43 44 48
0.770534575546233 2.929878902101048 1.1625253175060613 38 38 40
0.836163148258003 2.9391317461352124 1.1610363006038262 32 31 33
0.8900984320663099 2.9492061001661334 1.1595091657218233 23 24 26
1.0498100657780067 2.9540659826446696 1.158054534715336 20 21 23
1.087847922549983 2.9654337036147616 1.1564538969660882 21 22 24
1.0900021809566036 2.978629101515135 1.1548214502420593 22 23 25
1.1073895365063424 2.9911244593654027 1.1531931915924687 24 25 27
1.1626216541853536 3.0019893226247083 1.1515619891561832 26 26 28
1.1635679943150206 3.0153507406414657 1.1499156356611897 26 26 28
1.0762426782746912 3.03234497895686 1.1482970619304826 22 22 24
0.7318209317827362 3.07191292245902 1.1452862308615557 19 19 21
0.7336965075139243 3.0845280030532494 1.1437265649013035 19 19 21
0.9824136307046171 3.088572327527472 1.141894150394654 17 17 19
0.8348746783412682 3.106534159111878 1.1404800709825436 15 15 17
0.7432710356258998 3.122252628247314 1.1390411832691587 15 15 17
0.7018763235444232 3.1361697157657846 1.1375539467569764 15 15 17
0.6766790127856728 3.14948999428894 1.1360530394026973 16 16 18
0.6301782912942013 3.1632917192048735 1.1346073931683358 18 19 21
0.5957640220770766 3.176635522431183 1.1331530916434602 20 21 23
0.6351385867686592 3.1881333294664764 1.1315292963720376 21 22 24
0.6267142454017645 3.20079619814019 1.1300190713514213 21 22 24
0.6167102732231147 3.213458588562592 1.1285173877735053 24 27 28
0.6547958838548569 3.225188088186062 1.126872053911981 29 31 33
0.6657112034651594 3.2374968981772656 1.1253014653277578 35 35 37
0.6485677761521226 3.2502677254432317 1.1238248009617748 38 38 42
0.6416111524126127 3.2628375754576204 1.1223181203235164 38 38 42
0.6768935000167748 3.274864588441095 1.1206512945842688 37 37 41
0.7332099897471811 3.2867766501343585 1.11888563468648 34 34 38
0.7740049823200517 3.2990034845021188 1.1171646603838854 26 26 28
0.8586822482546904 3.3110315341008 1.1152324541454162 24 24 26
0.849827557968064 3.3238665741527953 1.1137033911674643 26 26 28
0.8628321067199117 3.3365763441436145 1.1120723307426512 27 28 30
0.8603210127635172 3.349362382135181 1.1105152215854308 29 29 31
0.8821704234393077 3.362110972952699 1.108831895193116 28 28 30
0.9072206494918538 3.3749259702466468 1.1071232231152668 26 26 28
0.9185062399933484 3.3877851209704657 1.1054830441553603 24 24 26
0.8917747733733195 3.400529953548614 1.1040610611366257 25 25 27
0.8580300813204242 3.4131459919147633 1.1026925601341693 23 23 25
0.8537210889404079 3.4258550420189593 1.1011545627136539 18 18 20
0.8903330751290419 3.4388968782266254 1.0993559392811987 14 14 16
0.8942205097519058 3.451716428189517 1.0977603532099671 12 12 14
0.9724141644948314 3.4654190438249977 1.095657266231918 12 12 14
0.8656554053021772 3.476890005807644 1.0948215117241353 11 11 13
0.4920848630093165 3.5566860163709535 1.0870257308259756 11 11 13
0.5079487977324811 3.569193338030414 1.0854041834278538 12 12 14
0.4872542669317469 3.5807333257987675 1.0840977808436543 13 13 15
0.4796739593396807 3.5925865253108684 1.082682480353412 13 13 15
0.4761596896339776 3.6045360684676035 1.0812335105088395 13 13 15
0.46516781048641276 3.616226653834197 1.0798565053014195 13 13 15
0.4415098894334992 3.6274461178064685 1.0786053883339786 13 13 15
0.5361509553862178 3.6427999503346244 1.0762111480173093 12 12 14
0.5753205020910181 3.6563844122626366 1.0743321360413722 12 12 14
0.5411449452668413 3.6672425479331268 1.0731818836524425 12 12 14
0.5919567532367739 3.6814186487175364 1.0711676772301548 12 12 14
0.5763972379997029 3.6929656859095186 1.0698328334298568 13 13 15
0.6011119788356312 3.7062117545433613 1.0680730115723023 13 13 15
0.5918902976066602 3.717999674919179 1.0666745440093255 13 13 15
0.6075824443860498 3.730916674446517 1.065003595671083 13 13 15
0.6311955364502366 3.744260449388839 1.0632376878081944 13 13 15
0.6680906237613089 3.7583357412448772 1.0613105978964328 14 14 16
0.6954407892720866 3.7720313549924707 1.0594814030693103 14 14 16
0.6970785526363731 3.7844450627612325 1.0579477501331418 14 13 15
0.7060252758033077 3.7972576681411137 1.0563258484803262 15 14 15
0.7640503776931532 3.8128494731320552 1.0540990059733248 19 17 19
0.76618420347804 3.825391969932118 1.0525468691463442 24 23 26
0.7351160020280936 3.83596676077187 1.0514147352297014 33 32 35
0.7563107855077351 3.8496204148227755 1.0496237492976899 42 42 43
0.776703297636753 3.863285409018647 1.0478356786174547 55 55 56
0.8138032622239968 3.8780790225701027 1.0458192522860565 62 62 60
0.8246321992931355 3.891260644504469 1.0441419143000161 67 68 68
0.8226957637789778 3.9036135700412293 1.042634921274083 70 71 70
0.8874199740329495 3.9205373994863666 1.040208482823371 72 73 71
0.8880890629523647 3.933155443360985 1.0386549317578393 66 68 66
0.8621390026929842 3.9438569310785843 1.0374797501508948 56 58 57
0.8653070078525786 3.9566103498456218 1.0358961507850513 54 56 55
0.8615230110414058 3.968846914910319 1.0344133725836566 62 63 64
0.8831768515946701 3.9830144003799814 1.0325568041709403 66 68 64
0.8929432442405865 3.996315463050532 1.0308705004033516 63 65 61
0.9233689552991 4.011288636712967 1.0288678585854594 37 39 35
0.9835426789513824 4.028769609030345 1.0263974189192884 118 119 114
0.9962236099504553 4.042499112056383 1.024642835765261 168 169 164
1.0153179044873106 4.056804252168049 1.0227831032090442 169 170 165
0.9935069935653082 4.067647150161523 1.0215683238024023 169 170 166
1.3466571489816044 1.7379669903886483 1.320016955395078 166 166 168
1.2949007832863024 1.7620999580501973 1.3172407633920027 166 166 168
1.2332993226531617 1.7879168503373795 1.3142941595077073 166 166 168
1.1842006190976435 1.8111740519547186 1.3116157995515425 166 166 168
1.1476750609002222 1.831921624951794 1.3091992600571094 165 165 167
1.0656819456181272 1.8609207313594216 1.3059372977567156 165 165 167
1.0519323649844263 1.8771748309859149 1.303988559777532 163 163 165
1.041100921148009 1.8928487309826048 1.302100309464667 138 138 140
1.0213222821146855 1.9100843699715733 1.3000533262710248 80 80 82
0.965375869856207 1.933671268282054 1.2973599933059166 65 65 67
0.9240195981720252 1.9544978976485794 1.294951783381023 50 49 54
0.8311763290276764 1.9841518798009354 1.2916497950393935 49 48 54
0.7865009943583177 2.005176316403342 1.289229651156812 44 44 49
0.8105627858044979 2.0142978281435147 1.2880172647563692 40 41 46
0.9367407298711301 2.0062125949716343 1.2885405184572944 39 40 45
0.8908836638978943 2.027369948135152 1.2861084360849202 39 40 45
0.8447262760407634 2.0484179735525747 1.2836909295926031 39 40 45
1.3619207367161368 1.9909582542386408 1.2888282553405812 37 38 43
1.2830911311993392 2.0178000846623 1.2858199293751718 38 37 43
1.1678970678445866 2.0501624048048024 1.2822682185754815 38 37 43
1.0583183811834145 2.0812497519044983 1.2788524076353318 38 37 43
0.9061469963803828 2.11860504916374 1.274824515611818 38 37 43
0.9445577655214334 2.1260572670237927 1.2737639046607723 38 37 43
0.8822141556430964 2.1490013475711147 1.2711735866309157 38 37 43
