ply
format ascii 1.0
element vertex 884
property float x
property float y
property float z
property float nx
property float ny
property float nz
property uchar diffuse_red
property uchar diffuse_green
property uchar diffuse_blue
property uchar class
property uchar detection
end_header
1.4713 3.1285 0.7502 0.639 -0.589 0.495 35 35 37 0 0
1.4537 3.0892 0.7546 0.089 -0.983 0.163 43 43 45 0 0
0.9784 1.9344 0.8747 0.993 -0.080 0.084 56 54 55 0 0
0.7402 1.7578 0.9305 -0.655 -0.743 -0.136 48 46 47 0 0
1.6451 3.9251 0.7184 0.990 0.061 -0.125 168 166 167 0 0
1.5861 3.5175 0.7356 -0.677 -0.696 -0.238 31 31 33 0 0
1.5472 3.2862 0.7466 0.776 -0.378 0.505 21 21 23 0 0
1.5066 3.1232 0.7573 0.800 -0.264 0.539 31 31 33 0 0
1.4727 3.1344 0.7649 0.621 -0.545 0.563 35 35 37 0 0
1.4718 3.0900 0.7655 -0.116 -0.868 0.483 37 37 39 0 0
1.0929 1.8041 0.8635 -0.841 -0.519 0.152 54 52 53 0 0
0.9489 1.8201 0.8959 0.678 -0.483 0.554 72 70 73 0 0
0.9378 1.8141 0.8985 0.666 -0.380 0.642 73 71 74 0 0
0.8169 1.8362 0.9256 -0.689 -0.723 -0.043 71 68 69 0 0
1.5855 3.5848 0.7509 0.036 -0.951 -0.308 32 32 34 0 0
1.5808 3.5471 0.7523 0.015 -0.932 -0.361 31 31 33 0 0
1.5410 3.3170 0.7631 0.657 -0.302 0.690 22 22 24 0 0
0.9253 1.7869 0.9148 0.632 -0.584 0.509 82 81 79 0 0
0.8209 1.8333 0.9381 -0.660 -0.690 -0.296 88 86 83 0 0
1.5356 3.2953 0.7798 0.969 0.056 0.240 24 24 26 0 0
1.4725 3.0609 0.7957 0.340 -0.940 -0.002 38 38 40 0 0
0.8299 1.8199 0.9495 -0.652 -0.697 -0.299 76 73 73 0 0
0.8277 1.7950 0.9501 -0.656 -0.505 -0.562 66 65 65 0 0
0.7638 1.7254 0.9651 0.154 -0.851 -0.502 59 57 58 0 0
1.6085 3.5951 0.7930 0.883 -0.369 -0.291 34 34 36 0 0
0.8846 1.8334 0.9636 -0.195 -0.970 0.148 59 56 60 0 0
0.8702 1.8344 0.9669 -0.383 -0.821 0.424 37 34 37 0 0
1.5799 3.5432 0.8155 -0.735 -0.674 0.072 32 32 35 0 0
1.5586 3.5619 0.8203 -0.536 -0.840 0.076 34 33 38 0 0
1.4732 3.2316 0.8403 0.996 0.048 0.073 34 34 36 0 0
1.4517 3.0155 0.8456 0.934 -0.332 0.132 41 41 43 0 0
1.4445 2.9914 0.8472 -0.248 -0.907 -0.340 45 45 47 0 0
1.6608 3.9457 0.8128 0.970 0.125 -0.207 167 167 167 0 0
1.5842 3.5400 0.8303 0.213 -0.847 -0.488 32 32 35 0 0
1.5630 3.5588 0.8351 -0.524 -0.848 -0.078 34 33 38 0 0
1.4727 3.2436 0.8558 0.987 0.035 0.155 33 33 35 0 0
1.4529 2.9756 0.8602 0.263 -0.762 -0.592 42 42 44 0 0
0.7874 1.6983 1.0125 -0.405 -0.733 -0.546 38 36 39 0 0
1.4430 2.9700 0.8774 0.416 -0.764 -0.493 43 43 43 0 0
0.7501 1.7238 1.0343 -0.141 -0.827 -0.545 31 31 33 0 0
0.7360 1.7244 1.0375 -0.155 -0.767 -0.623 27 27 29 0 0
1.5960 3.5232 0.8590 0.438 -0.777 -0.453 32 32 34 0 0
0.7671 1.7228 1.0436 -0.345 -0.835 -0.429 33 33 35 0 0
0.7563 1.7166 1.0461 -0.096 -0.868 -0.487 31 31 33 0 0
0.7426 1.7163 1.0492 -0.096 -0.868 -0.487 22 22 24 0 0
0.7270 1.7198 1.0528 -0.470 -0.815 -0.338 25 24 29 0 0
1.6550 3.5475 0.8613 0.292 -0.932 0.213 47 48 50 0 0
1.5571 3.4545 0.8834 0.159 -0.987 -0.008 21 21 23 0 0
1.4354 2.9217 0.9088 0.114 -0.670 -0.734 41 41 43 0 0
0.9491 1.6917 1.0147 0.172 -0.985 -0.017 32 31 36 0 0
0.7510 1.7043 1.0605 0.269 -0.930 -0.252 21 21 23 0 0
0.7092 1.7332 1.0703 -0.647 -0.762 -0.002 32 32 35 0 0
0.6830 1.7583 1.0764 -0.771 -0.629 0.095 33 33 35 0 0
0.5551 1.8738 1.1065 0.752 -0.245 -0.611 64 64 62 0 0
1.6572 3.5517 0.8766 0.292 -0.932 0.213 48 49 52 0 0
1.5613 3.4517 0.8981 0.253 -0.965 -0.066 23 23 25 0 0
1.4321 2.8962 0.9242 0.482 -0.789 -0.381 40 39 43 0 0
1.4201 2.8875 0.9269 0.482 -0.789 -0.381 43 42 46 0 0
1.3892 2.8470 0.9338 0.849 -0.486 -0.207 54 53 56 0 0
0.7708 1.6975 1.0691 -0.149 -0.977 -0.155 28 28 29 0 0
0.7548 1.7020 1.0728 0.269 -0.930 -0.252 19 19 20 0 0
0.7424 1.6990 1.0756 0.382 -0.910 -0.163 23 22 26 0 0
0.7138 1.7293 1.0825 -0.647 -0.762 -0.002 36 36 39 0 0
0.5620 1.8654 1.1184 0.752 -0.245 -0.611 78 78 76 0 0
1.6594 3.5562 0.8919 0.303 -0.929 0.213 49 50 53 0 0
1.4224 2.8902 0.9413 0.802 -0.500 0.326 39 38 42 0 0
1.3805 2.7947 0.9502 0.858 -0.513 0.008 54 54 56 0 0
0.7756 1.6929 1.0811 -0.158 -0.974 -0.164 30 30 30 0 0
0.7584 1.7000 1.0852 0.264 -0.927 -0.266 24 24 24 0 0
0.7459 1.6973 1.0880 0.439 -0.847 -0.300 22 22 24 0 0
0.7183 1.7254 1.0947 -0.647 -0.762 -0.002 33 33 35 0 0
0.5731 1.8485 1.1293 0.722 -0.262 -0.641 106 105 103 0 0
1.6631 3.5552 0.9068 0.516 -0.813 0.269 48 49 53 0 0
1.6035 3.4903 0.9200 0.042 -0.982 0.183 38 38 40 0 0
1.4296 2.9227 0.9547 0.721 -0.371 0.586 42 42 44 0 0
1.4210 2.9035 0.9565 0.748 -0.468 0.471 38 38 40 0 0
1.4034 2.8674 0.9603 0.937 -0.249 0.244 41 41 43 0 0
1.4016 2.8290 0.9603 0.954 -0.097 0.283 48 48 50 0 0
1.2926 2.3227 0.9806 0.692 -0.623 0.364 43 44 46 0 0
1.2893 2.2938 0.9811 0.718 -0.678 0.158 42 43 46 0 0
1.2616 2.1105 0.9857 -0.183 -0.752 -0.634 28 29 31 0 0
1.2401 2.0944 0.9905 -0.295 -0.402 -0.867 26 27 29 0 0
0.7796 1.6902 1.0934 -0.158 -0.974 -0.164 29 29 29 0 0
0.7628 1.6963 1.0973 0.092 -0.920 -0.381 25 25 26 0 0
0.7493 1.6957 1.1005 0.237 -0.905 -0.352 21 21 23 0 0
0.7216 1.7241 1.1072 -0.633 -0.767 0.108 32 32 34 0 0
1.6061 3.4932 0.9352 0.042 -0.982 0.183 37 37 39 0 0
1.5603 3.1838 0.9423 0.843 0.004 -0.537 32 32 34 0 0
1.5386 3.1556 0.9470 -0.844 -0.522 -0.125 33 33 35 0 0
1.4216 2.9112 0.9714 0.741 -0.365 0.564 39 39 41 0 0
1.4122 2.8947 0.9733 0.795 -0.476 0.376 36 36 38 0 0
1.4025 2.8791 0.9754 0.937 -0.249 0.244 37 37 39 0 0
1.4008 2.8403 0.9754 0.960 -0.078 0.269 40 40 42 0 0
1.3961 2.8105 0.9761 0.945 -0.166 0.281 45 45 47 0 0
1.3921 2.7792 0.9767 0.909 -0.376 0.181 50 50 52 0 0
1.2672 2.2849 1.0000 0.772 -0.071 0.631 49 50 52 0 0
0.8941 1.7154 1.0802 0.386 -0.756 0.528 14 14 16 0 0
0.8261 1.7429 1.0964 0.635 -0.676 0.374 11 11 13 0 0
0.7930 1.7253 1.1039 -0.439 -0.820 0.367 28 28 30 0 0
0.7828 1.6891 1.1058 -0.022 -0.999 0.041 28 28 28 0 0
0.7680 1.6911 1.1093 0.190 -0.873 -0.450 26 26 27 0 0
0.6312 1.7995 1.1423 -0.473 -0.872 0.131 40 38 41 0 0
1.6068 3.5023 0.9508 0.080 -0.960 0.268 38 37 42 0 0
1.5821 3.5329 0.9570 -0.734 -0.655 0.180 39 39 41 0 0
1.5591 3.5044 0.9620 0.342 -0.935 -0.097 31 31 33 0 0
1.5389 3.1649 0.9622 -0.730 -0.529 -0.433 34 34 36 0 0
1.4229 2.9166 0.9860 0.829 -0.281 0.484 38 38 42 0 0
1.3658 2.7784 0.9975 0.189 -0.977 0.098 43 43 45 0 0
1.3631 2.7438 0.9977 0.543 -0.638 0.547 45 45 47 0 0
1.3118 2.4015 1.0051 0.797 -0.297 0.526 51 52 54 0 0
1.1019 1.9038 1.0475 0.483 -0.522 0.703 31 30 35 0 0
0.9804 1.7421 1.0737 0.103 -0.976 -0.193 21 21 23 0 0
0.8922 1.7251 1.0940 0.367 -0.842 0.396 12 12 14 0 0
0.8205 1.7605 1.1112 0.670 -0.729 0.139 11 11 13 0 0
0.7926 1.7317 1.1173 -0.386 -0.844 0.371 28 28 30 0 0
0.7769 1.7356 1.1210 0.610 -0.724 0.321 32 32 34 0 0
0.7841 1.6917 1.1187 0.056 -0.998 0.038 28 28 30 0 0
0.7705 1.6913 1.1219 0.295 -0.854 -0.428 27 27 29 0 0
0.6182 1.8311 1.1592 0.460 -0.829 0.318 42 40 43 0 0
1.6075 3.5117 0.9666 0.173 -0.977 0.125 37 36 41 0 0
1.5716 3.5267 0.9752 0.624 -0.775 0.104 37 37 39 0 0
1.3787 2.7929 1.0094 0.645 -0.735 -0.210 35 35 37 0 0
1.3422 2.7278 1.0170 0.506 -0.863 0.004 36 36 38 0 0
1.3329 2.7124 1.0189 0.527 -0.663 -0.532 33 34 36 0 0
1.1038 1.9059 1.0605 -0.008 -0.936 -0.351 30 29 34 0 0
1.0986 1.8856 1.0614 -0.143 -0.987 0.078 30 29 34 0 0
1.0339 1.7505 1.0745 0.035 -0.937 -0.346 16 17 19 0 0
0.9853 1.7373 1.0857 0.474 -0.873 -0.114 15 15 17 0 0
0.9567 1.7399 1.0924 -0.047 -0.999 -0.026 16 14 17 0 0
0.9434 1.7390 1.0955 -0.271 -0.960 -0.072 18 16 19 0 0
0.8987 1.7169 1.1056 0.513 -0.857 0.046 12 12 14 0 0
0.8753 1.7376 1.1113 -0.262 -0.961 0.093 11 11 13 0 0
0.8389 1.7563 1.1201 -0.155 -0.982 0.106 11 11 13 0 0
0.8215 1.7640 1.1243 0.670 -0.729 0.139 11 11 13 0 0
0.7906 1.7413 1.1312 -0.263 -0.907 0.328 29 29 31 0 0
0.7883 1.7173 1.1314 0.557 -0.814 -0.165 34 34 36 0 0
0.7864 1.6924 1.1314 0.168 -0.985 0.044 29 29 31 0 0
0.6240 1.8248 1.1713 0.122 -0.871 0.476 41 39 42 0 0
1.6102 3.5141 0.9818 0.173 -0.977 0.125 36 35 40 0 0
1.5878 3.5368 0.9874 -0.719 -0.683 0.127 40 40 42 0 0
1.1363 1.8681 1.0657 0.709 -0.537 -0.457 30 29 34 0 0
1.1151 1.8857 1.0709 0.159 -0.835 -0.527 29 28 33 0 0
1.0963 1.8975 1.0755 0.046 -0.988 0.150 29 28 33 0 0
0.9801 1.7244 1.0999 0.351 -0.840 -0.414 29 28 31 0 0
0.8760 1.7418 1.1245 -0.288 -0.907 -0.308 11 11 13 0 0
0.8485 1.7712 1.1314 0.096 -0.995 0.014 11 11 13 0 0
0.8389 1.7622 1.1335 -0.298 -0.942 -0.156 11 11 13 0 0
0.8232 1.7661 1.1373 0.755 -0.619 0.216 12 12 14 0 0
0.7943 1.7103 1.1431 0.138 -0.965 -0.224 34 34 36 0 0
0.7894 1.6917 1.1439 0.056 -0.997 0.055 30 30 32 0 0
0.6519 1.8023 1.1779 -0.078 -0.904 0.421 35 35 37 0 0
0.6227 1.8329 1.1852 0.261 -0.814 0.518 41 39 42 0 0
1.6127 3.5170 0.9970 0.308 -0.921 0.240 36 36 39 0 0
1.5741 3.5416 1.0065 0.582 -0.811 0.065 38 38 40 0 0
1.4435 3.2072 1.0311 -0.466 -0.557 -0.688 48 48 50 0 0
1.4243 3.2190 1.0358 -0.505 -0.569 -0.649 54 54 56 0 0
1.4142 3.1555 1.0371 0.864 -0.115 -0.490 43 43 47 0 0
1.3298 2.5742 1.0464 0.479 -0.400 0.781 15 16 18 0 0
1.1293 1.8911 1.0811 0.256 -0.884 -0.390 29 28 34 0 0
1.1118 1.9000 1.0854 0.018 -0.986 -0.168 29 28 32 0 0
0.9865 1.7160 1.1114 0.442 -0.890 -0.109 37 36 40 0 0
0.9697 1.7229 1.1155 0.414 -0.799 -0.437 36 34 39 0 0
0.9570 1.7207 1.1184 0.105 -0.882 -0.459 39 37 42 0 0
0.8417 1.7619 1.1462 -0.240 -0.916 -0.320 11 11 13 0 0
0.7938 1.7168 1.1566 0.241 -0.967 -0.083 32 32 34 0 0
1.4525 3.1893 1.0440 -0.256 -0.830 -0.495 44 44 46 0 0
1.4345 3.1974 1.0484 -0.578 -0.683 -0.446 53 53 55 0 0
1.4212 3.1910 1.0514 0.919 -0.296 -0.260 52 51 56 0 0
1.2098 1.9696 1.0771 0.989 -0.149 0.020 30 31 33 0 0
1.0984 1.9054 1.1020 0.649 -0.232 -0.725 26 26 28 0 0
0.9886 1.7172 1.1241 0.451 -0.892 0.010 24 23 27 0 0
0.9742 1.7189 1.1275 0.422 -0.807 -0.413 25 23 28 0 0
0.9620 1.7156 1.1303 0.083 -0.937 -0.340 43 41 46 0 0
0.9495 1.7131 1.1332 -0.128 -0.914 -0.385 54 52 57 0 0
0.8478 1.7544 1.1579 0.454 -0.786 -0.420 12 12 14 0 0
0.7975 1.7147 1.1690 0.103 -0.959 0.265 33 33 35 0 0
0.7085 1.7549 1.1906 -0.638 -0.661 0.395 33 33 35 0 0
0.6212 1.8468 1.2129 0.199 -0.902 0.384 40 42 41 0 0
1.6303 3.5341 1.0249 0.502 -0.857 0.115 34 33 37 0 0
1.6159 3.5295 1.0281 0.351 -0.824 0.445 36 36 38 0 0
1.4597 3.1771 1.0574 -0.225 -0.892 -0.391 40 40 42 0 0
1.4423 3.1836 1.0617 -0.563 -0.758 -0.330 51 50 53 0 0
1.1887 2.5374 1.1076 0.885 0.007 0.465 15 15 17 0 0
1.1353 1.9559 1.1079 0.258 -0.883 0.393 29 28 33 0 0
1.1032 1.9005 1.1142 0.504 -0.561 -0.657 25 25 27 0 0
0.9908 1.7184 1.1368 0.451 -0.892 0.010 55 55 58 0 0
0.9793 1.7135 1.1394 0.496 -0.810 -0.313 69 67 70 0 0
0.9682 1.7079 1.1419 0.370 -0.896 -0.244 75 73 76 0 0
0.9548 1.7074 1.1451 -0.128 -0.914 -0.385 60 58 61 0 0
0.8483 1.7593 1.1712 0.081 -0.996 0.032 13 13 15 0 0
0.5812 1.8468 1.2359 0.050 -0.965 0.258 162 159 159 0 0
1.7196 3.4517 1.0178 0.395 -0.866 -0.307 59 58 63 0 0
1.6339 3.5333 1.0398 0.212 -0.958 -0.195 33 33 37 0 0
1.6196 3.5286 1.0431 0.257 -0.961 -0.098 36 36 38 0 0
1.6058 3.5219 1.0462 -0.080 -0.983 0.165 39 39 41 0 0
1.1898 2.2438 1.1151 0.898 -0.300 0.324 22 23 25 0 0
1.1834 2.2241 1.1162 0.934 -0.212 0.288 39 40 44 0 0
1.1624 1.9640 1.1152 0.430 -0.882 -0.194 31 30 35 0 0
0.9833 1.7106 1.1516 0.544 -0.807 -0.230 76 74 77 0 0
0.9717 1.7060 1.1542 0.370 -0.896 -0.244 97 95 98 0 0
0.9603 1.7012 1.1568 0.147 -0.965 -0.217 90 88 91 0 0
0.5863 1.8421 1.2482 0.359 -0.933 0.014 165 161 162 0 0
1.7239 3.4485 1.0323 0.395 -0.866 -0.307 58 59 61 0 0
1.6506 3.5420 1.0519 0.273 -0.897 -0.349 33 34 38 0 0
1.6349 3.5418 1.0556 0.011 -0.964 -0.266 33 34 38 0 0
1.6232 3.5280 1.0581 0.257 -0.961 -0.098 36 35 40 0 0
1.6083 3.5253 1.0615 -0.062 -0.977 0.205 40 39 44 0 0
1.1785 2.2079 1.1308 0.912 -0.334 -0.240 36 35 40 0 0
1.1654 2.1346 1.1321 0.811 -0.579 -0.087 48 49 51 0 0
1.1409 1.9556 1.1335 0.178 -0.725 -0.665 32 33 37 0 0
1.1416 1.9210 1.1326 -0.380 -0.896 -0.230 31 30 35 0 0
0.9750 1.7047 1.1666 0.510 -0.853 -0.113 29 28 33 0 0
0.9636 1.6997 1.1692 0.405 -0.854 -0.326 24 23 27 0 0
0.6000 1.8485 1.2587 0.175 -0.975 -0.134 100 99 100 0 0
0.5892 1.8417 1.2611 0.223 -0.952 -0.210 165 164 163 0 0
1.6928 3.4609 1.0557 0.370 -0.904 -0.215 36 37 42 0 0
1.6858 3.4309 1.0566 0.181 -0.943 -0.278 34 35 39 0 0
1.6395 3.5377 1.0703 0.011 -0.964 -0.266 33 34 38 0 0
1.6261 3.5297 1.0733 0.054 -0.998 -0.034 35 34 39 0 0
1.3177 2.9027 1.1299 0.918 -0.180 0.353 29 29 31 0 0
1.1788 2.1787 1.1439 0.474 -0.497 -0.727 31 31 34 0 0
1.1728 2.1584 1.1448 -0.275 -0.653 -0.705 55 55 57 0 0
1.1583 2.1594 1.1483 -0.208 -0.688 -0.695 58 58 61 0 0
1.1464 2.1189 1.1500 0.665 -0.569 -0.484 43 43 48 0 0
1.1439 1.9551 1.1464 0.607 -0.563 -0.560 34 35 39 0 0
0.9505 1.7043 1.1856 0.474 -0.800 0.367 14 13 16 0 0
0.9333 1.6821 1.1891 0.438 -0.866 0.239 14 13 16 0 0
0.8207 1.8057 1.2190 0.076 -0.832 0.550 15 15 17 0 0
0.5876 1.9079 1.2768 0.543 -0.732 -0.412 64 64 66 0 0
0.6033 1.8473 1.2715 0.097 -0.978 -0.182 114 114 114 0 0
0.5734 1.8502 1.2787 -0.248 -0.956 -0.159 172 171 169 0 0
1.6995 3.4491 1.0695 0.167 -0.962 -0.214 38 39 44 0 0
1.6891 3.4313 1.0715 0.588 -0.725 -0.358 35 36 40 0 0
1.3175 2.9126 1.1452 0.983 -0.040 0.179 30 30 32 0 0
1.1802 2.1470 1.1566 -0.112 -0.684 -0.721 33 33 35 0 0
1.1666 2.1458 1.1598 -0.112 -0.684 -0.721 56 57 59 0 0
1.1525 2.1457 1.1631 -0.313 -0.709 -0.632 52 55 58 0 0
1.1534 2.1087 1.1619 0.389 -0.799 -0.457 47 48 52 0 0
1.0624 1.7657 1.1740 0.390 -0.918 0.072 44 44 46 0 0
1.0497 1.7635 1.1769 0.250 -0.964 -0.093 39 39 41 0 0
1.0399 1.7546 1.1790 0.591 -0.756 -0.280 37 37 39 0 0
1.0263 1.7544 1.1822 0.618 -0.779 -0.107 33 33 35 0 0
0.9999 1.7523 1.1884 0.718 -0.615 0.325 19 19 21 0 0
0.9729 1.7210 1.1939 0.630 -0.736 0.246 15 15 18 0 0
0.9627 1.7135 1.1962 0.690 -0.696 0.199 16 15 18 0 0
0.9565 1.6971 1.1972 0.904 -0.425 0.046 16 16 18 0 0
0.7748 1.7610 1.2421 -0.379 -0.918 -0.113 31 31 33 0 0
1.6477 3.5331 1.1000 -0.017 -0.875 -0.485 33 34 38 0 0
1.6325 3.5312 1.1035 -0.286 -0.900 -0.328 36 35 40 0 0
1.5992 3.5375 1.1116 0.895 -0.411 -0.173 41 40 45 0 0
1.5692 3.4793 1.1170 0.916 -0.364 0.169 32 32 34 0 0
1.3547 3.2182 1.1604 -0.574 -0.672 -0.468 21 21 23 0 0
1.3336 3.2351 1.1659 0.829 -0.335 -0.448 19 19 21 0 0
1.3285 3.2036 1.1662 0.937 -0.179 -0.300 20 21 23 0 0
1.3206 3.1810 1.1674 0.930 -0.174 -0.323 29 30 32 0 0
1.3032 3.1866 1.1717 0.104 -0.627 -0.772 36 36 40 0 0
1.1813 2.1513 1.1703 0.921 -0.371 -0.120 17 16 19 0 0
1.1751 2.1316 1.1712 -0.204 -0.799 -0.565 35 35 38 0 0
1.1592 2.1363 1.1751 -0.306 -0.766 -0.566 54 57 59 0 0
1.1426 2.1077 1.1782 0.169 -0.929 -0.328 49 49 52 0 0
1.1340 1.9589 1.1759 0.456 -0.249 -0.854 41 40 44 0 0
0.8274 1.8027 1.2442 -0.400 -0.912 0.087 26 25 29 0 0
0.6572 1.8644 1.2864 -0.196 -0.980 0.020 47 48 52 0 0
0.6104 1.9018 1.2986 0.599 -0.247 -0.762 66 66 68 0 0
0.4954 1.8453 1.3243 0.356 -0.704 0.614 171 171 171 0 0
1.7408 3.9617 1.1069 0.939 -0.335 -0.078 167 167 167 0 0
1.7083 3.4420 1.0986 -0.143 -0.979 -0.145 38 39 44 0 0
1.6216 3.5265 1.1218 -0.368 -0.916 0.160 39 38 43 0 0
1.6030 3.5361 1.1266 0.877 -0.480 0.035 40 39 44 0 0
1.5748 3.4718 1.1313 0.883 -0.423 0.203 33 33 35 0 0
1.3816 3.1935 1.1687 -0.530 -0.823 -0.203 25 26 28 0 0
1.3569 3.2215 1.1754 -0.187 -0.720 -0.669 20 21 23 0 0
1.3388 3.2292 1.1800 0.829 -0.335 -0.448 18 19 21 0 0
1.3328 3.2005 1.1805 0.914 -0.174 -0.367 18 19 21 0 0
1.3010 3.1571 1.1868 -0.347 -0.814 -0.466 36 36 38 0 0
1.2853 3.0236 1.1864 0.583 -0.472 0.661 30 30 32 0 0
1.0716 2.7356 1.2283 0.284 -0.356 0.890 10 10 12 0 0
1.1709 2.1142 1.1854 0.495 -0.799 0.340 41 41 43 0 0
1.1593 2.1081 1.1880 0.669 -0.709 0.224 57 57 59 0 0
1.1496 2.0974 1.1900 0.764 -0.629 0.144 51 51 53 0 0
1.1448 2.0747 1.1904 0.849 -0.497 0.180 50 49 54 0 0
1.1330 1.9678 1.1899 0.726 -0.158 -0.669 47 47 49 0 0
0.9585 1.7646 1.2252 -0.116 -0.920 -0.375 32 31 37 0 0
0.9446 1.7650 1.2285 -0.116 -0.920 -0.375 31 30 36 0 0
0.9430 1.7381 1.2281 0.135 -0.967 0.216 32 30 35 0 0
0.9202 1.7580 1.2341 -0.337 -0.657 -0.675 32 29 35 0 0
0.8443 1.8022 1.2536 -0.046 -0.985 -0.166 30 29 34 0 0
0.8339 1.7947 1.2558 -0.386 -0.901 0.201 32 28 34 0 0
1.6285 3.5144 1.1357 -0.212 -0.954 -0.214 38 37 42 0 0
1.3678 3.1983 1.1876 -0.431 -0.810 -0.398 21 22 24 0 0
1.3421 3.2292 1.1947 0.806 -0.482 -0.343 18 19 21 0 0
1.3363 3.1998 1.1951 0.978 -0.125 -0.166 17 18 20 0 0
1.3303 3.1717 1.1957 0.966 -0.211 -0.148 26 27 29 0 0
1.3068 3.1495 1.2005 -0.229 -0.851 -0.473 36 36 38 0 0
1.2352 2.7482 1.2046 -0.408 -0.236 -0.882 8 8 10 0 0
1.1733 2.1152 1.1987 0.734 -0.510 0.449 20 20 22 0 0
1.1606 2.1120 1.2016 0.571 -0.734 0.366 52 52 54 0 0
1.1506 2.1018 1.2037 0.764 -0.629 0.144 54 54 56 0 0
1.1331 1.9743 1.2037 0.596 -0.528 -0.605 55 55 57 0 0
1.1323 1.9430 1.2029 -0.065 -0.996 -0.056 49 49 51 0 0
1.1144 1.9526 1.2075 0.148 -0.894 -0.423 44 43 48 0 0
1.0863 1.8238 1.2100 0.601 -0.456 0.656 27 25 28 0 0
1.0765 1.7832 1.2110 0.539 -0.733 0.416 40 38 41 0 0
0.8649 1.8541 1.2638 -0.257 -0.928 0.270 39 36 45 0 0
0.8629 1.8280 1.2634 0.764 -0.645 -0.007 40 37 45 0 0
0.8436 1.8095 1.2674 0.771 -0.563 -0.297 42 37 42 0 0
0.8427 1.7816 1.2667 -0.355 -0.896 0.267 43 37 43 0 0
0.8149 1.7815 1.2734 0.852 -0.498 0.159 45 40 45 0 0
0.8113 1.7595 1.2735 -0.315 -0.691 0.651 48 43 47 0 0
1.6330 3.5108 1.1503 -0.133 -0.826 -0.548 37 36 41 0 0
1.6179 3.5086 1.1539 -0.255 -0.870 -0.422 41 40 45 0 0
1.3692 3.2041 1.2029 -0.135 -0.926 -0.354 21 22 24 0 0
1.3454 3.2290 1.2094 0.824 -0.524 -0.217 18 19 21 0 0
1.3382 3.2042 1.2103 0.996 -0.074 -0.056 16 17 19 0 0
1.3244 3.1528 1.2119 0.946 -0.324 -0.003 33 33 35 0 0
1.3081 3.1553 1.2159 -0.074 -0.997 0.032 36 36 38 0 0
1.1377 1.9699 1.2160 0.860 -0.423 -0.285 57 57 59 0 0
1.1356 1.9418 1.2156 0.177 -0.984 0.015 56 56 58 0 0
1.0402 1.7784 1.2328 0.194 -0.958 -0.210 39 37 40 0 0
0.9126 1.8167 1.2646 -0.743 -0.611 0.273 45 43 48 0 0
0.8688 1.8821 1.2773 -0.800 -0.569 0.191 45 42 47 0 0
0.8477 1.7766 1.2788 -0.261 -0.940 -0.217 47 45 48 0 0
0.8335 1.7772 1.2822 0.958 -0.217 0.185 48 47 51 0 0
0.8280 1.7593 1.2829 0.860 -0.458 -0.226 50 49 53 0 0
1.6394 3.5005 1.1643 -0.133 -0.826 -0.548 37 36 41 0 0
1.5892 3.5109 1.1767 -0.047 -0.880 -0.472 38 37 41 0 0
1.3758 3.1941 1.2165 -0.104 -0.980 -0.171 22 22 26 0 0
1.3538 3.2137 1.2224 0.260 -0.955 -0.145 19 18 22 0 0
1.3395 3.2099 1.2257 0.998 -0.045 0.035 16 16 20 0 0
1.3150 3.1447 1.2293 -0.159 -0.968 0.195 36 36 38 0 0
1.2932 3.1632 1.2351 -0.321 -0.947 0.015 37 37 39 0 0
1.2901 3.0819 1.2330 0.870 -0.341 -0.356 33 33 35 0 0
1.2802 2.6823 1.2210 -0.344 -0.575 -0.743 9 9 11 0 0
1.1372 1.9445 1.2288 0.883 -0.411 0.229 50 48 51 0 0
1.1231 1.9450 1.2322 0.335 -0.752 -0.567 53 51 55 0 0
1.1121 1.9383 1.2346 0.335 -0.752 -0.567 50 50 52 0 0
0.6331 1.9363 1.3493 0.997 0.024 -0.075 156 154 155 0 0
1.7286 4.0009 1.1775 0.153 -0.983 -0.106 168 166 167 0 0
1.6581 3.5016 1.1757 0.606 -0.600 -0.522 33 32 37 0 0
1.6446 3.4941 1.1787 -0.240 -0.880 -0.409 35 34 39 0 0
1.6017 3.4800 1.1884 0.564 -0.316 -0.763 38 37 42 0 0
1.3389 3.2216 1.2418 1.000 -0.025 0.004 17 16 21 0 0
1.3329 3.1470 1.2405 0.829 -0.558 0.050 29 29 31 0 0
1.3190 3.1424 1.2436 0.406 -0.912 0.060 37 37 39 0 0
1.2987 3.1566 1.2490 -0.346 -0.916 0.201 39 39 41 0 0
1.1317 1.9312 1.2432 0.672 -0.668 0.320 53 51 54 0 0
1.1155 1.9366 1.2473 0.369 -0.929 -0.016 52 52 54 0 0
1.7617 4.0131 1.1867 0.542 -0.794 -0.276 169 167 168 0 0
1.7325 3.9999 1.1932 0.153 -0.983 -0.106 168 166 167 0 0
1.6862 3.5252 1.1857 0.941 -0.331 -0.071 35 34 39 0 0
1.6504 3.4859 1.1928 -0.240 -0.880 -0.409 34 33 38 0 0
1.3426 3.2204 1.2564 0.995 -0.095 -0.019 17 16 21 0 0
1.3389 3.1849 1.2559 0.981 -0.195 -0.010 18 17 22 0 0
1.3232 3.1395 1.2579 0.774 -0.633 -0.014 37 37 39 0 0
1.3067 3.1425 1.2620 0.115 -0.993 -0.034 40 40 42 0 0
1.2608 2.5903 1.2515 -0.622 -0.688 -0.374 10 10 12 0 0
1.2410 2.6042 1.2568 -0.556 -0.624 -0.549 9 9 11 0 0
1.2271 2.6019 1.2600 -0.362 -0.644 -0.674 9 9 11 0 0
1.1178 1.9379 1.2604 0.186 -0.976 0.117 51 50 52 0 0
1.1112 1.8878 1.2600 0.885 -0.426 0.186 49 49 51 0 0
0.8631 1.9125 1.3206 -0.774 -0.544 0.323 33 32 34 0 0
1.7363 3.9989 1.2088 0.054 -0.988 0.144 167 165 166 0 0
1.7032 3.5327 1.1978 0.531 -0.847 -0.033 39 39 45 0 0
1.3453 3.2223 1.2714 0.969 -0.245 -0.007 17 16 21 0 0
1.3403 3.1907 1.2713 0.980 -0.201 0.004 17 16 21 0 0
1.3243 3.1459 1.2734 0.954 -0.295 0.055 35 35 37 0 0
1.3106 3.1408 1.2765 0.615 -0.789 0.006 39 39 41 0 0
1.2927 3.1479 1.2811 0.603 -0.797 -0.036 37 37 39 0 0
1.2905 3.0641 1.2782 0.486 -0.812 -0.322 34 34 36 0 0
1.2497 2.6691 1.2719 -0.157 -0.942 0.295 12 12 14 0 0
1.1225 1.9331 1.2726 0.734 -0.494 0.466 29 28 31 0 0
0.8381 1.8505 1.3378 0.476 -0.627 0.617 71 72 73 0 0
1.7386 4.0042 1.2251 0.060 -0.972 0.228 165 163 164 0 0
1.3489 3.2213 1.2861 0.384 -0.918 0.098 17 17 19 0 0
1.2979 3.1422 1.2950 0.295 -0.955 -0.032 37 37 39 0 0
1.2924 3.0679 1.2932 0.658 -0.743 -0.123 34 34 36 0 0
1.2502 2.6759 1.2868 -0.108 -0.898 0.426 11 11 13 0 0
1.2332 2.6818 1.2911 -0.458 -0.865 0.204 11 11 13 0 0
1.2097 2.5855 1.2927 -0.286 -0.558 -0.779 9 9 11 0 0
1.1940 2.5881 1.2966 -0.286 -0.558 -0.779 9 9 11 0 0
1.1235 2.6955 1.3182 0.413 -0.167 -0.895 8 8 10 0 0
0.8416 1.8488 1.3504 0.201 -0.790 0.579 63 61 64 0 0
1.7654 4.0404 1.2369 0.500 -0.799 0.333 168 167 168 0 0
1.7586 4.0037 1.2369 0.101 -0.973 0.207 168 166 167 0 0
1.7423 4.0038 1.2409 0.133 -0.944 0.301 160 158 159 0 0
1.3041 3.1335 1.3086 0.110 -0.975 -0.191 37 37 39 0 0
1.2926 3.1218 1.3109 0.840 -0.541 -0.049 36 36 38 0 0
1.2931 3.0754 1.3087 0.742 -0.663 0.104 35 35 37 0 0
1.2508 2.6829 1.3017 -0.108 -0.898 0.426 11 11 13 0 0
1.2337 2.6085 1.3025 -0.535 -0.603 -0.591 10 10 12 0 0
1.1070 2.6684 1.3358 0.796 -0.593 -0.125 8 8 10 0 0
1.0938 2.5868 1.3354 0.462 -0.779 -0.425 14 14 16 0 0
0.8976 1.9168 1.3534 -0.628 -0.561 0.539 49 49 49 0 0
0.8397 1.8587 1.3649 0.183 -0.793 0.581 55 53 56 0 0
0.8248 1.8604 1.3685 0.385 -0.765 0.517 53 51 54 0 0
1.7452 4.0065 1.2570 0.101 -0.973 0.207 158 156 157 0 0
1.3332 3.1486 1.3177 0.989 -0.059 -0.134 28 28 30 0 0
1.3274 3.1198 1.3178 0.939 -0.238 -0.250 37 37 39 0 0
1.3116 3.1210 1.3217 0.419 -0.707 -0.570 38 38 40 0 0
1.2930 3.1301 1.3266 0.068 -0.947 -0.314 37 37 39 0 0
1.2954 3.0781 1.3236 0.720 -0.630 0.291 36 36 38 0 0
1.2246 2.6016 1.3191 -0.541 -0.747 -0.387 11 11 13 0 0
1.1369 2.6372 1.3419 -0.261 -0.780 -0.568 8 8 10 0 0
1.1342 2.6054 1.3411 0.393 -0.911 -0.129 8 8 10 0 0
1.7746 4.0332 1.2678 0.992 0.019 -0.123 168 167 168 0 0
1.6876 3.4702 1.2623 0.585 -0.736 -0.341 33 33 37 0 0
1.3359 3.1502 1.3326 0.937 -0.104 -0.334 24 24 26 0 0
1.3016 3.1146 1.3392 0.494 -0.839 -0.228 37 37 39 0 0
1.3009 3.0715 1.3374 0.504 -0.572 0.648 37 37 39 0 0
1.2682 3.0768 1.3455 0.087 -0.815 0.573 31 31 33 0 0
1.1726 2.6297 1.3476 -0.488 -0.603 -0.631 9 9 11 0 0
1.1486 2.6148 1.3528 -0.422 -0.836 -0.349 8 8 10 0 0
1.1375 2.6049 1.3550 0.393 -0.911 -0.129 8 8 10 0 0
1.0820 2.5563 1.3662 0.145 -0.898 -0.414 14 14 16 0 0
1.1260 2.0184 1.3301 0.917 -0.323 -0.236 44 44 46 0 0
1.1235 1.9908 1.3294 0.915 -0.403 0.015 50 50 51 0 0
0.8736 1.8886 1.3852 0.250 -0.434 0.866 56 55 58 0 0
0.8224 1.9080 1.3986 0.658 -0.502 0.561 65 63 65 0 0
1.7731 4.0532 1.2858 0.985 -0.042 -0.169 169 167 168 0 0
1.4364 3.0891 1.3206 0.697 -0.473 -0.539 29 29 33 0 0
1.3438 3.1827 1.3477 0.880 -0.042 -0.473 17 17 19 0 0
1.3398 3.1484 1.3470 0.810 -0.076 -0.581 22 22 24 0 0
1.3083 3.1043 1.3525 0.035 -0.759 -0.650 38 38 40 0 0
1.2990 3.0863 1.3539 0.435 -0.668 0.604 37 37 39 0 0
1.2701 3.0807 1.3607 0.257 -0.679 0.688 35 35 37 0 0
1.2536 3.0837 1.3648 0.076 -0.743 0.665 25 25 27 0 0
1.2256 3.0755 1.3713 -0.015 -0.831 0.556 18 18 20 0 0
1.0966 2.5647 1.3776 0.367 -0.930 0.024 23 23 25 0 0
0.8521 1.9109 1.4052 0.274 -0.247 -0.929 66 66 67 0 0
1.6042 3.0491 1.2930 0.986 0.096 -0.136 37 38 42 0 0
1.4389 3.0913 1.3355 0.944 -0.321 0.083 29 29 33 0 0
1.3097 3.1099 1.3679 -0.100 -0.534 -0.840 39 39 41 0 0
1.2924 3.0701 1.3701 -0.203 -0.776 0.596 37 37 39 0 0
1.2701 3.0900 1.3765 -0.144 -0.825 0.546 36 36 38 0 0
1.1577 2.6068 1.3795 -0.492 -0.625 -0.606 7 7 9 0 0
1.0985 2.5677 1.3920 0.595 -0.724 -0.349 23 23 25 0 0
1.0940 2.5411 1.3917 0.220 -0.885 -0.410 20 20 22 0 0
1.7356 3.5590 1.3027 0.598 -0.767 -0.231 63 64 67 0 0
1.6856 3.4582 1.3097 -0.408 -0.910 0.072 32 32 36 0 0
1.4304 3.0804 1.3523 0.626 -0.531 0.571 25 26 28 0 0
1.4253 3.0493 1.3519 -0.328 -0.815 0.478 20 21 23 0 0
1.4009 3.0771 1.3594 -0.342 -0.859 0.381 17 17 19 0 0
1.3546 3.1701 1.3755 0.862 0.016 -0.507 17 17 19 0 0
1.3004 3.1012 1.3851 0.662 -0.731 0.162 36 36 38 0 0
1.1868 2.5771 1.3856 -0.327 -0.706 -0.628 7 7 9 0 0
1.1650 2.5954 1.3918 -0.505 -0.733 -0.455 8 8 10 0 0
1.7394 3.5579 1.3177 0.574 -0.778 -0.256 63 64 66 0 0
1.6898 3.4555 1.3244 -0.314 -0.886 -0.342 32 33 37 0 0
1.4020 3.0835 1.3748 -0.342 -0.859 0.381 17 17 19 0 0
1.3028 3.1039 1.4002 0.341 -0.872 -0.350 37 37 39 0 0
1.2945 3.0829 1.4010 -0.091 -0.946 0.311 38 38 40 0 0
1.2112 2.5597 1.3933 -0.113 -0.748 -0.654 10 10 12 0 0
1.1966 2.5593 1.3968 -0.179 -0.777 -0.604 8 8 10 0 0
1.7980 3.9498 1.3411 0.900 0.088 -0.427 167 167 167 0 0
1.7420 3.5608 1.3332 0.179 -0.924 -0.339 62 64 66 0 0
1.6956 3.4471 1.3383 -0.026 -0.841 -0.540 32 33 37 0 0
1.5142 2.9826 1.3570 -0.497 -0.860 -0.115 28 29 31 0 0
1.3069 3.1013 1.4145 0.157 -0.834 -0.529 37 37 39 0 0
1.2942 3.0931 1.4171 0.393 -0.901 -0.184 37 37 39 0 0
1.2348 2.5439 1.4012 -0.468 -0.746 -0.474 13 13 15 0 0
1.1798 2.5725 1.4163 -0.510 -0.781 -0.360 9 9 11 0 0
1.8088 3.9848 1.3570 0.933 0.019 -0.360 170 170 170 0 0
1.7468 3.5558 1.3477 0.191 -0.887 -0.421 58 60 62 0 0
1.7017 3.4374 1.3521 0.035 -0.811 -0.584 32 33 37 0 0
1.6144 2.9130 1.3436 -0.244 -0.961 -0.132 36 37 39 0 0
1.6003 2.9103 1.3469 -0.400 -0.884 -0.243 37 37 39 0 0
1.5890 2.8988 1.3490 0.232 -0.847 -0.478 37 37 39 0 0
1.3006 3.0840 1.4305 0.438 -0.652 -0.619 37 37 39 0 0
1.2618 3.1068 1.4413 -0.449 -0.776 -0.443 36 36 38 0 0
1.2267 2.6134 1.4218 0.536 -0.836 -0.119 17 17 19 0 0
1.2433 2.5293 1.4129 -0.603 -0.794 -0.078 19 19 21 0 0
1.2232 2.5438 1.4187 -0.091 -0.931 -0.352 13 13 15 0 0
1.2093 2.5416 1.4219 0.305 -0.827 -0.473 10 10 12 0 0
1.1876 2.5600 1.4283 -0.387 -0.897 -0.215 9 9 11 0 0
1.1235 2.6113 1.4470 0.511 -0.784 -0.353 9 9 11 0 0
1.7519 3.5500 1.3622 0.191 -0.887 -0.421 61 62 64 0 0
1.6054 2.9043 1.3603 -0.400 -0.884 -0.243 36 35 39 0 0
1.2879 3.0854 1.4491 -0.374 -0.905 -0.202 37 37 39 0 0
1.2655 3.1054 1.4558 -0.440 -0.864 -0.245 37 37 39 0 0
1.2298 2.6132 1.4357 -0.456 -0.776 -0.436 18 18 20 0 0
1.1268 2.6106 1.4609 0.514 -0.840 -0.173 9 9 11 0 0
0.9789 2.6058 1.4970 -0.726 -0.521 -0.448 45 45 50 0 0
1.7566 3.5453 1.3767 0.162 -0.919 -0.360 64 65 66 0 0
1.3108 3.0732 1.4582 0.126 -0.857 -0.500 36 35 40 0 0
1.2997 3.0606 1.4601 -0.531 -0.847 -0.027 36 36 39 0 0
1.2694 3.1037 1.4702 -0.406 -0.914 -0.019 37 37 39 0 0
1.2499 3.1150 1.4757 0.748 -0.634 -0.197 30 30 32 0 0
1.2312 2.5385 1.4455 -0.345 -0.921 -0.178 13 13 15 0 0
1.2172 2.5366 1.4489 0.507 -0.816 -0.280 11 11 13 0 0
1.2017 2.5386 1.4528 0.038 -0.994 -0.106 11 11 13 0 0
0.9424 2.6289 1.5222 -0.688 -0.478 -0.547 59 59 63 0 0
1.7607 3.5432 1.3916 0.124 -0.947 -0.297 63 65 65 0 0
1.3823 3.0532 1.4547 0.710 -0.258 -0.655 20 18 21 0 0
1.3148 3.0709 1.4725 0.038 -0.989 -0.141 37 36 41 0 0
1.1249 2.5927 1.4898 0.265 -0.932 0.248 10 10 12 0 0
0.9415 2.6015 1.5356 -0.748 -0.459 -0.479 57 57 59 0 0
0.7813 2.7673 1.5855 0.974 -0.164 0.157 145 145 144 0 0
1.7657 3.5374 1.4059 -0.051 -0.889 -0.455 64 65 66 0 0
1.7523 3.5291 1.4087 0.186 -0.837 -0.515 50 51 55 0 0
1.3148 3.0805 1.4885 -0.333 -0.852 -0.404 35 34 39 0 0
1.1117 2.5197 1.5031 0.359 -0.883 -0.302 15 13 16 0 0
1.8064 4.0012 1.4421 -0.511 -0.834 0.206 170 168 171 0 0
1.7712 3.5298 1.4201 -0.051 -0.889 -0.455 64 65 67 0 0
1.7578 3.5217 1.4229 0.186 -0.837 -0.515 51 52 54 0 0
1.3985 3.0239 1.4795 0.726 -0.287 -0.624 16 16 18 0 0
1.7767 3.5223 1.4342 -0.051 -0.889 -0.455 64 65 67 0 0
1.7631 3.5149 1.4371 0.107 -0.868 -0.484 50 51 53 0 0
1.4018 2.9780 1.4909 0.626 -0.323 -0.710 21 21 23 0 0
1.1457 2.6401 1.5320 -0.296 -0.946 -0.134 10 10 12 0 0
0.9205 2.6013 1.5853 -0.777 -0.563 -0.282 48 48 51 0 0
0.8879 2.6437 1.5963 -0.728 -0.675 -0.122 54 53 56 0 0
1.7822 3.5148 1.4483 -0.051 -0.889 -0.455 65 66 68 0 0
1.7681 3.5091 1.4514 0.033 -0.941 -0.338 51 52 54 0 0
1.7527 3.5083 1.4552 0.091 -0.952 -0.294 38 39 43 0 0
1.1459 2.6477 1.5473 0.133 -0.834 -0.536 10 10 12 0 0
1.1401 2.5461 1.5417 -0.102 -0.689 -0.717 10 10 12 0 0
0.8982 2.6261 1.6075 -0.754 -0.615 -0.232 50 50 52 0 0
1.7874 3.5082 1.4625 -0.076 -0.983 -0.169 65 66 69 0 0
1.7717 3.5088 1.4664 -0.076 -0.983 -0.169 51 52 55 0 0
1.7557 3.5097 1.4705 -0.234 -0.961 -0.147 39 40 44 0 0
1.4446 2.9601 1.5095 0.338 -0.024 -0.941 17 17 19 0 0
0.7775 2.7764 1.6631 -0.188 -0.913 -0.362 81 81 84 0 0
1.7910 3.5077 1.4775 0.080 -0.994 -0.070 64 65 69 0 0
1.7758 3.5062 1.4812 0.080 -0.994 -0.070 50 51 55 0 0
1.7600 3.5068 1.4852 0.146 -0.989 -0.016 39 40 44 0 0
1.4540 2.9413 1.5210 0.335 -0.118 -0.935 22 22 24 0 0
1.0741 2.5403 1.5872 -0.156 -0.988 0.007 22 22 24 0 0
1.8556 4.0080 1.5141 0.020 -0.926 0.376 170 170 170 0 0
1.7954 3.5042 1.4921 0.111 -0.985 0.134 63 64 67 0 0
1.7801 3.5030 1.4958 0.111 -0.985 0.134 48 49 53 0 0
1.7573 3.4724 1.4993 0.783 -0.617 -0.080 37 37 41 0 0
1.7388 3.4266 1.5006 0.951 -0.291 -0.108 33 32 37 0 0
1.4681 2.9540 1.5336 -0.018 -0.592 0.806 35 36 38 0 0
1.4489 2.9666 1.5394 -0.067 -0.571 0.818 35 35 37 0 0
1.0765 2.5418 1.6014 -0.135 -0.985 0.104 20 20 22 0 0
0.9158 2.6424 1.6491 -0.773 -0.624 0.115 67 67 69 0 0
1.7978 3.5081 1.5078 0.207 -0.945 0.253 64 65 69 0 0
1.7828 3.5058 1.5114 0.207 -0.945 0.253 50 51 55 0 0
1.7602 3.4741 1.5146 0.783 -0.617 -0.080 37 37 42 0 0
1.7496 3.4559 1.5159 0.922 -0.384 -0.048 35 34 39 0 0
1.3260 2.5547 1.5545 0.112 -0.436 -0.893 30 28 32 0 0
1.0466 2.5498 1.6243 0.660 -0.751 -0.015 32 32 34 0 0
0.8551 2.7234 1.6854 -0.786 -0.609 0.104 60 60 65 0 0
1.7998 3.5135 1.5237 0.156 -0.921 0.358 64 63 67 0 0
1.7844 3.5124 1.5274 0.156 -0.921 0.358 51 51 54 0 0
1.7602 3.4868 1.5316 0.311 -0.949 0.058 38 37 43 0 0
1.7513 3.4621 1.5319 0.790 -0.613 0.013 34 35 39 0 0
1.3365 2.5341 1.5649 0.111 -0.306 -0.945 13 11 16 0 0
1.2190 2.4949 1.5914 0.280 -0.665 -0.693 17 17 19 0 0
1.2044 2.4948 1.5951 -0.067 -0.956 -0.286 29 29 31 0 0
1.0498 2.5493 1.6382 0.069 -0.750 -0.658 47 46 50 0 0
1.8323 3.3491 1.5186 0.050 -0.991 -0.128 50 49 53 0 0
1.8107 3.3718 1.5258 -0.708 -0.685 0.172 41 40 46 0 0
1.7892 3.3940 1.5330 -0.756 -0.612 0.232 37 37 42 0 0
1.3486 2.5089 1.5745 0.111 -0.306 -0.945 12 10 15 0 0
1.3378 2.4986 1.5764 0.225 -0.183 -0.957 12 10 15 0 0
1.0567 2.5774 1.6534 0.707 -0.568 0.421 35 35 37 0 0
0.9436 2.5967 1.6834 -0.762 -0.647 0.039 49 48 53 0 0
1.8362 3.3474 1.5332 0.050 -0.991 -0.128 50 49 53 0 0
1.7898 3.4039 1.5494 -0.794 -0.592 0.135 37 37 42 0 0
1.7677 3.3169 1.5480 -0.321 -0.625 -0.712 32 33 37 0 0
1.7472 3.2805 1.5503 0.664 -0.129 -0.737 32 33 37 0 0
1.0721 2.5839 1.6648 0.238 -0.731 0.640 22 22 24 0 0
1.8400 3.3457 1.5478 0.050 -0.991 -0.128 50 49 53 0 0
1.8196 3.3641 1.5545 -0.712 -0.694 0.107 43 42 48 0 0
1.7567 3.2587 1.5617 -0.088 -0.674 -0.733 32 33 37 0 0
1.7561 3.2073 1.5577 0.244 -0.782 0.574 33 34 38 0 0
1.8291 3.3419 1.5660 -0.279 -0.959 -0.047 43 42 47 0 0
1.7937 3.2478 1.5671 -0.603 -0.679 -0.419 36 35 40 0 0
1.6033 2.8735 1.5841 -0.022 -0.732 0.681 38 38 40 0 0
1.3475 2.4566 1.6141 -0.401 -0.794 0.458 46 46 49 0 0
1.8330 3.3400 1.5806 -0.279 -0.959 -0.047 42 41 46 0 0
1.4253 2.4911 1.6118 0.343 -0.728 0.593 44 43 48 0 0
1.0829 2.6959 1.7161 0.606 -0.468 0.643 14 14 16 0 0
1.8586 3.3147 1.5876 0.407 -0.796 -0.448 48 47 52 0 0
1.6418 2.7712 1.5956 0.565 -0.121 -0.816 54 52 55 0 0
1.6354 2.7450 1.5949 0.681 -0.127 -0.721 42 40 43 0 0
1.3804 2.5032 1.6388 0.414 -0.909 -0.041 43 42 48 0 0
1.3675 2.4984 1.6417 0.109 -0.984 -0.138 40 39 45 0 0
1.2885 2.5147 1.6632 -0.024 -0.481 0.876 59 59 61 0 0
1.2623 2.5456 1.6725 -0.517 -0.608 0.603 67 63 66 0 0
1.2355 2.5780 1.6821 -0.562 -0.601 0.567 68 64 67 0 0
1.6792 2.8032 1.6038 0.340 -0.101 -0.935 53 53 55 0 0
1.6714 2.7808 1.6038 0.381 -0.161 -0.911 48 47 50 0 0
1.6626 2.7620 1.6044 0.489 -0.175 -0.855 39 39 41 0 0
1.6456 2.7227 1.6052 0.506 -0.186 -0.842 27 27 29 0 0
1.6214 2.6610 1.6059 0.621 -0.045 -0.782 22 22 24 0 0
1.2766 2.5551 1.6844 -0.063 -0.547 0.834 73 72 74 0 0
1.2563 2.5701 1.6909 -0.543 -0.673 0.503 61 56 60 0 0
1.2347 2.5883 1.6980 -0.598 -0.647 0.473 52 47 51 0 0
1.1287 2.7111 1.7359 -0.565 -0.756 0.330 21 22 24 0 0
1.8496 3.2598 1.6163 0.813 -0.363 -0.455 46 46 49 0 0
1.7037 2.7815 1.6105 0.228 -0.118 -0.967 43 43 45 0 0
1.6631 2.7233 1.6156 0.514 -0.185 -0.837 22 22 24 0 0
1.2745 2.5691 1.7009 -0.111 -0.732 0.672 55 50 56 0 0
1.8707 3.9772 1.6923 0.723 -0.682 -0.110 165 165 165 0 0
1.8692 3.2562 1.6266 0.089 -0.355 -0.930 59 59 61 0 0
1.2841 2.5915 1.7153 0.018 -0.683 0.730 46 40 46 0 0
0.9911 2.5101 1.7976 -0.791 -0.531 -0.302 52 51 56 0 0
1.5711 2.4981 1.6623 -0.139 -0.821 0.554 46 44 47 0 0
1.3339 2.5935 1.7323 0.783 -0.225 0.579 32 31 36 0 0
0.8128 2.7659 1.8824 -0.182 -0.902 -0.390 54 53 59 0 0
1.9016 4.0287 1.7398 0.834 -0.378 -0.402 173 173 173 0 0
1.3095 2.6701 1.7607 0.250 -0.244 0.937 24 23 26 0 0
1.2861 2.6935 1.7690 0.149 -0.295 0.944 23 24 27 0 0
0.8520 2.7536 1.8865 -0.879 -0.457 -0.136 47 46 51 0 0
1.7676 2.9677 1.6869 0.005 -0.239 0.971 40 42 45 0 0
1.6089 2.6219 1.6938 0.362 -0.220 0.906 59 59 61 0 0
1.9031 3.3773 1.7239 0.755 0.102 -0.647 53 54 56 0 0
1.9180 3.3925 1.7375 0.818 0.108 -0.565 54 55 57 0 0
0.9535 2.5362 1.8989 -0.834 -0.536 -0.132 58 58 60 0 0
0.9811 2.9376 1.9488 0.735 0.072 -0.674 30 31 33 0 0
0.9666 2.5115 1.9079 -0.825 -0.537 -0.177 59 59 62 0 0
1.9679 4.0266 1.8746 0.823 -0.085 -0.562 175 174 175 0 0
1.9684 3.7576 1.8445 0.882 0.070 -0.465 95 94 96 0 0
1.9697 3.8623 1.9059 0.984 -0.014 -0.178 112 111 112 0 0
1.9524 3.3653 1.8524 -0.488 -0.500 0.715 62 61 66 0 0
1.9596 3.4105 1.8718 0.031 -0.738 0.674 66 67 71 0 0
1.2843 2.4434 1.9352 0.820 0.092 -0.564 40 41 45 0 0
1.9644 3.4051 1.8858 -0.560 -0.601 0.570 66 67 71 0 0
1.4917 2.5347 1.9209 0.861 0.173 -0.478 14 14 18 0 0
1.9356 3.5591 1.9606 -0.463 -0.578 0.672 59 60 64 0 0
1.4760 2.4713 1.9466 0.459 -0.888 -0.041 37 37 42 0 0
1.4903 2.4806 1.9586 0.279 -0.920 0.276 33 32 37 0 0
1.4226 2.4253 1.9696 0.098 -0.985 0.142 42 41 46 0 0
1.1143 2.4269 2.0518 -0.123 -0.919 0.374 49 48 53 0 0
1.0798 2.4390 2.0625 -0.088 -0.980 0.181 47 46 51 0 0
1.9126 3.6771 2.0143 0.870 -0.493 -0.020 53 54 58 0 0
1.5044 2.4908 1.9708 0.217 -0.956 0.196 37 35 40 0 0
1.4248 2.4276 1.9839 0.098 -0.985 0.142 37 36 41 0 0
1.3303 2.4471 2.0116 0.329 -0.497 0.803 40 39 45 0 0
1.0666 2.5173 2.0908 0.776 -0.398 -0.489 44 43 48 0 0
1.0818 2.4416 2.0771 -0.088 -0.980 0.181 41 40 45 0 0
1.0664 2.4430 2.0814 -0.083 -0.984 0.156 33 34 38 0 0
0.9618 2.5532 2.1233 -0.786 -0.615 0.069 51 51 53 0 0
1.5208 2.4941 1.9815 0.381 -0.909 -0.170 38 39 41 0 0
1.5093 2.4852 1.9834 0.405 -0.914 0.001 45 45 47 0 0
1.4125 2.4297 2.0021 0.298 -0.883 0.364 46 45 50 0 0
1.3338 2.4861 2.0304 -0.573 -0.799 0.184 50 49 55 0 0
1.0702 2.5161 2.1047 0.777 -0.304 -0.551 43 42 47 0 0
0.9337 2.5925 2.1510 -0.735 -0.674 0.074 50 51 54 0 0
1.7535 3.8211 2.1088 -0.023 -0.708 0.705 36 37 41 0 0
1.5365 2.4995 1.9927 0.211 -0.932 -0.294 40 39 44 0 0
1.5242 2.4930 1.9952 0.311 -0.943 0.114 45 44 47 0 0
1.5111 2.4888 1.9981 0.372 -0.925 0.082 44 44 47 0 0
1.3948 2.4067 2.0184 0.696 -0.635 -0.336 38 37 42 0 0
1.3453 2.4627 2.0390 -0.684 -0.717 -0.138 36 35 41 0 0
1.0490 2.4642 2.1184 0.301 -0.898 -0.321 33 32 38 0 0
1.0362 2.4589 2.1212 0.301 -0.898 -0.321 41 40 46 0 0
0.9302 2.6085 2.1692 -0.656 -0.721 0.224 48 49 53 0 0
1.9546 3.8080 2.0700 0.925 -0.120 -0.360 71 71 73 0 0
1.6101 2.5054 1.9885 0.323 0.151 -0.934 17 17 19 0 0
1.5139 2.4895 2.0122 0.009 -0.960 -0.279 45 44 49 0 0
1.4980 2.4937 2.0170 -0.158 -0.976 -0.153 41 40 45 0 0
1.2783 2.5334 2.0811 -0.689 -0.557 0.463 32 31 34 0 0
1.0410 2.4545 2.1342 0.619 -0.784 0.037 43 42 48 0 0
1.9495 3.8437 2.0929 0.591 -0.806 -0.012 70 70 72 0 0
1.3760 2.5580 2.0731 0.016 -0.878 0.479 30 29 33 0 0
1.3555 2.4515 2.0642 0.969 0.159 -0.189 30 30 32 0 0
1.3351 2.4672 2.0718 -0.774 -0.548 0.316 30 30 32 0 0
1.2761 2.5477 2.0985 -0.713 -0.590 0.378 29 29 31 0 0
1.1269 2.5866 2.1438 0.098 -0.405 0.909 34 33 37 0 0
1.0555 2.4631 2.1463 0.716 -0.698 -0.017 35 34 39 0 0
1.0432 2.4566 2.1487 0.683 -0.729 0.044 35 34 40 0 0
1.3516 2.5111 2.0882 0.954 0.174 -0.243 28 28 30 0 0
1.0585 2.4630 2.1604 0.697 -0.717 0.006 35 34 39 0 0
1.0470 2.4546 2.1623 0.699 -0.711 -0.077 33 32 37 0 0
0.9892 2.5233 2.1873 -0.790 -0.611 -0.052 49 48 53 0 0
1.3410 2.6318 2.1225 0.804 -0.038 0.594 26 26 28 0 0
1.0358 2.4526 2.1799 0.623 -0.782 0.004 44 43 48 0 0
1.3430 2.5934 2.1317 0.975 0.159 -0.154 21 21 23 0 0
1.0495 2.4632 2.1926 0.591 -0.806 0.005 32 31 36 0 0
1.0375 2.4561 2.1949 0.603 -0.795 0.069 40 39 44 0 0
0.9724 2.5425 2.2245 -0.800 -0.597 -0.057 52 51 56 0 0
1.8818 3.0222 2.0618 -0.602 -0.143 -0.786 28 29 32 0 0
1.0404 2.4561 2.2090 0.779 -0.604 -0.168 33 32 37 0 0
0.9800 2.5311 2.2359 -0.800 -0.597 -0.057 52 51 56 0 0
2.0489 3.4602 2.1110 -0.319 -0.607 -0.728 61 62 67 0 0
2.0302 3.4728 2.1179 -0.746 -0.520 -0.417 54 55 59 0 0
2.0015 3.4633 2.1243 -0.593 -0.571 -0.568 44 45 50 0 0
1.9607 2.8670 2.0488 0.104 -0.541 0.835 46 47 52 0 0
1.9478 2.8603 2.0513 0.260 -0.704 0.661 48 49 53 0 0
1.7008 2.5145 2.0681 -0.200 -0.711 -0.674 46 47 51 0 0
1.4143 2.6279 2.1623 -0.147 -0.428 0.892 21 20 25 0 0
1.0003 2.4962 2.2555 -0.772 -0.629 -0.091 53 52 57 0 0
2.0913 3.6230 2.1395 0.975 0.052 -0.216 96 95 98 0 0
1.0603 2.5041 2.2554 0.967 -0.117 -0.227 41 40 45 0 0
1.0422 2.4370 2.2504 0.647 -0.661 -0.381 37 36 41 0 0
1.0093 2.4813 2.2659 -0.732 -0.678 -0.076 54 53 58 0 0
0.9797 2.5171 2.2792 -0.774 -0.614 -0.154 54 53 58 0 0
1.0341 2.4278 2.2662 0.288 -0.862 -0.417 53 52 57 0 0
2.1069 3.7908 2.1932 0.978 -0.092 -0.189 198 198 198 0 0
1.7437 2.4530 2.0913 -0.190 -0.950 0.249 37 38 42 0 0
1.6757 2.4867 2.1149 0.047 -0.937 -0.346 40 41 45 0 0
1.0373 2.4272 2.2801 0.363 -0.932 -0.013 46 45 50 0 0
1.6784 2.4877 2.1290 0.144 -0.986 0.085 42 43 47 0 0
2.1050 3.6250 2.2017 0.921 0.042 -0.387 89 89 89 0 0
1.0561 2.4326 2.3056 0.776 -0.630 0.031 37 36 42 0 0
1.0460 2.4204 2.3065 0.582 -0.809 0.085 32 31 36 0 0
1.0256 2.4341 2.3142 -0.287 -0.956 0.061 50 49 55 0 0
1.7722 2.4830 2.1320 0.114 -0.594 -0.796 38 39 43 0 0
1.6793 2.5040 2.1607 0.125 -0.872 0.474 40 41 45 0 0
1.0460 2.4279 2.3226 0.297 -0.946 -0.127 27 26 32 0 0
1.0303 2.4298 2.3272 -0.278 -0.956 -0.094 47 46 52 0 0
2.0825 3.1732 2.1698 -0.558 -0.256 -0.790 69 69 72 0 0
1.7227 2.6060 2.1795 0.999 0.036 -0.023 39 40 44 0 0
1.0382 3.2228 2.4644 0.970 0.092 0.223 20 20 22 0 0
1.0499 2.4257 2.3361 -0.097 -0.953 -0.288 27 26 30 0 0
2.1317 3.6235 2.2433 0.851 0.088 -0.517 89 88 91 0 0
1.7271 2.5093 2.1779 0.948 -0.314 0.052 49 50 54 0 0
1.0270 3.2623 2.4900 0.984 0.131 0.120 19 19 21 0 0
0.9920 2.4651 2.3732 -0.649 -0.753 -0.109 46 45 50 0 0
2.0462 3.2244 2.2194 0.833 0.071 -0.548 57 58 62 0 0
2.0394 3.1911 2.2159 0.903 -0.151 -0.403 51 52 56 0 0
1.7291 2.5128 2.1927 0.928 -0.328 0.175 46 47 51 0 0
1.7229 2.4866 2.1902 0.974 -0.162 0.159 41 42 46 0 0
2.1507 3.7092 2.2848 0.646 -0.200 -0.737 169 169 171 0 0
2.0258 3.2582 2.2463 0.892 -0.304 0.335 44 45 49 0 0
1.7265 2.5308 2.2110 0.996 0.033 -0.084 48 49 53 0 0
1.7274 2.4820 2.2029 0.996 0.033 -0.084 43 44 48 0 0
2.1486 3.6650 2.2948 0.629 -0.205 -0.750 91 92 94 0 0
1.7282 2.5354 2.2261 0.997 0.062 -0.042 46 47 51 0 0
1.0220 2.3845 2.4117 0.895 -0.440 0.073 42 41 47 0 0
1.0441 2.4109 2.4249 -0.340 -0.940 0.012 30 29 33 0 0
1.0234 2.3884 2.4268 0.789 -0.609 0.084 42 41 47 0 0
0.7876 2.6619 2.5380 -0.356 -0.473 -0.806 70 69 74 0 0
1.0475 2.4099 2.4387 -0.340 -0.940 0.012 29 29 32 0 0
1.0150 2.3797 2.4426 0.789 -0.609 0.084 43 42 48 0 0
0.9703 2.4519 2.4672 -0.722 -0.611 -0.325 43 44 49 0 0
0.8201 2.6291 2.5389 -0.391 -0.495 -0.776 60 59 64 0 0
0.8009 2.6379 2.5458 -0.418 -0.469 -0.778 69 68 73 0 0
2.2166 3.7068 2.3490 0.689 -0.128 -0.714 203 203 203 0 0
2.1897 3.6158 2.3410 0.706 -0.125 -0.697 159 160 162 0 0
2.0975 3.6745 2.3767 0.793 -0.585 -0.171 59 59 63 0 0
2.0928 3.5605 2.3586 0.727 -0.538 0.426 48 47 52 0 0
2.0863 3.5222 2.3539 0.975 -0.184 0.121 45 44 49 0 0
1.0250 2.3990 2.4581 0.418 -0.908 0.012 45 44 49 0 0
1.0134 2.3909 2.4599 0.662 -0.692 0.289 43 42 48 0 0
0.8401 2.6257 2.5482 -0.640 -0.550 -0.537 50 49 55 0 0
2.2245 3.6874 2.3601 0.689 -0.128 -0.714 203 203 203 0 0
2.1967 3.6003 2.3528 0.714 -0.155 -0.682 180 182 181 0 0
2.1011 3.6743 2.3923 0.720 -0.661 -0.212 60 61 65 0 0
2.0118 3.6498 2.4130 0.604 -0.190 -0.774 38 39 44 0 0
1.9425 3.6721 2.4362 -0.158 -0.747 0.646 37 38 42 0 0
1.0271 2.4013 2.4728 0.326 -0.944 0.051 40 39 44 0 0
0.8878 2.5192 2.5320 -0.768 -0.567 -0.299 50 51 57 0 0
2.2039 3.5840 2.3644 0.706 -0.197 -0.680 194 196 195 0 0
1.7632 2.5288 2.3041 0.189 -0.184 -0.965 42 41 46 0 0
1.7562 2.5050 2.3019 0.118 -0.390 -0.913 53 52 57 0 0
1.7463 2.4904 2.3022 0.365 -0.428 -0.827 49 48 53 0 0
0.9956 2.4126 2.4986 0.071 -0.744 0.664 39 38 44 0 0
1.0250 2.4213 2.5068 -0.430 -0.902 0.036 31 30 37 0 0
1.0115 2.4177 2.5100 -0.137 -0.969 0.203 36 35 43 0 0
0.9876 2.4392 2.5205 -0.398 -0.798 0.452 38 37 43 0 0
1.0087 2.4319 2.5283 -0.364 -0.931 -0.033 38 37 45 0 0
0.9869 2.4483 2.5373 -0.535 -0.801 0.268 39 39 45 0 0
1.0319 2.4191 2.5345 -0.527 -0.843 -0.104 38 37 43 0 0
1.0137 2.4271 2.5411 -0.443 -0.860 -0.254 46 45 51 0 0
2.0907 3.6749 2.4950 -0.266 -0.755 -0.600 89 91 90 0 0
1.3098 2.3369 2.4860 -0.136 -0.452 0.881 20 20 24 0 0
1.2291 2.4337 2.5266 -0.235 -0.001 -0.972 34 34 38 0 0
2.1205 3.6458 2.5145 -0.396 -0.903 -0.168 93 93 93 0 0
1.3352 2.3159 2.4896 -0.198 -0.637 0.745 34 31 38 0 0
1.7421 2.5471 2.4473 -0.815 -0.244 -0.526 28 29 31 0 0
1.2577 2.3438 2.5464 -0.563 -0.719 0.409 53 52 54 0 0
1.0548 2.4822 2.6302 -0.235 -0.626 0.744 53 52 55 0 0
1.0327 2.4997 2.6398 -0.288 -0.639 0.713 45 44 47 0 0
1.0674 2.4962 2.6445 -0.071 -0.567 0.821 39 38 43 0 0
1.0543 2.4910 2.6472 0.235 -0.541 0.807 39 38 42 0 0
1.0204 2.5380 2.6659 -0.197 -0.579 0.791 42 42 44 0 0
0.9951 2.5629 2.6778 -0.197 -0.579 0.791 45 45 47 0 0
1.6415 2.5169 2.5000 0.724 -0.689 0.025 41 42 46 0 0
1.5515 2.3945 2.5021 0.617 -0.719 0.320 46 44 50 0 0
1.4697 2.3796 2.5225 -0.142 -0.143 -0.980 46 47 51 0 0
1.4590 2.3688 2.5235 -0.360 -0.398 -0.844 47 48 52 0 0
1.4490 2.3560 2.5239 -0.373 -0.926 0.055 48 49 53 0 0
1.4346 2.3557 2.5279 -0.236 -0.923 0.303 49 50 54 0 0
1.3915 2.3142 2.5322 -0.080 -0.728 0.680 51 52 56 0 0
1.0326 2.5532 2.6806 0.458 -0.321 0.829 43 42 47 0 0
1.0029 2.5893 2.6960 0.030 -0.463 0.886 44 43 48 0 0
0.9808 2.6062 2.7056 0.018 -0.470 0.883 46 45 50 0 0
1.6334 2.5066 2.5153 0.695 -0.344 -0.632 46 46 51 0 0
1.3034 2.3631 2.5816 0.364 -0.916 0.166 65 64 68 0 0
1.2891 2.3621 2.5855 0.234 -0.959 0.161 54 53 57 0 0
1.2609 2.3591 2.5930 0.515 -0.711 -0.479 53 52 57 0 0
1.1082 2.4846 2.6610 -0.281 -0.831 0.480 45 44 49 0 0
1.0902 2.4920 2.6675 -0.344 -0.849 0.401 46 45 50 0 0
2.1638 3.2853 2.5312 0.572 -0.562 -0.597 68 69 68 0 0
1.5159 2.3476 2.5327 0.188 -0.971 0.145 49 50 55 0 0
1.1041 2.5030 2.6809 -0.457 -0.813 0.361 50 49 54 0 0
1.6614 2.4842 2.5327 0.309 -0.772 -0.555 48 47 52 0 0
1.5120 2.3676 2.5525 -0.366 -0.856 -0.365 43 44 48 0 0
1.4990 2.3632 2.5553 -0.079 -0.988 -0.134 41 42 46 0 0
1.1220 2.5035 2.6911 -0.497 -0.840 0.215 53 52 58 0 0
0.9100 2.7279 2.7962 -0.732 -0.682 0.001 58 58 58 0 0
0.8833 2.7550 2.8092 -0.761 -0.649 0.004 65 65 65 0 0
1.5175 2.3603 2.5642 -0.094 -0.965 0.245 20 21 25 0 0
1.0199 2.5777 2.7504 -0.234 -0.378 -0.896 49 49 52 0 0
1.6380 2.3976 2.5518 0.393 -0.871 -0.294 22 22 24 0 0
1.6253 2.3924 2.5544 -0.142 -0.941 0.308 22 22 24 0 0
1.6131 2.3857 2.5566 0.029 -0.890 0.455 21 21 23 0 0
1.3920 2.3944 2.6219 0.611 -0.514 0.602 22 22 24 0 0
1.3778 2.3931 2.6257 0.311 -0.904 0.294 22 22 24 0 0
1.3591 2.4041 2.6333 0.182 -0.983 0.020 22 21 24 0 0
1.1435 2.5027 2.7152 -0.068 -0.997 0.042 41 40 45 0 0
1.1262 2.5086 2.7213 -0.588 -0.809 0.018 41 40 46 0 0
1.1050 2.5242 2.7306 -0.588 -0.809 0.018 40 39 44 0 0
1.0511 2.5455 2.7504 -0.761 -0.608 -0.226 50 49 53 0 0
1.0162 2.5948 2.7703 -0.667 -0.639 -0.383 55 55 57 0 0
2.1922 3.2879 2.5877 0.990 -0.063 -0.126 98 96 97 0 0
1.6419 2.3949 2.5650 0.393 -0.871 -0.294 29 29 31 0 0
1.6268 2.3972 2.5698 -0.142 -0.941 0.308 25 26 28 0 0
1.1639 2.4968 2.7233 0.144 -0.987 -0.069 38 37 42 0 0
1.1456 2.5052 2.7303 -0.034 -0.916 0.400 41 40 45 0 0
1.1107 2.5173 2.7428 -0.460 -0.863 0.211 40 39 44 0 0
1.0801 2.5567 2.7596 -0.742 -0.658 0.124 47 45 50 0 0
1.7461 2.4846 2.5680 0.526 -0.850 -0.030 37 36 40 0 0
1.6623 2.4302 2.5811 0.873 -0.385 -0.301 31 32 34 0 0
1.3780 2.3690 2.6506 -0.053 -0.963 -0.265 19 19 21 0 0
1.2189 2.4787 2.7189 -0.189 -0.579 -0.793 32 31 36 0 0
1.1819 2.4970 2.7333 0.037 -0.975 0.220 39 38 43 0 0
1.1662 2.4989 2.7383 0.079 -0.984 0.157 44 43 48 0 0
1.1315 2.5108 2.7507 -0.376 -0.890 0.258 45 45 50 0 0
1.1117 2.5226 2.7588 -0.449 -0.872 0.196 43 43 47 0 0
2.1971 3.6368 2.6904 0.647 0.116 -0.754 87 87 87 0 0
2.2143 3.4218 2.6410 0.806 0.067 -0.588 78 78 78 0 0
1.7090 2.4743 2.5915 0.278 -0.896 0.346 30 30 32 0 0
1.3825 2.3650 2.6633 0.033 -0.953 0.300 16 16 18 0 0
2.2012 3.6346 2.7054 0.605 0.107 -0.789 80 80 81 0 0
1.7376 2.4393 2.5908 0.223 -0.974 -0.042 21 20 26 0 0
1.7204 2.4482 2.5977 -0.286 -0.935 0.208 21 20 24 0 0
1.6899 2.4532 2.6075 -0.148 -0.904 0.402 20 20 22 0 0
1.6137 2.4206 2.6229 -0.136 -0.885 0.445 17 18 20 0 0
1.7655 2.4520 2.6003 0.597 -0.745 0.299 17 16 22 0 0
1.7210 2.4561 2.6140 -0.282 -0.898 0.338 18 17 22 0 0
1.7527 2.4570 2.6199 0.219 -0.625 0.749 22 22 25 0 0
1.6694 2.4913 2.6514 -0.112 -0.979 -0.173 21 21 23 0 0
2.2237 3.5815 2.7375 0.632 0.008 -0.775 76 76 78 0 0
2.1917 3.5305 2.7524 -0.034 -0.632 -0.774 70 70 72 0 0
1.7234 2.4778 2.6627 -0.354 -0.756 0.550 40 41 45 0 0
2.0027 2.6723 2.6382 0.268 -0.945 0.189 49 48 53 0 0
1.7688 2.4348 2.6550 -0.250 -0.814 -0.524 41 42 46 0 0
1.6902 2.4554 2.6825 0.448 -0.886 0.123 45 45 50 0 0
1.4782 2.4778 2.7492 0.050 -0.997 -0.060 50 49 54 0 0
2.2826 3.8748 2.8341 0.499 -0.067 -0.864 194 194 196 0 0
2.2390 3.5607 2.7782 0.614 -0.183 -0.768 71 71 71 0 0
1.7171 2.4715 2.6930 0.525 -0.844 0.105 46 47 51 0 0
1.6668 2.4476 2.7025 0.317 -0.948 0.033 48 47 52 0 0
1.6540 2.4421 2.7051 0.125 -0.989 0.073 48 47 52 0 0
2.0003 2.6516 2.6647 0.580 -0.486 0.654 38 38 42 0 0
1.8356 2.5196 2.6839 0.149 -0.570 -0.808 48 47 51 0 0
1.6957 2.4574 2.7112 0.324 -0.924 0.201 49 50 53 0 0
1.6563 2.4447 2.7199 0.339 -0.936 0.095 54 54 59 0 0
1.9999 2.6646 2.6828 0.838 -0.441 0.320 29 29 32 0 0
1.8931 2.5805 2.6955 0.570 -0.819 -0.072 37 36 41 0 0
1.8811 2.5720 2.6971 0.570 -0.819 -0.072 38 37 42 0 0
1.7462 2.4446 2.7084 0.476 -0.877 0.064 43 44 47 0 0
1.7400 2.4187 2.7045 0.629 -0.656 0.418 42 43 45 0 0
1.6851 2.4549 2.7286 0.386 -0.921 0.058 41 42 46 0 0
1.6583 2.4481 2.7350 0.192 -0.980 0.054 44 45 48 0 0
1.7577 2.4639 2.7243 0.426 -0.858 -0.287 29 29 33 0 0
1.7497 2.4435 2.7221 0.421 -0.896 -0.144 26 27 31 0 0
1.1703 2.4979 2.9046 0.135 -0.921 -0.364 52 51 56 0 0
1.9420 2.6344 2.7233 0.711 -0.423 0.562 38 37 42 0 0
1.7540 2.4396 2.7348 0.493 -0.869 -0.022 24 25 30 0 0
1.1789 2.4834 2.9140 -0.074 -0.881 -0.467 56 55 60 0 0
1.1305 2.4916 2.9302 0.995 -0.062 0.074 50 49 54 0 0
1.8648 2.5610 2.7446 0.631 -0.458 0.626 35 36 38 0 0
1.5786 2.4526 2.8044 -0.888 -0.456 -0.060 29 30 34 0 0
1.4942 2.4851 2.8367 0.298 -0.934 -0.198 39 40 39 0 0
1.1933 2.4539 2.9184 -0.469 -0.873 -0.132 56 56 58 0 0
1.1760 2.4598 2.9248 -0.473 -0.859 -0.197 56 55 60 0 0
1.1610 2.4597 2.9292 -0.579 -0.761 -0.292 56 55 60 0 0
2.2751 3.7116 2.9016 0.590 -0.575 -0.567 69 69 70 0 0
1.8774 2.5782 2.7599 0.105 -0.392 -0.914 47 47 50 0 0
1.8418 2.5511 2.7642 0.217 -0.407 -0.887 45 45 48 0 0
1.8078 2.5194 2.7670 0.009 -0.774 -0.633 44 43 48 0 0
1.6330 2.4300 2.7982 0.223 -0.909 0.352 48 48 49 0 0
1.4983 2.4821 2.8499 0.396 -0.856 -0.333 59 59 59 0 0
1.1402 2.4826 2.9559 0.868 0.025 -0.497 58 58 60 0 0
1.1500 2.4189 2.9384 0.910 0.156 -0.384 51 50 54 0 0
1.8740 2.5510 2.7697 0.624 -0.781 0.021 62 61 65 0 0
1.8610 2.5458 2.7724 0.564 -0.810 -0.160 62 61 65 0 0
1.8458 2.5483 2.7774 0.553 -0.623 0.553 61 59 64 0 0
