ply
format ascii 1.0
element vertex 731
property float x
property float y
property float z
property uchar diffuse_red
property uchar diffuse_green
property uchar diffuse_blue
end_header
1.9078886904200465 3.3469786136482043 1.052257019581103 37 36 38
1.6162333510815108 2.970327289566544 1.1768381919065656 50 50 53
1.6436769891174552 2.9416905346746143 1.170067466323208 48 47 51
1.7009704485008224 2.8992654713823294 1.1545908766044768 47 47 50
1.7012683391089767 2.8835640565344134 1.1557067467061837 29 29 33
1.6956504494866402 2.870621682359681 1.1585459457996006 19 20 22
1.6854364515321916 2.859794902589501 1.1627262009891677 16 17 19
1.684515914697656 2.844689870698365 1.1641948383759209 16 17 19
1.6777035477568112 2.8322920983264996 1.1673829662080901 14 15 17
1.1799830734100087 2.8305621641215906 1.330446583879362 30 32 37
1.2332868221820799 2.77561890952091 1.3172434248377467 48 48 51
1.238666284459541 2.757326379959619 1.3168960689161682 53 53 57
1.244582069358381 2.738852318347916 1.316387175128126 52 52 56
1.2405370224440013 2.7245934085885612 1.3188132407670337 47 47 52
1.2266894511842956 2.71442506052123 1.324132071691161 38 38 44
1.29933480578562 2.6683619554169673 1.3039111473384202 30 30 35
1.239301718233844 2.677359728013181 1.322867778875766 20 21 25
1.1856120652092517 2.6835402570205114 1.33996558566056 23 24 28
1.1503410758918602 2.6820048782287693 1.351630276434811 26 27 32
1.7759007462741545 3.8863791251215782 1.0695480905140209 168 168 166
1.7805756136944464 3.86664406629424 1.0695211832016658 167 166 166
1.7953805938469063 3.84091336278097 1.0666205420215167 144 143 145
1.8102280255457468 3.815248873806812 1.0637008640894865 71 71 75
1.8206422960127515 3.7923003122971024 1.0620317433629642 51 52 56
1.8579299806170257 3.3935092598830523 1.0802998489340867 31 31 33
1.8963155181625708 3.356703867783722 1.0704891594902357 31 31 33
1.5596646192401415 3.112161575482452 1.1999727883584104 20 20 22
1.5215252314271468 3.114518306708898 1.2123402620397188 19 19 21
1.6020250699221799 2.9802062235335036 1.1961400712999917 51 51 54
1.6291415086894943 2.951670391667924 1.1894037283350394 48 48 51
1.6560306009978798 2.9233738854952196 1.182723857381678 49 49 52
1.7021599791726176 2.886266433068338 1.170388558742927 41 40 43
1.6994049348883875 2.8719911769541495 1.1723880439884082 16 17 19
1.6914519467562399 2.8601222621475184 1.1759134066880292 15 16 18
1.6755305006166306 2.8518990767130328 1.1817812500867848 16 17 19
1.6823505366618723 2.833247754308165 1.1809655954611555 16 17 19
1.6689336766607963 2.8238480692010435 1.1860995110118855 13 14 16
1.1840347547917123 2.8319258423843556 1.345013652797628 23 27 30
1.2334139593959943 2.7625894170498766 1.334076959368397 50 51 54
1.240439178397199 2.743623728283345 1.3332178705037638 54 54 58
1.2376057723086968 2.728838489041294 1.3352821868429443 51 50 56
1.227959230085621 2.7169057474916025 1.3393696193268347 42 41 47
1.2612606764557523 2.6712709564102033 1.3319076813163966 25 25 29
1.2068777856937976 2.6777869447949203 1.3493008198458214 21 22 26
1.1670670497378186 2.6781512373154635 1.3623707332340835 21 22 27
1.0824732030977655 2.6644001005982516 1.3912552073132332 62 61 67
1.0208147742489566 2.656901611577411 1.4121151140386885 112 111 109
1.7741403649838632 3.8913671675780797 1.085535881068707 169 169 167
1.7871905008542621 3.8665930846042667 1.083100238166994 168 167 166
1.7961083195294152 3.844369771679267 1.0818374509302335 157 156 156
1.8071732723872642 3.820934787991795 1.0799566275033814 91 92 93
1.8151916699725934 3.7993796849396717 1.0789405445527143 61 62 65
1.828860505533377 3.4451906591751964 1.101290587569873 30 30 32
1.8566763554507317 3.397708575014068 1.0956953022203206 27 27 29
1.8955870416728229 3.3605857884189487 1.0856455916948131 27 27 29
1.5375229900730565 3.1262183582825775 1.2218203040490734 20 21 23
1.5241478588414055 3.1165570392767092 1.226975765437465 19 19 21
1.5742387609894655 3.0443120568249933 1.2158937412269724 28 28 30
1.616570314630719 2.960744396383475 1.2082363372202003 50 50 50
1.6435822405290004 2.9323416478208157 1.2014594646189254 50 50 51
1.670121731476169 2.904291314337108 1.194812069002428 51 51 52
1.696821656018113 2.8762971003903828 1.1881073681440504 23 24 26
1.6978376232039827 2.860277983230577 1.1889866866538246 14 15 17
1.6859988805133705 2.850187528061828 1.1936666917315208 15 16 18
1.6758199705797245 2.839313002757425 1.1978573494821072 16 17 19
1.701215427663308 2.8122300729364658 1.191514842523896 15 16 18
1.1759364180411942 2.838504493129457 1.3632067459411943 18 22 25
1.2281482357592184 2.7678658595366716 1.3513015726239557 45 46 48
1.2336524901191677 2.7495157370595704 1.3508736609662368 52 53 58
1.2351127829417523 2.7329057515670807 1.3516508865982986 52 51 55
1.2289463296915886 2.7195072214231053 1.3547062904599105 46 45 49
1.2341023235463866 2.669569970233945 1.3567898126794484 23 24 28
1.1878310545879107 2.672635512311931 1.3718569926792634 19 20 25
1.1018337598004595 2.659566442710413 1.4012837203762576 48 49 55
1.0680810031504735 2.6570764924295323 1.41263306898235 76 76 79
1.0385849394479627 2.6527767053056253 1.4227122276019455 96 95 94
0.9975877771957111 2.652961505632534 1.4362540481602981 128 127 125
1.7813660622807 3.8740005136973927 1.1002459141582799 170 169 166
1.7908098517066229 3.851431162652232 1.0988038508514983 164 163 161
1.8096859840379995 3.8233148891925177 1.0946442339158673 113 114 113
1.8133450646155407 3.804332414606904 1.0948548978329529 66 67 69
1.8083693648159074 3.4762576882996767 1.1211642968875544 29 29 31
1.861312378687113 3.398716502335361 1.109398503777272 21 21 23
1.9036655999027343 3.3597109749565037 1.0982556747610723 20 20 22
1.554609421211166 3.1212302937375207 1.2321717730186832 22 22 24
1.5452842295022136 3.1096368313120206 1.2361418785485878 20 20 22
1.4966274764831513 3.116984789336455 1.25175858410276 18 18 20
1.5567605941088243 3.0559153092069926 1.2363655711789516 23 23 25
1.6503679368291062 2.9166264099863266 1.2157273315838062 52 52 52
1.6785207002494733 2.887895565193784 1.2085312218354893 43 43 45
1.6987875425295031 2.8629414021416784 1.203671820195984 16 17 19
1.6862065920863452 2.8531866202182825 1.208585650649911 15 15 17
1.6751501463965264 2.8427060093966854 1.213047427600057 15 16 18
1.649909439874932 2.823096851214312 1.2229087609485052 14 15 17
1.17487638029765 2.842070034557122 1.379339186188172 14 18 21
1.1846771048107827 2.8216617219033484 1.377616101749162 21 25 28
1.2228691628708261 2.773155716104009 1.3685700457583865 40 41 44
1.228371651088722 2.7547816865581676 1.3681224075596945 49 49 55
1.2337035157426977 2.7365238392324236 1.3677227370976954 54 53 56
1.2299342830498876 2.722111368721419 1.3700584223905532 50 50 51
1.2210474598648877 2.70983453053857 1.3739342134785715 42 41 46
1.2149349291553577 2.696397701896553 1.3769752678668987 36 37 41
1.2197947612240483 2.6625178626024932 1.3779065030911213 21 22 27
1.1717140611837134 2.66623089001484 1.393604960336837 18 19 24
1.133306254972523 2.6658522985992423 1.4063965563730325 21 22 27
1.1187997596130104 2.6556900392549205 1.411980880242641 35 36 43
1.0880341936193458 2.6520319151825755 1.4224793823334456 64 65 69
1.0656211635160755 2.644934919217076 1.430460729872677 86 86 85
1.0340068406361342 2.6414380810670144 1.4412291577583984 104 103 101
0.9877054673246338 2.643662121765133 1.4564482365698224 144 143 141
1.7706821571317657 3.884335968953035 1.118841710336516 169 168 166
1.784419505398997 3.8591561332485376 1.1161284576743005 165 165 164
1.8110221796682393 3.82639850162794 1.1096828136307144 127 128 129
1.822499175176595 3.8027627075939954 1.1076094853193157 73 74 77
1.8213845241522675 3.7866492162047463 1.109181281392512 52 53 57
1.8952697186096676 3.3677485964299168 1.1156910299991858 18 18 20
1.5467318422466247 3.112241006302555 1.25110980536552 22 22 24
1.5402525904471809 3.099254092826194 1.2542404120997324 18 18 20
1.4651257411910672 3.119237277517071 1.277842187314895 17 17 19
1.5395944670791928 3.067388057049131 1.2568324225127754 19 19 21
1.5701021258822674 3.036803030468276 1.2489209315038536 27 27 29
1.5342301514649426 3.005823885600197 1.2632069518749205 56 56 56
1.6584414443165532 2.9003379662579936 1.2295780476581186 53 51 53
1.6927889237719616 2.8688179636829108 1.2204538114420767 35 33 36
1.6920343978440089 2.8536045692142182 1.2218383334999032 19 17 20
1.6798502609617283 2.843644481426804 1.2266488183108628 16 15 18
1.6675937075975997 2.8336907024754963 1.2314830177096225 15 16 18
1.6507155235528566 2.8258076510739194 1.237706506475987 15 16 18
1.1647708087648105 2.865802766541693 1.397015437800288 12 13 15
1.1749403870109993 2.8451570473140575 1.3951561431285318 13 14 16
1.1884080866476125 2.8231635560023225 1.3922957394133166 18 19 21
1.213434281865031 2.780215329166298 1.3871352018700696 35 36 41
1.2183586935943373 2.7620523752260997 1.3868427592875436 43 44 48
1.2270599425992827 2.742345375891753 1.385403946788795 52 53 57
1.231803827758152 2.724349979888963 1.3851593193195137 51 51 56
1.2250949490048162 2.7111616998112322 1.3883816028331186 47 46 51
1.2211804524140613 2.696812623551231 1.3907570871154207 41 40 46
1.2183376847963499 2.682029232987945 1.3928069882454333 35 34 40
1.2422009567299994 2.656301504301336 1.3867528647593308 26 27 32
1.1839095159455861 2.6642326676976156 1.405629475648158 20 21 26
1.1539720115941636 2.66043783404066 1.4159099190713695 21 22 27
1.1351032197864739 2.6520730362906093 1.4228340550350256 28 28 34
1.1043482361867132 2.648441304936417 1.4333753622642262 54 53 59
1.0856699109089258 2.6398760856277037 1.4402508100484819 81 79 81
1.055654271315102 2.6357800626519747 1.450579769176861 96 94 95
1.020352114489212 2.6336875367582135 1.4625250683605864 102 101 99
0.9765263717313388 2.634845778493286 1.4770749091583073 144 143 141
0.9321240506767707 2.636084255747379 1.4918113312770707 168 168 166
1.7649352664668956 3.8917218064000805 1.1360635934270649 170 169 167
1.7890948163385627 3.860269933215738 1.130274293730254 164 164 163
1.818361469782242 3.8259063480399997 1.1229856552479975 120 121 122
1.8301263622662436 3.802095853855588 1.1207927847802277 83 84 86
1.7631784464827076 3.82494834962736 1.1415766263039475 60 61 63
1.8659031933621668 3.403278680502393 1.1381915218302874 16 16 18
1.9227493492610768 3.3563671808565014 1.12257194324429 19 19 21
1.940505688017788 3.251479519909765 1.1243463165222742 30 30 32
1.554670666536782 3.1117008510488215 1.2641452447899253 24 24 26
1.5446452047234192 3.1004324091864266 1.2683408128383915 22 22 24
1.5204699676079132 3.0959487109692 1.2767850190959473 20 20 22
1.519939970248192 3.0800704765967217 1.2781336466715025 19 19 21
1.546606358857549 3.051250718109137 1.271308936435047 24 24 26
1.6112570471888468 2.941171885714974 1.2577275520348197 57 57 57
1.6378829739873442 2.913023214496429 1.2508669400953631 55 53 55
1.6583611076148395 2.887848111734299 1.245850378704447 50 48 51
1.6964313718219006 2.854680418967178 1.23551892604392 23 21 24
1.6846150185990456 2.8445534669891326 1.2402313812482657 16 15 18
1.6684158259737736 2.836401153990179 1.2462691935232764 16 17 19
1.6557989879339854 2.8265785784636805 1.251227862040692 16 17 19
1.643441950775742 2.816610162022154 1.2561100903926394 15 16 18
1.6393600794632435 2.802888603904818 1.258491767121674 13 14 16
1.2085149213405115 2.785369684189765 1.4043822490149094 33 34 38
1.2134525393765703 2.76717734769337 1.4040664804395455 37 38 42
1.2217584104209849 2.7476114445860285 1.4027215478206765 45 46 50
1.2312363091650071 2.7276107567746384 1.4010153213621885 50 49 54
1.2248823853279656 2.714263873365904 1.4041319105438368 49 48 53
1.2217916560275108 2.6995622371790575 1.4062532078392995 45 44 49
1.2517921217543682 2.671219081714635 1.3982743847806214 38 38 43
1.1628006559752921 2.675839275227621 1.4278007305451863 23 24 29
1.168983122307987 2.6573118816232855 1.4270918751076134 23 24 29
1.1370978528237077 2.654239589978451 1.4380196282775357 26 25 31
1.1197981922008435 2.6451907307114046 1.4444928809545072 46 45 51
1.1067209847953028 2.6344047818127856 1.4496770895622213 75 73 76
1.082785594300756 2.627922581127482 1.458188155143622 91 89 90
1.0446446516946948 2.6270100261530427 1.4710561715105837 92 91 89
0.9939569848656795 2.6309295338055207 1.4877787929009347 96 95 93
0.9411678500225976 2.6355023121001087 1.5051585340159148 147 147 145
1.7786516599410538 3.870440541525736 1.1488594172909963 162 162 160
1.8286963781505678 3.823624036077075 1.1353992536254922 96 96 97
1.7666315813658593 3.8437134216335247 1.15486514552127 73 74 76
1.7617193348702735 3.8296981161884394 1.1575453441075176 65 66 68
1.7724517778653137 3.806454368496291 1.155622870408475 63 63 65
1.867204266752956 3.4061046200774734 1.1528996001494036 25 25 27
1.9171460588039428 3.362898979125868 1.1392104786018555 27 27 29
1.9434883635675004 3.2533092331703193 1.1383283503818244 30 30 32
1.5597939167632036 3.112524568317234 1.2780189687769126 25 25 27
1.5473627087958113 3.1024206957599776 1.2829494990822197 25 25 27
1.5236429907650904 3.0977208511667396 1.291292740601523 22 22 24
1.52345693366177 3.0816718566245873 1.2925274211122952 17 17 19
1.5352137932655978 3.059948216751167 1.290148436902335 17 17 19
1.5593719738419143 3.032405559695844 1.2840117223294716 25 25 27
1.6171874880064612 2.925792877840173 1.2722971003984649 57 56 58
1.6456062064260326 2.8968804600357427 1.264823438706364 53 51 54
1.6988036845149534 2.8566895067184763 1.2498161198719266 39 37 40
1.6850823052486843 2.8474338800862955 1.2551198511844297 17 16 19
1.6715633027745758 2.8380528713859383 1.2603644816561796 14 15 17
1.6579239357855615 2.8286945219480795 1.265648053355663 15 16 18
1.6346031735362965 2.823686084109343 1.2738792714350498 16 17 19
1.6479536689913679 2.802080421724508 1.2709541799618154 14 15 17
1.1750308683675272 2.786478726033176 1.4315981240735025 33 34 37
1.1683579437206932 2.773124618936815 1.434823872079693 43 44 48
1.219262722733037 2.7356527999669833 1.420391265200578 50 50 54
1.224044892772283 2.7176304732113246 1.4200943871624752 50 49 54
1.2190777170926952 2.7036947187574105 1.4227873029821942 46 45 51
1.254659854370584 2.6730182782263063 1.413026416943511 41 41 46
1.2370065335459188 2.664382268142426 1.4196110452754496 37 38 43
1.1883123221507153 2.6683962573645883 1.435741239288215 31 32 37
1.167617209535306 2.6608453178157307 1.443272551713259 26 27 32
1.141671748761177 2.6553634910573383 1.4524235807579684 28 28 34
1.142560032266635 2.638984767976086 1.4533199912635315 41 40 46
1.126372719786579 2.6294835340671145 1.459473353040884 66 65 67
1.106729555507295 2.6213220992518376 1.4666944499202996 82 80 81
1.0764923361857375 2.61731685637202 1.4771851555945452 92 91 89
1.0158930371656498 2.625223091026895 1.4970464097988527 90 90 88
0.965512838562472 2.628896848986391 1.5137700882038025 106 106 104
0.9129646343273282 2.633247996249239 1.5311755148010269 157 157 155
1.7559474036857177 3.9050190759518304 1.1698999359485098 169 168 166
1.7939123592520154 3.8652164898806887 1.1599104631057162 156 155 154
1.841733507242344 3.819722184732651 1.1469919639715163 79 79 80
1.7649253336936552 3.8486318797052648 1.1709343726103782 61 62 64
1.7690918254692214 3.8123105930759187 1.1721486011621518 47 48 51
1.9102640232531376 3.370134420574797 1.1562743657201828 36 36 38
1.9608174442843287 3.2475407842060364 1.1480048607302817 31 31 33
1.9492322931580957 3.23787505906377 1.1526303860827622 31 31 33
1.5474574306135156 3.1056794119902533 1.2983644450664464 27 27 29
1.5262447711562594 3.099769646282081 1.3059814627872106 22 22 24
1.524128091234704 3.0846391373239825 1.3077929638970849 17 17 19
1.5246573322947716 3.0682601728887695 1.308797949372703 17 17 19
1.542538003776484 3.043657653539101 1.304516597810533 19 19 21
1.5974500371666638 2.938137730635389 1.2935352124010417 59 58 60
1.6271541448440883 2.9085659606845624 1.2856058278809372 54 53 55
1.642511386602019 2.8857538415978397 1.2820502875215152 50 49 50
1.6920927675831912 2.8473137191205358 1.268025098324264 27 26 28
1.6784482276049748 2.837997595965284 1.273323339981657 14 14 16
1.6653861073951386 2.8283838197815183 1.278445703317152 16 17 19
1.6447472285252327 2.822172583163436 1.2858900468955663 17 18 20
1.6402734965855554 2.808609489229157 1.28838709228181 16 17 19
1.6385520510010516 2.7938150678394194 1.2900403327100436 14 14 16
1.1878753212223558 2.7841204392211982 1.4434908268518647 29 30 33
1.1714251761105006 2.7748996061849414 1.4497330918597744 39 40 44
1.1578590567271005 2.764428135579 1.4550882973273407 47 47 51
1.2249742236451922 2.720264306969252 1.4355342006014022 50 50 54
1.2205706179043811 2.7060860310231787 1.4380519616801803 47 46 52
1.2541202979175705 2.676227317442528 1.42883993247401 44 43 48
1.2518876737916143 2.6612415219189813 1.4306802667381229 41 41 46
1.183011713860825 2.673552427957712 1.453134440404474 38 38 43
1.1712389266200884 2.6623513367065446 1.457934584270945 35 35 39
1.1290367129688241 2.6634656992487606 1.4721577518792492 32 32 37
1.1438706586091618 2.6414224089902754 1.4687239801257688 35 34 40
1.1485719123799054 2.623528832048398 1.468424452057465 56 55 57
1.1318984044409164 2.6142186550852835 1.4747488826870536 78 77 78
1.1045723867601769 2.6091031171306787 1.4843804921547854 87 86 85
1.0699270531815988 2.6068012436245347 1.4962894074336344 88 87 86
0.9889554323161558 2.622633282936319 1.5225885935368584 96 97 93
0.935437814315878 2.627415933800746 1.5403816776448584 132 132 130
1.772711430872335 3.9159225673284026 1.1793330902997081 169 169 167
1.7807161760951324 3.894057602822218 1.178172192542122 168 167 165
1.8125557406343566 3.8579520562282923 1.1699128742473932 147 145 145
1.8538131772094937 3.8163844688441158 1.1588369481292107 72 72 73
1.7577508776519877 3.8568141445668704 1.1886605827665604 57 58 60
1.7556589015120674 3.8410821360772474 1.1904994694154016 45 47 52
1.8692963702720142 3.412044772274967 1.1825131306235606 34 34 36
1.956542453036092 3.237415217736545 1.1653006145042577 31 31 33
1.9500827925296131 3.2250360415570274 1.16838705649599 29 29 31
1.5365199655112092 3.2772027772847396 1.30550929359336 11 11 13
1.5336144707837829 3.0995223106380814 1.3192203497665118 25 25 27
1.5294239024465508 3.0853904708724547 1.3216594375254906 18 18 20
1.5129236570862217 3.0771477144054034 1.32786949095603 16 16 18
1.5269306990259963 3.054344213961656 1.3247314404590196 16 16 18
1.543056875918026 2.9825988428128927 1.3243757351670917 60 61 60
1.6102860545620115 2.9195361494366026 1.3059929693883738 55 55 55
1.6276351301320995 2.895751910123067 1.3017868588497736 51 51 51
1.6556303039139808 2.867168818897979 1.2942983307570908 43 43 44
1.6822754508543079 2.839339613793829 1.2872156381421913 17 17 19
1.6678475040834824 2.8303488016973044 1.2927734368344719 16 16 18
1.6533866423787686 2.821337192432919 1.2983439351967327 17 17 19
1.6436580668967307 2.810153455218522 1.3024581614456785 17 17 19
1.62741578640376 2.8018805174083514 1.308582514357243 16 16 18
1.6330806304164291 2.7837631748145073 1.3079502541634165 14 14 16
1.1777932628050989 2.7752847197386914 1.4636256802514964 33 33 37
1.1719320454395499 2.7615858541492844 1.4666027821167291 42 42 46
1.2597455670586073 2.676890302985538 1.4427579580548822 45 44 49
1.209473741029162 2.665701464600499 1.4606813592296406 42 42 46
1.1165725415691943 2.687628066034881 1.4907531125643838 41 41 43
1.1069984466717684 2.675397018280283 1.4948897082880899 39 38 43
1.1392038672539888 2.6462770496020513 1.4860056321640298 39 38 44
1.1577973611516335 2.622776652559349 1.4813553571695404 52 53 54
1.153723216893356 2.6084385085703548 1.4837695623703933 73 74 74
1.0990073616150022 2.5982295998062943 1.5031364152156135 69 68 68
0.9636774464101681 2.6193097778778673 1.5477197591110021 112 112 110
1.772772779847568 3.919853262648939 1.1949525538279746 169 169 167
1.8043347428499048 3.8668078199312412 1.1879103256939398 149 147 147
1.8492096862395837 3.8230217622433442 1.1756552918660839 73 73 74
1.763922966008695 3.857052959505746 1.2024330090366973 61 61 64
1.8151786510147505 3.692337890294298 1.1965660657100945 48 47 52
1.943179220210175 3.3432835919837633 1.1774993599025896 22 22 24
2.0048432002087684 3.246731818132403 1.1632384091729893 32 32 34
1.9620260593757597 3.222140769706118 1.1796359954101656 30 30 32
1.9637900342363672 3.205461714419337 1.1802145423514403 28 28 30
1.540789472716951 3.278492757734472 1.3198127606216872 11 11 13
1.5403437225607244 3.099581965531473 1.3326472532718827 30 30 32
1.5281251704868142 3.0731658819350964 1.3387016203037247 17 17 19
1.5114360088618477 3.0649943161989484 1.3449928390028845 15 15 17
1.5906541087245345 2.9318064956335834 1.327320778979965 56 56 57
1.612682289190495 2.9058014060499286 1.32162482465519 52 52 54
1.6384994318397859 2.8781661185121625 1.314747626129229 48 48 50
1.6885668014615063 2.839554147667946 1.3003486868800072 36 36 38
1.6742858891878791 2.8305027015848307 1.3058780345976564 15 15 17
1.662068146857252 2.8204797099149013 1.3107701148304807 16 16 18
1.6470437137275695 2.8116981362751976 1.3165348081961432 17 17 19
1.6309955214346141 2.8033390626471886 1.3226199419000868 17 17 19
1.1691217375636958 2.7658268063435774 1.4833585606313007 37 36 41
1.159123596106331 2.7538414317975093 1.4876300683929737 48 47 52
1.1079645620291472 2.6941491477716384 1.509370846765792 43 43 45
1.1838703577519278 2.6471700570296255 1.4867216177484945 45 44 49
1.1384585289120026 2.6495534870707096 1.5020951926787143 46 45 51
1.1602553205707895 2.6247441397612397 1.4963936737015608 52 52 55
1.157734399858826 2.6097783445238543 1.4983173138004924 67 68 69
1.1400946984769833 2.600849146335152 1.5049875656081648 68 66 68
1.0407662928813992 2.624262488691785 1.537323786869337 52 50 52
1.001568119187509 2.6235895995349487 1.5507873384710107 74 74 74
0.9780779271960464 2.616620849714052 1.559320997778642 96 96 95
1.795979812052195 3.875757855595815 1.2060027579651755 159 157 157
1.8408901757871443 3.831894383448524 1.1936350292199525 90 90 91
1.7731136169905577 3.8554896861269494 1.2152891503393566 64 64 66
1.7653643519388993 3.843128176181005 1.2188216965266585 50 50 52
1.910656023011341 3.3804626974109078 1.2013180731065098 25 25 27
1.9536835167833515 3.341081851756551 1.1892833571813308 18 18 20
2.008907396825611 3.2637349425872237 1.1757181262057865 30 30 32
2.0011782926513515 3.2520954908455293 1.1791930717370733 32 32 34
1.527149370665828 3.0930783382984313 1.3533799913927242 21 21 23
1.5209740220162746 3.0798764045291858 1.3564302067450722 17 17 19
1.624979384772697 2.8875190504530437 1.3341582770590301 49 49 52
1.6458905914391442 2.8622096912964596 1.3287424268955943 47 47 49
1.6784939848953402 2.8316729945621995 1.3196721868266068 28 28 30
1.6673957577856027 2.8211427301084306 1.3242280138968932 16 16 18
1.6542812999794814 2.8115020299568254 1.3294148449412646 18 18 20
1.6360475819672293 2.8041357870738692 1.3362026999907282 18 18 20
1.6186248042528693 2.796355182786557 1.3427407311367523 16 16 18
1.178584249230933 2.764915315642331 1.496286214089612 35 33 38
1.1768982052842052 2.74946272592625 1.4979503904462674 44 42 47
1.1172986508634795 2.6933504896543305 1.5223853514830559 45 45 47
1.136092360007076 2.6695699160432507 1.5175904788964196 48 47 52
1.1207505522852563 2.643610654890633 1.5246884182757268 53 54 58
1.1569073625013453 2.613057758310853 1.5143972190426485 60 60 64
1.154921289439073 2.5978788741558962 1.5161453758715724 45 44 48
1.0724698903243626 2.614646843580732 1.5433255626545188 36 35 39
1.0391970644143314 2.611697215280846 1.5549757737713195 58 58 60
1.0088602727167721 2.6074879011180276 1.5657046123105691 83 83 83
1.77691076758274 3.908219111155714 1.226221065989679 170 169 168
1.808823897722433 3.871968052417066 1.2177101280827467 165 165 164
1.8432450862047944 3.8343827762610396 1.2084251058849325 116 117 118
1.873817331667542 3.7992757678722464 1.2002981001021968 71 72 74
1.8454208457489085 3.7994121038697646 1.2101020933224442 52 53 55
1.9262988432768617 3.3594221443958783 1.2127113710216324 16 17 19
2.0119057075909677 3.249785543527254 1.1907415873956548 32 32 34
1.6109910451153087 2.897102675834598 1.353788299615589 51 50 52
1.6348617382041344 2.870386650752695 1.3473944655344539 47 47 50
1.6882510126845784 2.830309734901745 1.331727373155126 41 40 45
1.6717697612142806 2.8222389659119074 1.3379836414617665 18 18 21
1.6600990915019525 2.811946707751266 1.3427317286389382 17 17 19
1.641553670340872 2.8047278011490295 1.3496421811560106 18 18 20
1.6306815782153665 2.7940144374172706 1.3541435381856333 18 18 20
1.6106515935331078 2.7873696942838113 1.361527158121161 16 16 18
1.19067930392054 2.7790627013716547 1.5072411777094792 22 19 26
1.1791364034278644 2.7677490302018937 1.512016052129292 31 29 35
1.258868213551398 2.654376750923079 1.4923360751673598 46 45 50
1.1287902034191988 2.6755372529294204 1.535819661275963 48 47 52
1.1074061523786591 2.619784616076067 1.5470820377476675 29 28 34
1.098746095168649 2.607168037419753 1.5509511323490228 34 33 38
1.0656392832101718 2.6042034498038458 1.562598329925403 51 50 51
1.009432586116378 2.6102191072569205 1.581604825944565 77 76 75
1.7675804463316422 3.9349383669371556 1.243577912241608 170 170 170
1.7903080170991195 3.904089082563319 1.2378062359293633 171 170 168
1.8102954926993435 3.8750179973874865 1.232863837167176 167 166 165
1.8303613249269768 3.8460155983524023 1.227889507211745 131 132 133
1.858626085991311 3.8122288092632473 1.220396939543762 77 78 80
1.853331456919363 3.7985762556622498 1.2231740009394283 56 57 59
1.8554912040240716 3.78050382891321 1.223666317150963 45 46 48
1.8965658213639853 3.37906741872214 1.2369977005884645 14 15 17
2.0178818503153986 3.2500081609143363 1.2037416709418507 34 34 36
1.596933491654923 2.906733559332203 1.3735146673400345 50 49 51
1.623788140895602 2.8785970290614635 1.366123368870071 49 49 51
1.695754672823016 2.829972536609936 1.3444750990330967 46 45 50
1.6736501909353112 2.824470337364897 1.3525292056911877 29 28 31
1.6684635481766756 2.811236921146455 1.3552399568280513 15 15 16
1.6585693619085882 2.800128336697132 1.3594393637006406 18 18 20
1.647539570667465 2.7895122988350134 1.3639992571000648 19 19 21
1.6023551781634695 2.794140904766837 1.3793715799527315 19 19 21
1.623370285738119 2.7691534039045482 1.3737916255692886 16 16 18
1.1638336153684536 2.6803393974923138 1.5394729743504856 47 46 51
1.1351768902711115 2.6276889086377424 1.5530433516512974 32 31 37
1.1291208899256129 2.614070979195844 1.5560824227447962 27 26 31
1.1134058816412573 2.6042923076545854 1.562211719281124 24 23 28
1.1007628350392857 2.5932601343771844 1.567360428353955 42 41 41
1.0364281989115143 2.602551406442841 1.5890622518853257 71 70 69
1.7935676376077956 3.906082711076598 1.25247715946573 171 170 169
1.8107362733442458 3.878692910799189 1.2483497737524887 167 166 165
1.8339864514323077 3.8477547892481225 1.2423417634898513 129 129 131
1.8449291319788443 3.8243088882355 1.2401184826558307 83 84 86
1.8617036007945218 3.7974623855350202 1.236091673967328 63 64 66
1.8634084067818197 3.7796634924796595 1.2367075764334705 51 52 54
1.8585594821675402 3.4032397719037233 1.2640052874045427 16 16 18
2.026778282877296 3.248668366715938 1.2158242842099758 35 35 37
1.953447721160554 3.161377691585398 1.2473489172600696 21 21 23
1.6126682576023124 2.8868416136347994 1.3849300110365883 50 49 52
1.628688403023456 2.8637480215155544 1.3809111161957832 47 46 51
1.6862124464762065 2.821838986201927 1.3636904211452388 39 38 42
1.6731228187402594 2.81220442126715 1.3689130850121194 18 18 19
1.6755713561501748 2.795525412134484 1.369193302987809 17 17 19
1.6551090680739582 2.789174874384155 1.37676507157368 18 18 20
1.6113196020418918 2.793200436680688 1.3917704261888664 19 19 21
1.6416645040973483 2.7640554259852905 1.3831649231596868 19 19 21
1.6513111301981864 2.7442317212376057 1.3811474707528788 16 16 18
1.140455274399216 2.628535198530943 1.5672673895429035 27 26 29
1.1264202873538491 2.6181080511328276 1.5728738263602329 24 23 26
1.1258774491048147 2.6022804972329956 1.5741398873471133 24 24 27
1.1166884537382566 2.5898972725277924 1.578188502083576 40 40 40
1.0283723350279779 2.6086795450373854 1.6077264588968039 68 68 67
1.805654697665895 3.885703636916017 1.2655667222992788 166 166 165
1.8415431558680457 3.8471328222958037 1.2555805104531017 106 107 108
1.8706411936579164 3.8128143934352554 1.247688767865529 83 84 86
1.8732442706663974 3.794455173588735 1.2480118484710758 70 71 73
1.8573326770177268 3.7703500162502492 1.2552128153898043 51 52 54
1.916194575594059 3.3593669070498877 1.2622382216677006 24 24 26
2.0224090075738053 3.2544234208217895 1.2320634517607925 39 39 41
1.946595122779842 3.152542437279153 1.2655007036168284 21 21 23
1.6207883388583526 2.8704898950816533 1.3987109436787337 48 47 51
1.6319473265127389 2.8496654815833367 1.396200292958979 47 47 50
1.6756190591393605 2.814153766800614 1.3832794078497537 34 34 35
1.6777693651417889 2.79760144482892 1.3836396105234783 14 14 16
1.6617661444837075 2.7892457281816383 1.3898126525662757 17 17 19
1.622254643928653 2.791374383402419 1.4035218988147355 21 21 23
1.598348998107103 2.7864099595083314 1.412237230660432 21 21 23
1.1249747595274102 2.605589977312619 1.5903701597966733 32 32 35
1.12551123967614 2.589341755711212 1.5912756930370457 43 45 46
1.1051698678459636 2.581352315024686 1.5989450146087332 67 68 67
1.0545611706208093 2.5851850703204082 1.6164301803926338 87 89 87
1.0008744185421823 2.5900467338642255 1.6349252428641006 130 131 130
1.777621968458419 3.9236884587661702 1.2888487690709882 171 170 168
1.8140894073347549 3.8845651008555273 1.2786076990800264 162 162 161
1.8501687347792437 3.845865357560432 1.2684751396480862 89 89 90
1.879530712696498 3.8113787392646366 1.2604283309858202 75 76 78
1.8821073832122908 3.793039648048014 1.2607418468521796 62 63 65
1.8667586134287035 3.7853986359835003 1.2666575243292624 56 57 59
1.8576592338979783 3.7740118886760863 1.2706211743923437 53 54 56
1.8661773594374582 3.3899902237428843 1.2931923525789786 25 25 27
1.9434029263724242 3.3321172613974492 1.2698420649251243 26 26 28
1.6099840178357274 2.8785731346837657 1.4174958635200745 49 49 51
1.6232753906503936 2.8567370619560735 1.4142678052683024 46 46 48
1.68305673545546 2.8138604576801507 1.3960639414244136 41 41 43
1.6783929952817473 2.8003915751666155 1.3986037103594156 19 19 21
1.70006415225029 2.775070806333715 1.392655774637295 18 18 20
1.6985389922408223 2.7602560276034924 1.394179547830767 22 22 24
1.7002867158367228 2.743997381136911 1.3946465384859115 19 19 21
1.1372853546425183 2.58761287647143 1.6033869424167988 51 52 54
1.1160895599792728 2.5799787388831974 1.6113618763326936 69 71 68
1.803028521623521 3.946476684422009 1.2943815903606155 171 171 171
1.7946669782648794 3.917339006286552 1.2992604221063657 170 169 167
1.823129288264433 3.8830573838031794 1.2914446164207178 152 151 150
1.8587855572462837 3.844599429718478 1.2813576733674308 79 79 81
1.8885370163326942 3.809869026705044 1.2731151465820163 69 69 72
1.8661692652525637 3.8064385976794988 1.28125798039052 51 51 56
1.8640135934844713 3.7909024422743087 1.283044348549723 45 45 49
1.8582881405376703 3.7774992800290326 1.2859537059536286 43 43 48
1.8079835223713963 3.5730857855419007 1.3172235683886748 42 42 44
1.9218553174453583 3.3472514561775912 1.2917956661803676 27 27 29
1.9462150191796819 3.1436928625713434 1.2965824421315901 20 20 22
1.6043449692437584 2.884299799965144 1.4346708775752262 51 51 53
1.6163351466319824 2.863028790656825 1.431828210514081 50 50 52
1.6653866573117957 2.8249800131869813 1.4169731875998521 45 45 47
1.6760085470011759 2.8045466013638944 1.414559640156002 32 32 34
1.6958513452148314 2.78002408647547 1.4091517886930809 17 17 19
1.7049789813551106 2.7604108594260035 1.407213092359209 18 18 20
1.1079064090239465 2.6344276150592254 1.6268403117789096 35 37 41
1.1505546127232154 2.5852856295267217 1.6149824069215448 54 56 56
1.1270761376494525 2.578574630420458 1.6237344671514438 71 72 68
1.0858705487310756 2.5787647239576583 1.638306297735729 92 93 89
1.0409900431813275 2.5802555538307965 1.6540931511916732 100 101 97
1.8119127738114773 3.945052888504602 1.307330898790474 171 171 171
1.7941972598362175 3.9387343274998625 1.314042503302133 171 171 171
1.7984325355370208 3.9190377249194883 1.3138196489021414 169 168 167
1.8265808201789289 3.884925073975893 1.3060321660121799 148 147 146
1.8571514205781097 3.8495059760106844 1.297468385009404 74 75 76
1.8804260378284097 3.818629846064687 1.2912031931982075 60 61 63
1.8603206554375493 3.780158107043989 1.3008595319248144 43 42 48
1.9020856734241867 3.3614489477106995 1.3132870954753135 31 31 33
1.9565729772093166 3.1416959177329717 1.3082279303469144 20 20 22
1.6339565547052999 2.8423790339299986 1.4424569766376947 48 48 50
1.6801556784654117 2.805748579028101 1.4284143523661046 44 44 46
1.692818408352677 2.7844525066965744 1.4252987626394005 23 23 25
1.7107076340871328 2.760883810248804 1.420472609897121 16 16 18
1.7019485679968784 2.7493202090722786 1.4243408776825277 16 16 18
1.6934247283847776 2.737639097061651 1.4281331510842679 16 16 18
1.6466631345746876 2.7428821123297897 1.4444207662451867 15 15 17
1.6741069469913987 2.7152421615187765 1.4364620935838193 15 15 17
1.5458974609305103 2.7246791754143826 1.4814407016813047 13 13 15
1.211593336154986 2.659730327711135 1.6045564513359467 56 56 58
1.1619685803440798 2.583689848430103 1.6271580699874437 57 58 61
1.1370888063212206 2.577551492598338 1.6364056652141699 77 78 76
1.099983163200363 2.576150220475273 1.6496923529890235 97 97 95
1.0594023903412033 2.575988540388106 1.6641340930199808 95 96 92
0.9993514292772399 2.583278687728726 1.685014255390855 104 104 100
0.9530525300078916 2.585027815237715 1.7013649637595314 154 154 152
1.8220525398846599 3.9428566211019507 1.3198653252110275 171 171 171
1.8009079285336873 3.9386468287586585 1.3276914209697845 171 171 171
1.8023584784535416 3.920640395984137 1.3283333520511291 169 169 167
1.8298078723196076 3.886930328856893 1.3206978752235972 150 149 148
1.8695345277467275 3.845966775309316 1.3091431660735653 75 76 77
1.882168524312002 3.8214846396218243 1.306206563830614 59 60 64
1.8810890552100497 3.8052930328602557 1.3076355218109226 47 49 56
1.878285139918248 3.790150629736302 1.3096130113443818 43 43 49
1.9023072830056555 3.3648486177373718 1.3284334213580122 19 19 21
1.9420754072878805 3.1367627997574172 1.3289206996662466 22 22 24
1.6326649721188156 2.846080981278622 1.458200688772374 49 50 52
1.6927389972524172 2.8031260998045284 1.4395042889843639 45 45 47
1.695254222733829 2.7864187366315747 1.4396821150111427 39 40 42
1.71981871019125 2.75983615408991 1.4326181550340475 21 21 23
1.7076787782469722 2.7497947766779904 1.4376026760979728 15 16 20
1.7004135847706676 2.7375560557994953 1.4409870622352345 13 14 18
1.7003473059276386 2.7221191972906063 1.442005382688614 14 14 18
1.6787779625057277 2.7161936760939267 1.4500937819035113 14 14 18
1.633025459377969 2.7208271531006276 1.4661423386689079 14 14 18
1.1768502540058252 2.580710276701267 1.6381592156151377 68 69 71
1.1467084781476418 2.5766804303291444 1.649188351746799 87 89 88
1.1044123782750572 2.57734328835493 1.6642577935819276 90 91 89
1.0695310605756712 2.57495872405898 1.6768743305075635 85 87 83
1.0218826301629282 2.577440752180725 1.6937389149058855 97 98 94
0.975797662772528 2.5791545344178513 1.710094383221185 120 121 118
1.829947839601295 3.9420299278566704 1.3330967767279098 171 171 171
1.8090956568382044 3.920534890064019 1.3419516528995272 170 170 168
1.8276773122788323 3.892183166398494 1.3370876925579556 159 158 157
1.8629885413186709 3.8538444721261937 1.326854557014302 83 84 85
1.889011048781223 3.821276232036032 1.3195881743687756 69 70 73
1.8811225363305748 3.8091652107610345 1.3231915615573513 52 55 61
1.671581047878555 2.847132309421443 1.4597047820634255 50 50 52
1.6922759121836715 2.8220259368693603 1.453875467158312 63 63 65
1.7052709145218956 2.8005207812864117 1.4505807544061826 48 48 50
1.6998677444690646 2.7874030723833707 1.4533561086872262 47 48 50
1.7087237408509182 2.767872952604117 1.4514213540051302 45 45 47
1.72154592114794 2.746625471863323 1.4481722626551936 40 39 43
1.7055768224902104 2.738285052430898 1.4544361298906723 30 30 34
1.7019414336123342 2.7244302227748536 1.4566238617829168 26 26 29
1.6702187741057468 2.7229889428638883 1.468103274924807 24 24 27
1.5968813767784833 2.7241205596816522 1.494357339701172 22 22 24
1.5871893283680671 2.7127467514137145 1.4985611784116115 23 23 25
1.157996684946263 2.6232406847553738 1.6583324975199831 49 50 55
1.1386126661842602 2.6149407328209766 1.665819651392871 65 65 70
1.19250953729553 2.577414135786584 1.648863027106731 81 83 83
1.156317456886043 2.575810403186486 1.6619571929837904 89 91 90
1.1176395562747818 2.5750685576615435 1.675888788879371 76 78 76
1.0744850920873996 2.575955284469541 1.6913235910185662 75 77 75
1.0423840484638962 2.572382901442654 1.7030746116461466 93 95 92
1.8333591683333632 3.943949466085775 1.3477604696000556 171 171 171
1.8162677596530488 3.90306968250715 1.3564996257811284 164 164 162
1.8544265756372451 3.8629520970500595 1.34526456010747 107 107 108
1.8914895329125114 3.82369227432501 1.3343706885392042 77 78 80
1.679650112222383 2.8465531636905665 1.4723227155280796 49 49 51
1.6992766444712595 2.82193001983211 1.466795374816398 50 49 51
1.711093593433966 2.8009567529169352 1.4638546802411065 52 51 54
1.6890644332083882 2.795358864476617 1.4721522017158422 61 59 62
1.6998963401659641 2.7749017124341315 1.469534255626893 79 78 81
1.691174839529198 2.763273604879184 1.4734121691707844 87 86 88
1.6751383221279976 2.7548961522151245 1.4797235090328877 89 88 91
1.755261859228752 2.7037725454361765 1.454046986414504 91 90 92
1.1957272659894196 2.6270475502838218 1.6606783403284304 47 48 52
1.2202868841953627 2.5852040905482254 1.6544565937559748 79 80 81
1.1992926089206128 2.5776473346924487 1.6625042716186502 86 88 87
1.164443891944504 2.575525035574484 1.6752062843984443 74 76 75
1.1246259021367129 2.575250549931755 1.6895840886298763 66 67 67
1.0856814121349077 2.5745010922923894 1.7036767808608184 72 73 75
1.8093736717629667 3.9455066339141682 1.3723806925555877 172 172 172
1.772554213369843 3.9507841444638903 1.3853930890093582 172 171 169
1.809408884054473 3.9112119568142774 1.374503448833849 167 167 166
1.8490511918214898 3.8701474076112814 1.3626966753876475 130 131 132
1.885617181211519 3.8311410047141896 1.3518764037362234 81 83 85
1.7161860387826482 2.817307613611299 1.4763984243490804 49 49 51
1.7252618839370835 2.7975979270806945 1.474337230377325 58 57 59
1.6924923536189342 2.7968863987816297 1.4862551259492123 70 69 71
1.7062286312421986 2.7751111281154834 1.4826339113601517 88 86 89
1.6999350661796475 2.7623981907170623 1.4857059273862814 90 88 91
1.6842689636416672 2.7538673090579593 1.4919135387400013 92 90 93
1.6698386951948103 2.7447464123934755 1.4977101025766983 93 91 93
1.2545518507158797 2.6221520294049356 1.6558174841221054 44 45 48
1.249199503674437 2.6083823211039565 1.658614267407056 58 59 62
1.2325841980839645 2.5832173366365825 1.6662016079559319 83 85 83
1.180883599326676 2.5879266728690395 1.6846413611041975 72 73 71
1.1729739997370001 2.5750773144043726 1.6883074199162513 62 64 63
1.1328483661220912 2.574943053282196 1.7028547522517856 62 62 64
1.0980015656918056 2.5726009764014197 1.7156268516711441 69 70 72
1.0710044711790072 2.5670768164035644 1.725752864981675 77 79 80
0.958610988569786 2.5621111687040723 1.7667863077179278 140 140 138
1.8232255087558604 3.9239156026123356 1.384750925553211 173 172 170
1.8346751276712059 3.899854626688141 1.382063915311047 170 169 168
1.850836365963402 3.8730206798692217 1.3778324484396895 147 148 149
1.8676056704800068 3.8459193745091884 1.3733960882825078 90 91 94
1.73855428995245 2.8101805012992345 1.4841201179941772 52 54 54
1.7413811782104052 2.7933438844999943 1.4841273181433121 67 68 68
1.7455694935556758 2.775924754768376 1.4836747832240065 80 80 80
1.7157185323601585 2.7738954495583465 1.4946660357378003 90 88 89
1.7220241812843655 2.7555359898287217 1.4935006230704213 96 94 95
1.6958176633757076 2.7517544709667514 1.5032730680370894 96 94 95
1.3239257339403832 2.628575916981007 1.6462305466666485 42 43 46
1.312686974888341 2.617315334724708 1.6510147387271532 44 44 46
1.3183084271010976 2.599170746736662 1.6500851627950783 58 58 58
1.304820445450541 2.5888115175440016 1.6556326417958318 77 77 77
1.2830212923390847 2.581772325667819 1.6640012169692329 78 78 78
1.2382173163358627 2.5838986882016743 1.6801799005841471 69 69 69
1.1816735156955176 2.5905589289969444 1.7003530712192885 61 61 61
1.1290676575610683 2.595456826522863 1.719201218093449 53 53 53
1.071721119882204 2.6020463836291645 1.7396709516501585 62 62 62
1.836970774901223 3.902440032535515 1.3970910738727957 171 170 169
1.8523872869506597 3.8760392724845634 1.3930589609282649 148 148 150
1.873390634380061 3.84636344531853 1.3871829114870204 92 93 95
1.9021591065797587 3.744942332186787 1.3828309371869558 46 45 50
1.7672525867516313 2.784639457707546 1.4905764064427034 71 71 71
1.7762666218085819 2.765071214678496 1.4884701370296942 87 86 86
1.7634767208613844 2.75540350973196 1.493735507030172 95 93 94
1.69546730240478 2.7705179930395616 1.5176876328383202 93 91 92
1.6962074746058105 2.7546277229364127 1.5183834554992968 94 92 93
1.364635560091907 2.583247149698092 1.6500653029903647 73 74 75
1.3326168227417547 2.580484727873804 1.6619427662708095 76 76 77
1.2924464885747107 2.5809081078119416 1.676607543974161 65 65 66
1.244626856347224 2.584267912754825 1.6938911105319576 59 59 60
1.1895278705366006 2.5903717162824154 1.713669879179157 52 52 53
1.145873771932044 2.591732532033234 1.7295516716959278 53 53 54
1.8253910502562538 3.947759199555973 1.4146594905305991 172 172 170
1.8404397330749342 3.904314493132995 1.4117417315997223 169 169 168
1.8590057631272563 3.875989752757117 1.406623013436379 128 129 130
1.8848833404051581 3.8433597775915636 1.3990768265955775 87 88 90
1.8865043484162265 3.7917169227446124 1.4015850134007546 69 69 71
1.9081276371993643 3.728519409410653 1.397438931725203 52 51 56
1.7841821056558116 2.7954757016965006 1.4990515871009036 65 65 66
1.7842685806635221 2.7799545988980188 1.4999526346375847 84 83 83
1.7851520025072 2.764094829467473 1.5005812431333554 95 91 92
1.7656035374793135 2.75749144474032 1.508160080689751 93 89 90
1.759607529127705 2.7447363229817796 1.511129556232571 91 89 90
1.4336273445641616 2.605046618133463 1.6392878267486204 42 42 47
1.415318724809649 2.596896744007851 1.646504097479683 60 59 64
1.3550694074439362 2.574309812595285 1.6699967646247689 63 63 67
1.299021547606556 2.58119169213144 1.6901747698227554 54 54 57
1.236983889029882 2.590283439468809 1.712420573713203 53 52 56
1.868518409655278 3.8741827023837057 1.4192166225931027 109 109 110
1.886481620088047 3.8463298827668133 1.4142404909528672 83 84 86
1.8884336739179122 3.828225972724551 1.4145949483723768 66 66 70
1.8916780184707362 3.8093816571031023 1.4145164060428508 59 58 62
1.884022404714326 3.7970924740092893 1.4180716317486506 57 56 60
1.5239552213804621 3.3095765877357817 1.579912465336845 17 17 19
1.8005053941193563 2.791075926301022 1.508628856326545 77 75 78
1.8054027666639585 2.773381073218439 1.507871960953305 94 92 94
1.79786366714183 2.7613773306826186 1.5113672351909158 86 83 85
1.792707872119773 2.7482878237019523 1.514047341647034 90 87 89
1.7689939243696453 2.7435533595217354 1.5230808495732913 91 89 90
1.4855262331421084 2.602128196155579 1.6361009139982992 43 43 47
1.4589396496932132 2.597516863538508 1.6461873498293615 62 61 64
1.4373437402180838 2.590766399769246 1.6545588280632186 73 72 75
1.3514073658680887 2.5787288542793694 1.6869911529446096 55 54 57
1.2980967455972363 2.58450557211552 1.7063241626978047 52 52 55
1.839805680827856 3.9469653210027795 1.441589526679584 173 173 171
1.8615342910100172 3.8994401001020615 1.4363205000322856 163 163 162
1.8748674141710713 3.874292005369217 1.432851874429637 95 95 96
1.8798079141934068 3.854307850725504 1.4321921412920016 75 74 77
1.879372071044828 3.8376125639635803 1.433332918614225 59 58 63
1.883786736907985 3.8011321544852326 1.4338356558085832 45 44 49
1.8179456744094271 2.8016141890554573 1.5168694631398387 73 71 74
1.813957309303707 2.7571160639002605 1.5209580557803586 83 81 84
1.793800962772753 2.750837932387439 1.5287996959454022 91 89 92
1.7865402767334804 2.7386905146993934 1.532204207808522 91 89 90
1.5884604605417687 2.6086297919008636 1.6132749035430347 32 31 37
1.5735072442760476 2.599421205375654 1.619359234992989 39 38 43
1.8632600151334704 3.9023755946716605 1.4515493892195512 158 158 157
1.879385159032045 3.875512906907561 1.447099325323647 86 86 88
1.8891307954524772 3.8526124109774993 1.4447959007741524 68 68 71
1.8822794612170155 3.839793968535056 1.4480902794636674 54 53 58
1.879031791571048 3.8248049978458383 1.4501681437223763 45 44 49
1.8935204207618002 3.799208611391444 1.4462542755949854 43 42 47
1.5900550694976152 3.2994530498064565 1.5882323890136323 21 21 23
1.5661590026117451 3.29510282560842 1.5973848264172896 19 19 21
1.8400860770526715 2.794491610200499 1.5243538690854366 86 84 87
1.8403965009017569 2.778922557324531 1.525140067680457 90 88 91
1.8192808625001522 2.7731699334791364 1.5333381244968076 89 87 90
1.8030328577542587 2.7651388989229355 1.5398551312617659 89 87 90
1.735099190562981 2.702952012770754 1.5687601726100076 85 83 85
1.6081474711499608 2.618744991507997 1.6209228822423822 30 29 34
1.5864733938374824 2.6124178758344607 1.629362214989481 39 38 43
1.4803939078788493 2.578880616504753 1.670815750613562 50 49 54
1.8588891779998562 3.9090369609862714 1.46886056513351 162 162 160
1.8754906901307462 3.881851417396659 1.464203890268928 90 90 90
1.8835259226709251 3.8599589322764847 1.4624496208225037 73 73 75
1.886792061781493 3.8410084790233916 1.4623114762541536 55 55 59
1.8861317280156116 3.82446071371414 1.4635050311726396 47 46 51
1.8548889654862748 3.8262619372179354 1.4750917767246874 42 41 46
1.6138239893970932 3.2907880934445215 1.595916055082829 22 22 24
1.7971630693353353 2.9267124137276346 1.5481421205213468 14 14 16
1.8649905226762764 2.8014894555650645 1.5299262429642535 89 87 89
1.850972063316284 2.7925492438267248 1.5356827345761623 95 93 95
1.8376836516993262 2.7832387533521095 1.5411872509158764 94 92 95
1.8257524948335861 2.773275628506776 1.5462212665791244 90 88 91
1.63446912465979 2.6414769036631975 1.6253302303585393 26 26 27
1.6076709266131681 2.621903863186379 1.6364765475692413 45 44 49
1.5658245000527482 2.6085439013344724 1.6528979291937613 64 64 67
1.548936415588404 2.600081344513244 1.6597007972508064 57 57 59
1.5189358347900612 2.597044013969418 1.6710995204130834 50 50 50
1.508704838562279 2.585702425821296 1.6755762493117852 49 49 50
1.4666017203277721 2.587511869613598 1.6912260278557962 58 58 60
1.8334151580332367 3.9286043615932735 1.493415108155891 166 165 164
1.8649237746371408 3.8922617208940355 1.4836246924647474 114 115 113
1.8761603568336795 3.868384651621517 1.4807496961801034 83 85 83
1.8767307929156631 3.8510302069958326 1.481515294106572 67 71 70
1.8790849505829528 3.832630772152135 1.4816694815565996 53 53 58
1.874732049870574 3.801356328333741 1.4850715975833981 39 39 43
1.6333590919104584 3.300748543338587 1.6040619729764438 21 21 23
1.81621253101751 2.905167177882177 1.557673927817322 23 21 24
1.8182890598937886 2.841788119731334 1.560472446433514 98 96 98
1.8721127650384335 2.801272591182055 1.5425304343736699 104 103 101
1.8544137259361178 2.7940408198482527 1.5495910823963697 108 107 108
1.84538161942116 2.78277318034367 1.5536221243933832 91 89 90
1.832032664720139 2.7734676589415037 1.5591648753125222 91 89 90
1.633898791317575 2.644695805527196 1.640906184113236 37 37 40
1.6155037935881826 2.6370525669222875 1.6482516470801656 51 51 54
1.5978641626925223 2.6290368258693144 1.6553342367160966 60 60 63
1.5795289357098727 2.621267701773481 1.66266434325636 62 62 62
