ply
format ascii 1.0
element vertex 880
property float x
property float y
property float z
property float nx
property float ny
property float nz
property uchar diffuse_red
property uchar diffuse_green
property uchar diffuse_blue
property uchar class
property uchar detection
end_header
1.3287 2.7100 0.9736 0.784 -0.265 -0.561 67 67 69 0 0
1.3173 2.6515 0.9743 0.897 -0.228 -0.378 64 65 67 0 0
1.2039 2.2159 0.9832 0.778 -0.540 -0.321 44 44 47 0 0
0.8603 1.7497 1.0220 0.849 -0.523 -0.077 10 10 12 0 0
0.5034 1.9422 1.0716 -0.858 -0.512 -0.034 170 170 169 0 0
1.7130 3.5718 0.9510 -0.882 -0.465 0.077 139 138 141 0 0
1.6971 3.5875 0.9533 -0.564 -0.820 -0.104 76 76 79 0 0
1.5052 3.1398 0.9717 -0.771 -0.593 -0.231 37 37 39 0 0
1.3990 2.7971 0.9803 -0.516 -0.776 0.363 53 52 57 0 0
1.3723 2.7452 0.9830 0.690 -0.500 0.523 67 67 69 0 0
1.7152 3.5696 0.9667 -0.879 -0.468 0.085 132 132 134 0 0
1.6993 3.5843 0.9690 -0.315 -0.941 -0.122 73 74 77 0 0
1.4003 2.8123 0.9952 -0.571 -0.474 0.670 41 40 43 0 0
1.2394 2.3574 1.0086 0.852 -0.229 0.470 61 62 64 0 0
1.1289 2.0013 1.0171 0.821 -0.272 -0.501 55 55 59 0 0
0.9184 1.7246 1.0401 0.400 -0.906 -0.137 29 29 31 0 0
0.9092 1.6912 1.0408 -0.302 -0.899 -0.317 20 19 22 0 0
0.7351 1.6395 1.0629 0.290 -0.649 -0.704 13 13 15 0 0
0.7024 1.6898 1.0680 -0.606 -0.575 -0.549 11 11 13 0 0
0.6530 1.7634 1.0758 -0.706 -0.708 -0.016 13 13 15 0 0
0.6369 1.7838 1.0783 -0.804 -0.594 -0.033 18 18 20 0 0
1.7173 3.5685 0.9824 -0.879 -0.468 0.085 125 124 126 0 0
1.7015 3.5815 0.9847 -0.315 -0.941 -0.122 70 73 75 0 0
1.5099 3.1168 1.0013 -0.675 -0.696 -0.245 36 36 37 0 0
1.2274 2.3565 1.0243 0.943 -0.214 0.256 64 65 67 0 0
1.2172 2.3005 1.0246 0.921 -0.189 0.339 60 61 63 0 0
1.1416 2.0312 1.0295 0.782 -0.365 -0.505 54 53 58 0 0
1.1316 1.9889 1.0300 0.855 -0.272 -0.441 56 56 60 0 0
1.1230 1.9314 1.0301 0.867 -0.300 -0.398 58 59 61 0 0
0.6402 1.7725 1.0909 -0.542 -0.782 0.308 16 16 18 0 0
1.7036 3.5769 1.0004 -0.136 -0.972 -0.192 68 70 73 0 0
1.5431 3.0775 1.0114 0.718 -0.575 -0.391 65 66 69 0 0
1.5122 3.1069 1.0161 -0.638 -0.676 -0.368 36 36 39 0 0
1.2763 2.5010 1.0349 0.763 -0.366 0.533 50 50 52 0 0
1.2638 2.4733 1.0360 0.778 -0.357 0.518 64 64 66 0 0
1.2398 2.4079 1.0378 0.916 -0.243 0.319 79 80 82 0 0
1.2279 2.3761 1.0387 0.943 -0.214 0.256 73 74 76 0 0
1.1022 1.8840 1.0453 0.843 -0.519 -0.138 56 57 59 0 0
0.8981 1.7042 1.0686 -0.433 -0.900 -0.051 22 22 24 0 0
0.8679 1.7412 1.0733 -0.651 -0.730 0.205 9 9 11 0 0
1.7058 3.5716 1.0161 0.124 -0.964 -0.234 69 70 73 0 0
1.5145 3.0959 1.0309 -0.683 -0.644 -0.344 36 35 40 0 0
1.4675 3.1510 1.0383 -0.110 -0.982 -0.151 33 34 38 0 0
1.3877 2.9002 1.0433 0.607 -0.157 0.779 42 40 43 0 0
1.3636 2.7848 1.0440 0.801 -0.123 0.586 31 31 33 0 0
1.2767 2.5252 1.0497 0.768 -0.326 0.552 23 23 25 0 0
1.2650 2.4856 1.0504 0.850 -0.326 0.413 30 30 32 0 0
1.2403 2.4289 1.0524 0.916 -0.243 0.319 51 52 55 0 0
1.1484 1.9888 1.0548 -0.418 -0.907 -0.043 57 56 61 0 0
1.0925 1.8634 1.0595 0.807 -0.576 -0.128 48 49 50 0 0
1.0117 1.7488 1.0676 0.304 -0.931 -0.201 17 16 20 0 0
0.6510 1.7202 1.1147 -0.603 -0.790 -0.110 12 12 14 0 0
1.7237 3.5712 1.0298 -0.912 -0.390 0.126 104 104 106 0 0
1.7080 3.5699 1.0318 0.143 -0.975 -0.172 68 69 72 0 0
1.5169 3.0854 1.0456 -0.702 -0.624 -0.344 33 36 41 0 0
1.4696 3.1485 1.0534 -0.172 -0.975 -0.142 32 32 34 0 0
1.4135 3.0386 1.0582 0.966 -0.164 0.199 54 54 56 0 0
1.4005 2.9917 1.0588 0.289 -0.259 0.922 54 53 55 0 0
1.3516 2.7718 1.0600 0.860 -0.228 0.457 29 29 31 0 0
1.2291 2.4133 1.0677 0.943 -0.222 0.250 30 29 35 0 0
1.1493 1.9999 1.0685 -0.258 -0.481 -0.838 58 59 63 0 0
1.1288 1.9232 1.0694 0.960 -0.208 -0.187 61 62 64 0 0
1.0265 1.7470 1.0787 0.429 -0.899 0.084 17 17 19 0 0
0.8004 1.6832 1.1072 -0.352 -0.913 0.205 10 10 12 0 0
0.6520 1.7246 1.1278 -0.544 -0.833 0.104 12 12 14 0 0
1.7101 3.5679 1.0475 0.260 -0.952 -0.160 67 68 71 0 0
1.4152 3.0465 1.0734 0.987 -0.140 0.075 55 55 57 0 0
1.3649 2.8400 1.0748 0.807 -0.142 0.574 30 30 32 0 0
1.3533 2.7757 1.0747 0.847 -0.226 0.481 25 25 27 0 0
1.3407 2.7377 1.0754 0.779 -0.265 0.568 26 26 28 0 0
1.3297 2.6683 1.0751 0.427 -0.333 0.841 34 34 36 0 0
1.3161 2.6548 1.0766 0.492 -0.274 0.826 42 42 44 0 0
1.1068 1.8904 1.0849 0.686 -0.728 0.008 57 58 60 0 0
1.0018 1.7512 1.0953 0.355 -0.934 -0.037 15 15 17 0 0
0.9914 1.7251 1.0960 0.068 -0.990 0.126 16 16 18 0 0
0.6529 1.7297 1.1410 -0.447 -0.830 0.335 12 12 14 0 0
1.7123 3.5665 1.0633 0.378 -0.910 -0.172 67 68 70 0 0
1.4034 3.0174 1.0894 0.298 -0.290 0.910 53 52 54 0 0
1.3539 2.8034 1.0902 0.872 -0.241 0.427 30 30 32 0 0
1.3413 2.7624 1.0907 0.923 -0.287 0.255 28 28 30 0 0
1.3166 2.6806 1.0918 0.580 -0.378 0.721 28 28 30 0 0
1.1987 2.2997 1.0971 0.823 -0.353 -0.445 34 34 36 0 0
1.0982 1.8569 1.0985 0.885 -0.439 -0.154 44 43 46 0 0
1.0640 1.7988 1.1014 0.527 -0.815 -0.242 27 26 28 0 0
1.0301 1.7442 1.1045 0.339 -0.927 -0.160 30 30 32 0 0
0.9396 1.7399 1.1163 -0.120 -0.988 0.102 20 20 22 0 0
0.9261 1.7448 1.1183 0.080 -0.969 0.232 26 27 29 0 0
0.9132 1.7438 1.1200 -0.114 -0.905 0.409 17 18 20 0 0
0.6540 1.7332 1.1541 -0.141 -0.952 0.271 15 15 17 0 0
0.4900 2.0257 1.1838 -0.905 -0.396 0.159 169 169 167 0 0
1.7144 3.5644 1.0790 0.378 -0.910 -0.172 65 66 70 0 0
1.5689 3.0450 1.0834 0.331 -0.824 -0.459 42 42 45 0 0
1.5237 3.0557 1.0897 -0.695 -0.645 -0.318 35 36 40 0 0
1.3170 2.7086 1.1072 0.409 -0.394 0.823 23 23 25 0 0
1.2016 2.2841 1.1103 0.759 -0.342 -0.554 31 31 33 0 0
1.1419 1.9893 1.1098 0.991 -0.132 -0.005 65 66 66 0 0
1.1013 1.8405 1.1109 0.938 -0.279 -0.208 43 44 46 0 0
1.0800 1.7850 1.1121 0.835 -0.470 -0.285 30 32 33 0 0
1.0663 1.7917 1.1141 0.404 -0.697 -0.593 25 25 27 0 0
1.0320 1.7420 1.1173 0.422 -0.906 -0.017 50 49 52 0 0
0.9277 1.7454 1.1312 0.010 -0.997 -0.072 42 41 44 0 0
0.8709 1.7870 1.1400 0.661 -0.716 -0.224 9 9 11 0 0
0.6551 1.7368 1.1672 -0.141 -0.952 0.271 14 14 16 0 0
1.7010 3.5468 1.0963 0.613 -0.759 -0.221 49 50 56 0 0
1.5710 3.0398 1.0982 0.364 -0.843 -0.396 39 40 44 0 0
1.5566 3.0174 1.0994 -0.499 -0.830 -0.250 67 68 71 0 0
1.1928 2.2374 1.1241 0.394 -0.402 -0.827 28 28 30 0 0
1.1501 2.0788 1.1249 0.987 -0.158 0.004 66 66 66 0 0
1.0683 1.7886 1.1270 0.605 -0.796 0.020 26 27 29 0 0
1.0186 1.7633 1.1328 -0.057 -0.906 0.419 74 73 73 0 0
0.9939 1.7499 1.1357 0.472 -0.879 0.071 54 52 55 0 0
0.9295 1.7445 1.1441 0.010 -0.997 -0.072 39 37 40 0 0
0.8893 1.7547 1.1498 -0.143 -0.937 0.318 15 13 16 0 0
0.6194 1.8133 1.1874 -0.231 -0.953 0.194 35 35 37 0 0
1.5738 3.0084 1.1120 -0.284 -0.879 -0.383 38 39 44 0 0
1.5588 3.0115 1.1141 -0.565 -0.802 -0.196 67 68 72 0 0
1.0698 1.7902 1.1401 0.617 -0.786 0.014 29 29 31 0 0
1.0327 1.7694 1.1443 0.134 -0.914 0.384 25 23 26 0 0
1.0200 1.7662 1.1459 -0.144 -0.917 0.372 36 34 38 0 0
0.9953 1.7521 1.1487 0.457 -0.886 -0.078 77 75 78 0 0
0.9312 1.7436 1.1570 0.010 -0.997 -0.072 36 35 38 0 0
0.9034 1.7596 1.1612 -0.094 -0.889 0.449 20 18 21 0 0
0.8901 1.7619 1.1631 -0.094 -0.889 0.449 12 10 13 0 0
1.7525 3.5053 1.1201 -0.963 -0.230 0.143 142 143 143 0 0
1.7369 3.5104 1.1223 0.056 -0.918 -0.394 79 80 83 0 0
1.7212 3.5025 1.1242 0.440 -0.794 -0.419 63 64 68 0 0
1.5759 3.0014 1.1266 -0.284 -0.879 -0.383 41 42 47 0 0
1.5610 3.0049 1.1288 -0.247 -0.910 -0.334 66 67 71 0 0
1.1429 2.0429 1.1520 0.964 -0.194 -0.184 71 71 71 0 0
1.0714 1.7917 1.1531 0.617 -0.786 0.014 37 37 39 0 0
0.9972 1.7504 1.1616 0.221 -0.956 -0.195 45 43 46 0 0
0.9334 1.7388 1.1697 0.402 -0.883 -0.242 31 29 32 0 0
0.9043 1.7662 1.1745 -0.094 -0.889 0.449 14 12 15 0 0
0.8910 1.7686 1.1764 -0.094 -0.889 0.449 10 9 11 0 0
0.7933 1.7146 1.1876 0.372 -0.907 -0.199 9 9 11 0 0
0.6810 1.7732 1.2045 -0.770 -0.599 -0.221 11 11 13 0 0
1.7390 3.5051 1.1379 0.212 -0.909 -0.359 78 79 82 0 0
1.7234 3.4955 1.1396 0.440 -0.794 -0.419 62 61 66 0 0
1.5780 2.9958 1.1413 -0.039 -0.820 -0.571 42 40 46 0 0
1.5631 2.9993 1.1434 0.259 -0.807 -0.530 64 64 67 0 0
1.5327 3.0223 1.1483 -0.615 -0.727 -0.307 37 36 41 0 0
1.4536 3.1457 1.1632 -0.779 -0.620 -0.095 54 56 58 0 0
1.1156 1.9080 1.1645 0.924 -0.224 -0.311 45 44 49 0 0
1.0724 1.7990 1.1665 0.656 -0.755 -0.001 48 47 50 0 0
0.6822 1.7768 1.2177 -0.584 -0.662 -0.470 11 11 13 0 0
0.6686 1.7800 1.2196 -0.559 -0.806 -0.194 12 12 14 0 0
1.7412 3.4994 1.1533 0.184 -0.934 -0.307 77 78 80 0 0
1.7256 3.4890 1.1550 0.559 -0.755 -0.344 61 60 66 0 0
1.5653 2.9903 1.1580 0.372 -0.722 -0.583 64 65 67 0 0
1.4557 3.1427 1.1782 -0.768 -0.639 -0.044 54 55 57 0 0
1.3138 2.6768 1.1800 0.790 -0.596 -0.147 38 38 40 0 0
1.0607 1.8023 1.1814 0.450 -0.874 0.186 47 48 52 0 0
0.6698 1.7834 1.2329 -0.794 -0.605 -0.053 19 19 21 0 0
1.7589 3.5006 1.1670 -0.648 -0.750 -0.130 126 127 127 0 0
1.7433 3.4947 1.1688 0.184 -0.934 -0.307 75 76 79 0 0
1.5217 3.0232 1.1802 -0.880 -0.470 -0.061 34 34 36 0 0
1.0623 1.8036 1.1945 0.565 -0.687 0.457 61 62 66 0 0
0.8458 1.7509 1.2214 0.417 -0.455 -0.787 11 11 13 0 0
0.8409 1.6834 1.2194 -0.020 -0.907 -0.421 11 11 13 0 0
0.7882 1.6911 1.2267 -0.671 -0.722 0.167 12 12 14 0 0
0.7636 1.6810 1.2296 0.528 -0.818 -0.229 20 20 21 0 0
0.7176 1.7332 1.2378 -0.602 -0.796 -0.060 17 17 17 0 0
0.7005 1.7630 1.2412 -0.396 -0.721 -0.568 18 18 20 0 0
0.6878 1.7600 1.2428 -0.737 -0.658 -0.154 27 27 29 0 0
0.6726 1.7751 1.2454 -0.799 -0.600 -0.050 20 20 22 0 0
0.6562 1.7981 1.2485 -0.747 -0.582 0.323 28 28 30 0 0
1.7611 3.4960 1.1825 -0.648 -0.750 -0.130 118 118 119 0 0
1.7455 3.4885 1.1843 0.306 -0.898 -0.317 74 74 77 0 0
1.6993 3.4080 1.1872 -0.194 -0.980 -0.043 37 34 41 0 0
1.5239 3.0172 1.1949 -0.880 -0.470 -0.061 33 33 35 0 0
1.4902 3.1383 1.2043 -0.113 -0.980 -0.165 32 31 33 0 0
0.9666 1.7329 1.2177 0.166 -0.873 -0.459 31 31 32 0 0
0.9011 1.7381 1.2266 0.390 -0.809 -0.440 23 23 25 0 0
0.8762 1.7283 1.2296 0.819 -0.527 -0.228 17 17 19 0 0
0.7527 1.6773 1.2440 0.266 -0.961 0.081 25 25 27 0 0
0.7329 1.7287 1.2488 -0.336 -0.868 0.365 27 27 29 0 0
0.7192 1.7337 1.2508 -0.644 -0.696 0.319 28 28 29 0 0
0.7039 1.7501 1.2535 -0.662 -0.697 0.274 27 28 29 0 0
0.6886 1.7658 1.2562 -0.693 -0.644 0.324 24 25 25 0 0
1.7632 3.4975 1.1982 -0.865 -0.502 0.005 114 114 115 0 0
1.7476 3.4880 1.1999 0.103 -0.970 -0.222 73 73 76 0 0
1.7014 3.4074 1.2027 -0.182 -0.977 -0.107 37 34 41 0 0
1.4925 3.1277 1.2189 -0.077 -0.951 -0.300 32 31 33 0 0
0.9541 1.7444 1.2330 -0.197 -0.946 -0.258 36 36 38 0 0
0.7663 1.6846 1.2556 0.099 -0.993 0.066 34 34 35 0 0
0.7534 1.6845 1.2573 -0.007 -0.964 0.265 33 33 35 0 0
1.7653 3.4934 1.2137 -0.853 -0.515 0.088 107 107 109 0 0
1.7497 3.4892 1.2156 0.023 -0.986 -0.165 72 72 75 0 0
1.7035 3.4070 1.2183 -0.071 -0.968 -0.239 38 35 42 0 0
1.4947 3.1244 1.2339 -0.129 -0.913 -0.388 32 31 33 0 0
0.9294 1.7468 1.2496 0.713 -0.683 0.157 37 37 39 0 0
1.7519 3.4867 1.2312 0.023 -0.986 -0.165 72 71 74 0 0
1.7056 3.4031 1.2336 -0.071 -0.968 -0.239 37 34 41 0 0
1.4969 3.1164 1.2486 -0.005 -0.920 -0.392 31 31 32 0 0
0.7011 1.8064 1.2961 -0.328 -0.717 0.615 47 48 49 0 0
1.4992 3.1101 1.2634 -0.005 -0.920 -0.392 32 32 34 0 0
1.0031 1.8258 1.2697 0.039 -0.594 -0.803 37 37 39 0 0
0.6812 1.8670 1.3149 0.237 -0.466 0.852 57 55 59 0 0
0.6538 1.8728 1.3189 -0.539 -0.484 0.689 65 63 65 0 0
0.6410 1.8697 1.3204 -0.708 -0.405 0.579 76 74 75 0 0
0.5209 1.7877 1.3327 0.536 -0.755 0.378 167 167 166 0 0
1.7561 3.4922 1.2628 -0.313 -0.950 0.011 68 69 71 0 0
1.0681 1.8515 1.2756 0.337 -0.907 0.254 44 44 46 0 0
1.0064 1.8095 1.2818 0.019 -0.574 -0.819 41 41 43 0 0
0.6796 1.8910 1.3297 0.152 -0.489 0.859 69 68 67 0 0
0.6523 1.8955 1.3336 -0.539 -0.484 0.689 88 87 86 0 0
0.6391 1.8941 1.3353 -0.708 -0.405 0.579 83 81 82 0 0
0.6206 1.9304 1.3396 -0.770 -0.371 0.520 64 62 63 0 0
1.6958 3.4697 1.2858 0.340 -0.939 -0.059 36 34 38 0 0
1.0557 1.8620 1.2911 0.321 -0.915 0.242 44 44 46 0 0
1.0083 1.8074 1.2948 0.204 -0.876 -0.438 41 41 43 0 0
0.9563 1.8024 1.3015 0.359 -0.429 0.829 33 33 35 0 0
0.6898 1.9258 1.3436 0.521 -0.451 0.725 83 83 82 0 0
0.6776 1.9172 1.3448 0.159 -0.555 0.816 82 82 81 0 0
0.6629 1.9271 1.3473 -0.201 -0.625 0.754 75 75 74 0 0
0.6509 1.9173 1.3484 -0.583 -0.497 0.643 58 57 57 0 0
0.6367 1.9227 1.3505 -0.675 -0.431 0.598 50 48 49 0 0
0.6174 1.9638 1.3552 -0.715 -0.406 0.569 55 53 54 0 0
1.7603 3.5037 1.2949 -0.368 -0.925 0.091 64 65 67 0 0
1.7446 3.5118 1.2974 0.316 -0.937 -0.150 54 53 57 0 0
1.7292 3.4714 1.2974 0.095 -0.992 -0.079 38 34 42 0 0
1.0090 1.8169 1.3084 -0.032 -0.949 -0.312 41 41 43 0 0
0.9295 1.8233 1.3195 0.282 -0.429 0.858 34 33 35 0 0
0.6905 1.9332 1.3574 0.210 -0.711 0.672 56 55 56 0 0
0.6497 1.9378 1.3631 -0.583 -0.497 0.643 46 45 45 0 0
0.6338 1.9551 1.3662 -0.641 -0.471 0.606 52 51 50 0 0
0.5948 2.0381 1.3757 -0.684 -0.405 0.607 161 160 160 0 0
1.7625 3.5044 1.3106 -0.368 -0.925 0.091 64 65 67 0 0
1.7468 3.4879 1.3118 0.428 -0.891 -0.152 53 53 56 0 0
1.7313 3.4704 1.3130 0.095 -0.992 -0.079 38 35 42 0 0
1.5717 2.9370 1.3059 0.657 -0.711 -0.250 62 62 64 0 0
0.9825 1.8360 1.3263 0.743 -0.661 0.102 40 39 44 0 0
0.9599 1.8005 1.3275 0.782 -0.622 -0.036 40 39 44 0 0
0.6921 1.9337 1.3707 -0.267 -0.843 0.467 47 45 46 0 0
0.6781 1.9382 1.3729 -0.162 -0.858 0.487 45 43 44 0 0
0.6117 2.0271 1.3866 -0.654 -0.428 0.624 149 148 146 0 0
1.5737 2.9359 1.3207 0.622 -0.725 -0.295 63 63 65 0 0
1.5592 2.9229 1.3219 0.622 -0.725 -0.295 43 44 46 0 0
0.9329 1.8231 1.3457 0.782 -0.622 0.030 41 41 43 0 0
0.6930 1.9399 1.3845 0.241 -0.667 0.705 55 53 54 0 0
0.6778 1.9523 1.3872 -0.186 -0.694 0.695 59 57 58 0 0
1.7824 3.4925 1.3393 -0.582 -0.802 0.133 77 78 79 0 0
1.7355 3.4815 1.3450 0.479 -0.876 -0.056 38 37 41 0 0
1.7199 3.4748 1.3467 0.477 -0.861 -0.175 36 36 38 0 0
1.7043 3.4699 1.3485 0.478 -0.867 -0.137 36 36 38 0 0
1.4980 3.0514 1.3526 -0.627 -0.683 -0.375 35 33 38 0 0
0.6878 1.9903 1.4016 -0.083 -0.622 0.778 66 64 65 0 0
1.7689 3.4959 1.3573 0.055 -0.994 -0.093 62 63 65 0 0
1.1284 2.0468 1.3590 0.828 -0.381 0.411 8 8 10 0 0
0.7008 2.0072 1.4145 0.312 -0.680 0.663 71 69 70 0 0
1.1180 2.0307 1.3732 0.735 -0.449 0.509 8 8 10 0 0
1.3807 3.1220 1.4188 0.349 -0.927 -0.140 27 27 29 0 0
1.2432 2.6439 1.4078 0.824 -0.162 -0.543 21 21 23 0 0
1.0435 1.9813 1.3939 -0.267 -0.909 -0.319 45 43 46 0 0
1.7753 3.4893 1.4041 -0.131 -0.980 -0.151 58 59 62 0 0
1.7441 3.4617 1.4066 0.102 -0.988 -0.118 38 37 39 0 0
1.7285 3.4536 1.4082 -0.032 -0.970 -0.240 35 35 37 0 0
1.5223 3.0079 1.4078 -0.257 -0.800 -0.542 32 32 34 0 0
1.7774 3.4866 1.4196 -0.131 -0.980 -0.151 57 58 62 0 0
1.7462 3.4692 1.4227 0.309 -0.950 0.043 37 37 39 0 0
1.7306 3.4490 1.4235 0.010 -0.964 -0.264 36 36 38 0 0
1.3842 3.1338 1.4500 0.894 -0.447 0.046 25 25 27 0 0
1.3700 3.1110 1.4504 0.722 -0.585 0.369 26 26 28 0 0
1.7483 3.4618 1.4379 0.106 -0.993 -0.044 37 37 39 0 0
1.7328 3.4417 1.4387 -0.402 -0.892 -0.205 36 36 38 0 0
1.6865 3.3919 1.4417 -0.471 -0.824 -0.315 45 45 47 0 0
1.2410 2.5381 1.4451 0.439 -0.772 -0.459 25 24 26 0 0
1.7973 3.4483 1.4464 0.130 -0.991 -0.045 66 66 70 0 0
1.7661 3.4288 1.4493 -0.190 -0.981 -0.043 42 42 45 0 0
1.7505 3.4317 1.4516 -0.190 -0.981 -0.043 37 37 39 0 0
1.7349 3.4355 1.4540 -0.363 -0.884 -0.295 36 36 38 0 0
0.9049 2.2166 1.4833 -0.227 -0.224 0.948 20 19 23 0 0
1.7994 3.4479 1.4620 0.130 -0.991 -0.045 65 66 69 0 0
1.7682 3.4278 1.4648 0.100 -0.986 -0.131 41 42 46 0 0
1.7527 3.4227 1.4666 0.562 -0.779 -0.279 37 38 39 0 0
1.7372 3.4152 1.4682 0.023 -0.825 -0.565 37 37 39 0 0
1.5926 2.8897 1.4509 0.814 -0.577 -0.064 52 51 55 0 0
1.5783 2.8697 1.4515 0.813 -0.567 -0.131 58 58 60 0 0
1.5634 2.8771 1.4540 0.186 -0.962 -0.199 38 38 40 0 0
1.4070 3.0953 1.4906 -0.911 -0.405 0.081 28 27 30 0 0
1.2564 2.5820 1.4751 0.178 -0.794 0.582 28 26 29 0 0
1.1879 2.5362 1.4812 -0.220 -0.592 0.775 13 13 15 0 0
1.1287 2.5636 1.4912 0.390 -0.920 -0.022 8 8 10 0 0
0.9043 2.3735 1.5084 0.100 -0.179 0.979 42 42 43 0 0
1.7704 3.4260 1.4803 0.100 -0.986 -0.131 39 40 44 0 0
1.7549 3.4054 1.4810 0.449 -0.844 -0.292 36 37 38 0 0
1.7393 3.4088 1.4833 0.359 -0.702 -0.616 36 36 38 0 0
1.6233 2.9328 1.4649 0.786 -0.609 0.105 41 40 45 0 0
1.6088 2.9135 1.4655 0.848 -0.530 -0.017 38 37 42 0 0
1.5945 2.8913 1.4659 0.810 -0.586 -0.031 51 51 54 0 0
1.5801 2.8771 1.4668 0.391 -0.919 0.055 56 56 58 0 0
1.5654 2.8740 1.4686 0.099 -0.995 -0.020 39 39 41 0 0
1.4869 3.0256 1.4902 -0.777 -0.395 -0.490 38 38 40 0 0
1.4746 2.9457 1.4861 0.317 -0.444 -0.838 38 38 40 0 0
1.4087 3.1028 1.5064 -0.921 -0.379 -0.090 27 25 28 0 0
1.2177 2.5442 1.4922 -0.480 -0.594 0.646 26 26 28 0 0
1.1595 2.5600 1.5013 -0.403 -0.802 0.441 10 10 12 0 0
1.0904 2.5286 1.5085 0.043 -0.999 0.017 9 9 11 0 0
0.8811 2.4771 1.5333 -0.016 -0.285 0.958 51 51 51 0 0
1.8192 3.4299 1.4899 0.158 -0.946 -0.281 75 76 78 0 0
1.7570 3.4012 1.4963 0.449 -0.844 -0.292 36 37 38 0 0
1.7415 3.3990 1.4982 0.392 -0.802 -0.451 36 36 38 0 0
1.7261 3.3686 1.4981 -0.676 -0.399 -0.620 36 36 38 0 0
1.6819 3.1646 1.4891 0.488 -0.258 -0.834 48 48 49 0 0
1.6681 3.0539 1.4828 0.704 -0.284 -0.651 48 48 50 0 0
1.6395 2.9662 1.4803 0.783 -0.463 0.415 47 46 51 0 0
1.5965 2.8932 1.4808 0.810 -0.586 -0.031 53 53 56 0 0
1.5820 2.8788 1.4817 0.391 -0.919 0.055 56 56 58 0 0
1.5674 2.8739 1.4833 0.099 -0.995 -0.020 39 39 41 0 0
1.4299 2.9989 1.5113 -0.656 -0.281 -0.701 34 33 35 0 0
1.7594 3.3010 1.5043 0.459 -0.844 -0.277 36 37 38 0 0
1.7283 3.3488 1.5121 -0.685 -0.301 -0.664 36 36 37 0 0
1.6704 3.0361 1.4965 0.634 -0.224 -0.740 49 49 51 0 0
1.6268 2.9565 1.4965 0.884 -0.466 -0.036 55 54 58 0 0
1.6126 2.9268 1.4962 0.886 -0.434 -0.164 56 55 60 0 0
1.5986 2.8861 1.4950 0.621 -0.754 -0.212 62 61 65 0 0
1.5695 2.8706 1.4979 0.261 -0.945 -0.197 40 39 42 0 0
1.5548 2.8696 1.4998 -0.427 -0.781 -0.456 37 37 39 0 0
1.4439 3.0790 1.5307 0.175 -0.263 -0.949 47 47 50 0 0
1.7616 3.2453 1.5155 -0.351 -0.737 -0.577 36 36 37 0 0
1.6008 2.8734 1.5088 0.062 -0.937 -0.344 62 62 64 0 0
1.5861 2.8731 1.5108 0.236 -0.952 -0.197 54 54 56 0 0
1.5715 2.8691 1.5125 0.236 -0.952 -0.197 49 49 52 0 0
1.5569 2.8656 1.5142 -0.156 -0.971 -0.183 44 43 48 0 0
1.5399 2.9492 1.5230 -0.049 -0.890 -0.452 43 43 45 0 0
1.5252 2.9446 1.5246 0.379 -0.850 -0.366 45 45 47 0 0
1.4642 2.9886 1.5364 -0.492 -0.556 -0.670 47 47 49 0 0
1.4329 3.0241 1.5434 0.284 -0.332 -0.900 42 42 45 0 0
1.4046 2.9832 1.5441 0.653 -0.476 -0.588 45 45 47 0 0
1.0707 2.4880 1.5516 -0.088 -0.963 0.255 9 9 11 0 0
1.8567 3.4250 1.5322 -0.682 -0.695 0.227 136 136 138 0 0
1.8411 3.4272 1.5345 0.827 -0.524 -0.201 85 85 90 0 0
1.7943 3.2729 1.5288 0.902 -0.338 -0.269 47 48 54 0 0
1.7790 3.2406 1.5284 0.547 -0.501 -0.671 39 39 44 0 0
1.7637 3.2413 1.5305 -0.044 -0.635 -0.772 39 38 39 0 0
1.6319 2.8939 1.5212 0.458 -0.440 -0.772 60 60 62 0 0
1.5880 2.8789 1.5261 -0.036 -0.945 -0.325 62 62 64 0 0
1.5733 2.8755 1.5278 0.189 -0.972 -0.139 60 60 63 0 0
1.5586 2.8744 1.5297 0.047 -0.999 -0.001 58 57 62 0 0
1.4676 2.9471 1.5479 -0.705 -0.582 -0.405 42 42 44 0 0
1.2089 2.5740 1.5540 -0.099 -0.492 -0.865 16 15 17 0 0
1.1809 2.5652 1.5571 0.314 -0.330 -0.890 15 13 18 0 0
1.8588 3.4276 1.5481 -0.442 -0.844 0.305 126 127 129 0 0
1.7810 3.2301 1.5429 0.747 -0.386 -0.541 41 39 45 0 0
1.7658 3.2129 1.5436 0.590 -0.348 -0.729 39 38 40 0 0
1.6913 3.0474 1.5405 -0.080 -0.245 -0.966 64 64 66 0 0
1.6771 2.9768 1.5368 0.319 -0.945 0.070 64 64 66 0 0
1.6476 2.9621 1.5396 0.441 -0.696 0.567 71 71 73 0 0
1.6329 2.9545 1.5411 0.434 -0.895 -0.104 65 65 67 0 0
1.6182 2.9429 1.5421 0.394 -0.740 -0.545 64 64 66 0 0
1.6035 2.9387 1.5438 0.064 -0.836 -0.546 63 63 65 0 0
1.5887 2.9365 1.5457 -0.208 -0.832 -0.515 62 62 64 0 0
1.5738 2.9401 1.5480 -0.544 -0.697 -0.467 59 59 62 0 0
1.5589 2.9443 1.5504 -0.244 -0.642 -0.727 53 52 57 0 0
1.2686 2.5666 1.5598 -0.155 -0.914 -0.375 25 23 26 0 0
1.2123 2.5517 1.5663 -0.099 -0.492 -0.865 12 12 14 0 0
1.1987 2.5413 1.5673 0.331 -0.364 -0.871 21 19 24 0 0
1.1850 2.5334 1.5686 0.331 -0.347 -0.877 15 13 18 0 0
0.6824 3.0172 1.6762 -0.856 -0.494 0.150 105 105 103 0 0
1.8610 3.4283 1.5638 -0.450 -0.806 0.384 115 115 117 0 0
1.7831 3.2170 1.5571 0.733 -0.351 -0.583 44 43 47 0 0
1.7082 3.0597 1.5545 0.062 -0.275 -0.959 67 66 68 0 0
1.6936 3.0214 1.5534 0.167 -0.671 -0.722 67 65 68 0 0
1.6788 3.0045 1.5540 0.475 -0.642 0.602 68 67 69 0 0
1.6641 2.9926 1.5551 0.646 -0.575 0.502 72 71 73 0 0
1.6349 2.9514 1.5557 0.832 -0.480 -0.276 65 65 67 0 0
1.5908 2.9319 1.5602 -0.083 -0.996 -0.028 55 55 57 0 0
1.5757 2.9421 1.5631 -0.665 -0.714 -0.218 47 47 49 0 0
1.2853 2.5571 1.5713 -0.228 -0.928 -0.295 18 18 20 0 0
1.2706 2.5640 1.5739 0.064 -0.945 -0.320 17 16 18 0 0
1.2574 2.5458 1.5742 -0.078 -0.630 -0.773 17 17 19 0 0
1.2295 2.5349 1.5772 -0.136 -0.430 -0.893 13 13 15 0 0
1.2156 2.5294 1.5786 -0.099 -0.492 -0.865 11 11 13 0 0
1.8631 3.4327 1.5798 -0.621 -0.702 0.349 105 105 107 0 0
1.8158 3.2686 1.5726 0.963 -0.240 -0.120 63 62 65 0 0
1.7701 3.1455 1.5686 0.495 -0.248 -0.833 63 64 66 0 0
1.7550 3.1192 1.5684 0.452 -0.217 -0.865 69 69 71 0 0
1.7401 3.0898 1.5680 0.452 -0.217 -0.865 70 70 72 0 0
1.7253 3.0493 1.5667 0.443 -0.298 -0.846 69 69 71 0 0
1.7106 3.0198 1.5662 0.582 -0.371 -0.724 69 68 71 0 0
1.6958 3.0059 1.5671 0.707 -0.707 -0.019 68 67 70 0 0
1.6664 2.9686 1.5680 0.894 -0.440 0.083 67 66 68 0 0
1.2600 2.5344 1.5875 0.385 -0.727 -0.568 17 17 19 0 0
1.2462 2.5262 1.5887 0.385 -0.727 -0.568 16 16 18 0 0
1.1789 2.4695 1.5932 0.366 -0.917 0.158 18 16 19 0 0
1.1655 2.4593 1.5942 -0.066 -0.996 0.065 36 35 38 0 0
1.1509 2.4643 1.5966 -0.314 -0.932 -0.181 21 21 24 0 0
1.1363 2.4703 1.5991 -0.349 -0.896 -0.274 17 17 19 0 0
1.0011 2.5515 1.6244 -0.207 -0.941 0.268 16 14 17 0 0
0.9088 2.6130 1.6422 -0.635 -0.767 0.095 35 35 37 0 0
0.8872 2.6827 1.6510 -0.731 -0.473 -0.492 34 34 36 0 0
1.8806 3.4147 1.5918 -0.601 -0.799 0.017 162 162 163 0 0
1.8651 3.4202 1.5944 -0.250 -0.923 -0.292 98 98 100 0 0
1.8334 3.3025 1.5888 0.931 -0.236 -0.279 71 71 73 0 0
1.7276 3.0113 1.5785 0.649 -0.211 -0.731 69 69 71 0 0
1.7128 2.9887 1.5786 0.836 -0.333 -0.436 67 67 69 0 0
1.6832 2.9731 1.5813 0.912 -0.411 0.003 63 63 65 0 0
1.8827 3.4049 1.6066 -0.871 -0.471 -0.141 155 155 156 0 0
1.8674 3.4384 1.6116 -0.240 -0.897 -0.371 93 93 95 0 0
1.8513 3.3655 1.6075 0.851 -0.297 -0.432 81 81 83 0 0
1.7743 3.0822 1.5935 0.678 -0.201 -0.707 71 72 74 0 0
1.7445 3.0160 1.5918 0.665 -0.230 -0.710 74 74 77 0 0
1.7297 2.9979 1.5923 0.831 -0.290 -0.475 62 62 65 0 0
1.6855 2.9465 1.5939 0.930 -0.330 -0.163 53 53 56 0 0
1.2911 2.5536 1.6140 0.293 -0.840 -0.457 40 40 42 0 0
1.2510 2.5096 1.6156 0.510 -0.853 -0.112 40 40 42 0 0
1.2376 2.4968 1.6164 0.714 -0.678 -0.176 40 40 42 0 0
1.1790 2.5207 1.6265 0.441 -0.616 0.653 39 37 40 0 0
1.1511 2.5117 1.6296 0.462 -0.536 0.707 36 36 36 0 0
1.0807 2.5008 1.6383 -0.074 -0.851 -0.520 35 33 36 0 0
1.0349 2.5362 1.6477 0.352 -0.823 0.446 18 16 19 0 0
1.8847 3.3973 1.6216 -0.775 -0.534 -0.338 143 143 145 0 0
1.8534 3.3592 1.6225 0.707 -0.277 -0.650 91 91 92 0 0
1.8374 3.2558 1.6156 0.820 -0.232 -0.523 88 88 86 0 0
1.7317 3.0039 1.6078 0.918 -0.386 0.094 53 53 58 0 0
1.7169 2.9778 1.6075 0.917 -0.398 0.014 50 48 53 0 0
1.7023 2.9533 1.6074 0.897 -0.433 0.082 43 42 47 0 0
1.6877 2.9302 1.6073 0.920 -0.344 -0.188 40 39 44 0 0
1.2536 2.4971 1.6287 0.437 -0.879 -0.188 40 38 41 0 0
1.0832 2.4924 1.6517 -0.074 -0.851 -0.520 12 12 14 0 0
1.0061 2.5575 1.6681 -0.395 -0.735 -0.552 38 38 40 0 0
1.8868 3.3938 1.6369 -0.321 -0.605 -0.729 127 127 129 0 0
1.0857 2.4850 1.6652 -0.035 -0.897 -0.440 11 11 13 0 0
1.9043 3.3803 1.6492 -0.315 -0.736 -0.600 154 154 156 0 0
1.8730 3.3485 1.6506 0.683 -0.208 -0.700 94 94 95 0 0
1.7065 2.9278 1.6348 0.782 -0.191 -0.593 36 35 40 0 0
1.2258 2.5461 1.6660 -0.063 -0.556 0.829 55 53 57 0 0
1.2110 2.5529 1.6687 -0.093 -0.568 0.818 57 55 55 0 0
1.1960 2.5633 1.6717 -0.005 -0.596 0.803 57 55 56 0 0
1.0881 2.4783 1.6788 -0.035 -0.897 -0.440 11 11 13 0 0
1.5807 2.6876 1.6449 0.126 -0.441 0.889 47 46 51 0 0
1.1467 2.6755 1.7036 0.688 -0.721 -0.086 16 16 19 0 0
1.1325 2.6715 1.7052 0.162 -0.976 -0.142 13 13 16 0 0
1.0870 2.5146 1.6968 0.726 -0.679 -0.109 10 10 12 0 0
1.9241 3.3835 1.6785 -0.609 -0.395 0.688 145 144 147 0 0
1.2267 2.5900 1.6993 0.040 -0.536 0.843 48 45 50 0 0
1.1334 2.6841 1.7211 -0.670 -0.697 -0.257 13 13 15 0 0
1.9416 3.3804 1.6917 -0.263 -0.494 0.829 157 155 158 0 0
1.9264 3.3941 1.6952 -0.211 -0.501 0.839 108 107 110 0 0
1.8945 3.3210 1.6925 0.855 -0.305 -0.419 70 71 75 0 0
1.8787 3.2793 1.6906 0.855 -0.305 -0.419 64 64 69 0 0
1.8628 3.2154 1.6866 0.806 -0.245 -0.539 57 58 62 0 0
1.6986 2.8434 1.6733 0.819 -0.261 -0.510 55 55 57 0 0
1.6249 2.8575 1.6848 0.037 -0.201 0.979 46 46 49 0 0
1.1979 2.6185 1.7207 0.206 -0.548 0.811 36 36 38 0 0
1.1358 2.6784 1.7351 -0.751 -0.645 -0.139 15 15 17 0 0
1.9443 3.4119 1.7104 -0.144 -0.433 0.890 127 125 128 0 0
1.9129 3.3895 1.7125 0.904 -0.427 0.008 76 77 80 0 0
1.8806 3.2662 1.7048 0.905 -0.298 -0.305 60 62 65 0 0
1.8649 3.2187 1.7023 0.867 -0.284 -0.409 55 55 59 0 0
1.8493 3.1632 1.6990 0.889 -0.249 -0.384 55 54 59 0 0
1.7441 2.9451 1.6920 0.964 -0.267 0.019 58 57 61 0 0
1.7295 2.9022 1.6898 0.964 -0.259 0.052 57 56 60 0 0
1.6858 2.8541 1.6911 0.969 -0.237 0.074 50 50 52 0 0
1.6403 2.9417 1.7061 -0.058 -0.196 0.979 44 44 46 0 0
1.1371 2.6855 1.7504 -0.646 -0.730 0.224 14 14 16 0 0
1.8826 3.2546 1.7191 0.917 -0.282 -0.282 65 67 65 0 0
1.8669 3.2062 1.7164 0.917 -0.282 -0.282 65 66 65 0 0
1.8512 3.1450 1.7124 0.902 -0.244 -0.356 65 65 67 0 0
1.8358 3.0958 1.7096 0.839 -0.271 -0.472 65 65 67 0 0
1.7757 3.0219 1.7106 0.956 -0.292 0.005 58 57 62 0 0
1.7609 2.9732 1.7077 0.954 -0.297 0.042 57 56 61 0 0
1.7462 2.9300 1.7054 0.958 -0.279 0.069 56 55 60 0 0
1.1838 2.6692 1.7572 -0.236 -0.896 0.377 31 31 33 0 0
1.1379 2.7004 1.7666 -0.193 -0.789 0.583 15 15 17 0 0
1.9655 3.4856 1.7468 0.948 -0.160 -0.276 127 127 129 0 0
1.7777 2.9937 1.7227 0.966 -0.238 -0.102 50 49 54 0 0
1.0667 2.3562 1.7563 -0.565 -0.825 -0.004 11 11 13 0 0
1.1255 2.7220 1.8003 -0.718 -0.620 0.316 13 13 15 0 0
1.0684 2.3583 1.7706 -0.403 -0.907 -0.125 11 11 13 0 0
1.0724 2.3540 1.7982 -0.647 -0.687 -0.332 13 13 15 0 0
1.9613 3.4046 1.8349 0.986 -0.146 -0.080 100 102 101 0 0
1.0752 2.3852 1.8443 -0.018 -0.973 0.230 12 12 14 0 0
1.7137 3.4845 1.8945 0.331 -0.911 0.245 37 37 39 0 0
0.8126 2.6030 1.9201 -0.942 -0.334 -0.035 52 51 56 0 0
1.7314 3.5130 1.9115 0.691 -0.658 0.300 36 36 38 0 0
1.7155 3.5405 1.9169 -0.200 -0.813 0.547 37 37 39 0 0
0.8417 2.7568 1.9485 0.720 -0.405 -0.563 42 41 46 0 0
1.7672 3.5731 1.9460 -0.153 -0.661 -0.735 35 34 39 0 0
0.7661 2.6758 1.9796 -0.899 -0.399 -0.181 62 61 65 0 0
0.7471 2.7133 1.9867 -0.899 -0.403 0.173 55 57 60 0 0
0.7265 2.7622 1.9954 -0.892 -0.435 -0.122 51 52 57 0 0
1.7693 3.6080 1.9662 0.289 -0.724 0.627 35 34 39 0 0
0.9061 2.6132 1.9674 -0.719 -0.360 -0.594 58 58 63 0 0
0.7289 2.7576 2.0096 -0.884 -0.455 -0.106 54 56 56 0 0
0.7101 2.7912 2.0163 -0.852 -0.517 -0.088 52 51 54 0 0
0.7126 2.7856 2.0304 -0.832 -0.551 -0.069 51 51 55 0 0
0.8246 2.5949 2.0062 -0.816 -0.568 -0.103 80 80 81 0 0
0.8095 2.5994 2.0089 -0.605 -0.754 0.257 80 80 81 0 0
0.7326 2.7580 2.0393 -0.808 -0.529 0.257 56 56 59 0 0
0.7153 2.7793 2.0443 -0.830 -0.557 0.027 52 53 55 0 0
1.3105 2.4700 1.9371 0.025 -0.548 0.836 42 41 46 0 0
1.2973 2.4521 1.9367 -0.263 -0.895 0.359 41 40 45 0 0
0.8109 2.6037 2.0240 -0.597 -0.741 0.307 76 76 76 0 0
0.7948 2.6180 2.0281 -0.572 -0.752 0.329 69 69 69 0 0
0.7175 2.7768 2.0588 -0.848 -0.524 0.078 54 55 57 0 0
0.6552 2.9186 2.0854 -0.945 -0.304 -0.123 69 69 72 0 0
1.3705 2.4407 1.9395 0.210 -0.977 0.028 47 46 51 0 0
1.3129 2.4587 1.9498 0.036 -0.780 0.624 45 44 49 0 0
1.2701 2.4632 1.9564 -0.262 -0.576 0.774 43 43 45 0 0
0.6378 2.9516 2.1074 -0.939 -0.345 0.011 79 82 81 0 0
1.4421 2.4621 1.9466 0.125 -0.990 -0.060 43 44 48 0 0
1.3561 2.4839 1.9615 0.302 -0.937 0.177 46 45 50 0 0
1.3421 2.4796 1.9629 0.302 -0.937 0.177 46 45 50 0 0
1.3281 2.4754 1.9644 0.302 -0.937 0.177 46 45 50 0 0
1.3141 2.4724 1.9659 0.266 -0.920 0.288 45 44 49 0 0
1.3004 2.4627 1.9666 0.052 -0.884 0.464 45 44 49 0 0
1.0947 2.3704 1.9837 0.105 -0.988 0.109 18 18 20 0 0
0.9325 2.4402 2.0155 -0.657 -0.730 -0.187 54 55 59 0 0
1.4299 2.4595 1.9625 0.057 -0.976 -0.211 41 42 46 0 0
1.1666 2.3742 1.9884 0.539 -0.780 -0.319 44 43 48 0 0
1.1524 2.3763 1.9907 0.108 -0.990 -0.088 44 43 48 0 0
1.1385 2.3738 1.9923 0.311 -0.897 -0.314 43 42 47 0 0
0.9327 2.4570 2.0322 -0.656 -0.625 0.423 67 69 73 0 0
0.6185 3.0142 2.1491 -0.954 -0.277 -0.115 90 91 89 0 0
1.4873 2.4910 1.9731 0.411 -0.900 0.145 38 39 43 0 0
1.4460 2.4589 1.9747 -0.048 -0.991 -0.128 38 39 43 0 0
1.3348 2.4198 1.9852 0.143 -0.944 0.296 43 42 47 0 0
1.1383 2.4011 2.0104 0.632 -0.769 0.098 45 44 49 0 0
0.8487 2.5915 2.0764 -0.813 -0.492 0.311 44 46 50 0 0
0.7949 2.6830 2.0960 -0.829 -0.559 0.022 48 47 52 0 0
0.7772 2.7089 2.1020 -0.669 -0.683 0.294 48 48 50 0 0
0.7604 2.7271 2.1067 -0.133 -0.724 0.677 48 48 50 0 0
1.4614 2.4768 1.9894 0.283 -0.951 -0.120 37 38 42 0 0
1.4474 2.4725 1.9908 0.283 -0.951 -0.120 36 37 41 0 0
1.3355 2.4408 2.0023 -0.220 -0.533 0.817 36 35 40 0 0
0.8102 2.6942 2.1104 -0.786 -0.535 0.309 48 47 52 0 0
0.7930 2.7167 2.1158 -0.380 -0.731 0.567 49 47 52 0 0
0.7794 2.7065 2.1163 0.043 -0.713 0.700 49 49 51 0 0
0.6236 3.0043 2.1782 0.621 -0.751 -0.225 82 83 80 0 0
1.5341 2.4758 1.9935 0.028 -0.989 -0.144 40 41 45 0 0
1.5200 2.4751 1.9954 0.028 -0.989 -0.144 40 41 45 0 0
1.5058 2.4755 1.9975 -0.191 -0.957 -0.219 39 40 44 0 0
1.4916 2.4779 1.9998 0.012 -0.965 -0.261 39 40 44 0 0
1.4773 2.4801 2.0021 0.102 -0.985 -0.136 38 39 43 0 0
1.4632 2.4784 2.0039 0.102 -0.985 -0.136 35 36 40 0 0
1.4491 2.4767 2.0056 0.020 -0.979 -0.204 33 34 38 0 0
1.3059 2.4992 2.0289 -0.341 -0.673 0.656 49 48 53 0 0
0.8265 2.6968 2.1234 -0.616 -0.653 0.441 47 46 51 0 0
1.5360 2.4752 2.0077 0.118 -0.989 -0.094 40 41 45 0 0
1.5219 2.4734 2.0094 0.118 -0.989 -0.094 40 41 45 0 0
1.5076 2.4773 2.0120 -0.180 -0.974 -0.136 39 40 44 0 0
1.4933 2.4809 2.0145 -0.364 -0.931 -0.023 37 38 42 0 0
1.4788 2.4900 2.0178 -0.049 -0.999 0.012 32 33 37 0 0
1.4646 2.4903 2.0199 0.043 -0.999 0.021 37 38 42 0 0
1.4507 2.4843 2.0210 -0.152 -0.988 0.007 47 48 52 0 0
1.4365 2.4831 2.0228 0.025 -0.960 0.279 49 50 54 0 0
2.0743 3.4356 2.0794 0.936 -0.151 -0.318 96 96 98 0 0
1.6761 2.7394 2.0391 0.271 -0.093 -0.958 27 27 29 0 0
1.5664 2.4678 2.0169 0.247 -0.929 0.277 41 42 46 0 0
1.4665 2.4904 2.0342 -0.064 -0.939 0.338 48 49 53 0 0
1.4525 2.4862 2.0356 -0.147 -0.929 0.340 49 50 54 0 0
1.3512 2.5221 2.0549 0.071 -0.768 0.637 40 39 44 0 0
1.3371 2.5180 2.0563 0.271 -0.778 0.566 40 39 44 0 0
1.5114 2.4786 2.0407 -0.480 -0.708 0.518 36 37 41 0 0
1.4824 2.4973 2.0475 -0.294 -0.774 0.561 48 49 53 0 0
1.4681 2.4992 2.0498 0.034 -0.910 0.413 47 47 52 0 0
2.0105 3.1979 2.0868 0.861 -0.133 -0.492 53 54 57 0 0
1.5415 2.4826 2.0516 -0.504 -0.793 0.342 37 37 39 0 0
1.5274 2.4801 2.0532 -0.401 -0.872 0.281 39 39 43 0 0
1.4839 2.5080 2.0634 -0.297 -0.819 0.491 47 46 51 0 0
0.6364 2.9794 2.2506 -0.040 -0.952 0.305 164 165 162 0 0
1.8577 2.8977 2.0810 0.469 -0.104 -0.877 63 64 68 0 0
1.7547 2.7417 2.0732 0.920 -0.290 -0.263 53 53 57 0 0
1.6687 2.6400 2.0707 0.904 -0.420 -0.076 45 46 50 0 0
1.5432 2.4879 2.0667 -0.362 -0.865 0.347 44 44 46 0 0
1.5292 2.4843 2.0681 -0.330 -0.847 0.416 49 48 52 0 0
1.5144 2.5035 2.0730 -0.301 -0.747 0.593 48 47 52 0 0
0.7321 2.8280 2.2307 -0.753 -0.609 -0.248 62 61 65 0 0
0.6516 2.9948 2.2661 -0.273 -0.846 0.458 94 96 93 0 0
0.6372 2.9882 2.2672 -0.045 -0.896 0.442 161 161 159 0 0
2.0299 3.1968 2.1153 0.799 -0.206 -0.565 61 58 65 0 0
1.8748 2.9298 2.0985 0.894 -0.445 -0.046 64 65 69 0 0
1.6711 2.6079 2.0805 0.860 -0.341 -0.379 46 47 51 0 0
1.5736 2.4826 2.0761 0.011 -0.899 0.438 37 36 42 0 0
1.5594 2.4854 2.0786 -0.186 -0.964 0.190 44 44 48 0 0
1.5450 2.4932 2.0818 -0.362 -0.865 0.347 49 49 51 0 0
1.5306 2.4990 2.0846 -0.594 -0.723 0.353 50 49 53 0 0
1.5012 2.5308 2.0934 -0.221 -0.748 0.625 45 44 49 0 0
0.6686 2.9960 2.2794 -0.156 -0.802 0.577 77 79 78 0 0
0.6527 3.0013 2.2825 -0.156 -0.802 0.577 91 93 91 0 0
0.6370 3.0053 2.2853 -0.052 -0.859 0.509 138 138 136 0 0
1.5897 2.4824 2.0884 -0.308 -0.923 0.229 44 43 48 0 0
1.5755 2.4859 2.0909 -0.128 -0.955 0.268 48 47 53 0 0
1.5465 2.5096 2.0985 -0.456 -0.691 0.561 50 50 53 0 0
1.5319 2.5216 2.1024 -0.282 -0.811 0.513 47 47 50 0 0
1.5174 2.5286 2.1055 -0.282 -0.811 0.513 44 43 47 0 0
1.5916 2.4847 2.1030 -0.265 -0.945 0.193 52 51 56 0 0
1.5932 2.4954 2.1190 -0.126 -0.961 0.247 53 52 57 0 0
0.9060 2.6577 2.2413 -0.748 -0.593 0.298 47 46 51 0 0
2.0168 3.2167 2.2461 -0.586 -0.476 0.655 54 55 57 0 0
2.0375 3.3437 2.2794 -0.703 -0.386 0.597 56 56 58 0 0
1.3280 3.2912 2.4045 -0.548 -0.747 0.376 33 32 37 0 0
2.1910 3.4779 2.3438 0.772 -0.349 -0.531 125 125 124 0 0
1.3503 3.2358 2.4241 -0.775 -0.446 -0.447 35 34 39 0 0
0.5820 3.0612 2.5367 -0.926 -0.372 -0.069 96 98 96 0 0
2.1791 3.4098 2.3824 0.494 -0.485 -0.722 107 107 109 0 0
0.6081 3.0084 2.5552 -0.894 -0.429 -0.132 78 80 79 0 0
0.5899 3.0302 2.5616 -0.938 -0.341 0.058 95 97 94 0 0
0.6745 2.9817 2.5565 -0.819 -0.274 -0.504 51 49 54 0 0
0.6582 2.8683 2.5390 -0.798 -0.478 -0.369 56 57 60 0 0
1.0481 2.3787 2.4110 0.085 -0.986 0.146 17 17 19 0 0
0.7137 2.9243 2.5563 0.031 -0.527 -0.849 46 45 50 0 0
0.6880 2.8861 2.5532 -0.347 -0.363 -0.865 51 50 55 0 0
0.6748 2.8711 2.5525 -0.524 -0.420 -0.741 51 52 55 0 0
0.6621 2.8523 2.5510 -0.789 -0.488 -0.373 56 58 60 0 0
0.6419 2.8928 2.5611 -0.906 -0.422 0.037 68 68 71 0 0
1.0944 2.3538 2.4144 0.301 -0.950 -0.085 20 20 22 0 0
1.0780 2.3816 2.4217 0.085 -0.985 0.151 22 22 24 0 0
1.0639 2.3807 2.4236 0.085 -0.985 0.151 20 20 22 0 0
1.0498 2.3795 2.4254 0.127 -0.989 0.076 18 18 20 0 0
0.6940 2.8529 2.5618 -0.290 -0.374 -0.881 49 48 53 0 0
0.6796 2.8471 2.5629 -0.423 -0.393 -0.817 52 53 56 0 0
2.1742 3.3528 2.4694 -0.673 -0.740 -0.001 168 168 168 0 0
2.1578 3.3299 2.4676 0.801 -0.598 0.000 100 100 102 0 0
1.1012 2.3381 2.4539 0.238 -0.698 -0.675 19 19 21 0 0
1.1176 2.3318 2.4649 0.358 -0.515 -0.779 13 13 15 0 0
2.1802 3.3412 2.5145 -0.836 -0.496 -0.235 124 124 124 0 0
2.1632 3.3024 2.5097 0.749 -0.429 -0.504 87 87 89 0 0
2.0952 3.1136 2.4841 0.889 -0.342 -0.305 72 70 73 0 0
1.9987 2.8717 2.4527 0.315 -0.237 -0.919 68 67 70 0 0
0.9108 2.4405 2.5298 -0.829 -0.443 -0.342 32 33 37 0 0
2.1820 3.3317 2.5285 -0.832 -0.494 -0.252 124 124 124 0 0
2.1648 3.2896 2.5230 0.749 -0.429 -0.504 85 85 87 0 0
2.1315 3.2204 2.5148 0.801 -0.360 -0.479 70 70 72 0 0
2.0970 3.1059 2.4981 0.889 -0.342 -0.305 64 64 66 0 0
2.0651 3.0518 2.4924 0.926 -0.378 0.007 66 66 69 0 0
2.0490 3.0121 2.4873 0.926 -0.378 0.007 65 64 68 0 0
0.8599 2.5318 2.5692 -0.890 -0.443 0.108 53 55 57 0 0
0.8250 2.5858 2.5845 -0.744 -0.474 0.471 61 64 66 0 0
0.8073 2.6139 2.5924 -0.666 -0.453 0.593 69 70 72 0 0
2.1837 3.3219 2.5424 -0.742 -0.583 -0.331 122 122 123 0 0
2.1503 3.2567 2.5348 0.770 -0.433 -0.468 76 76 78 0 0
2.1170 3.1838 2.5257 0.779 -0.543 -0.315 64 64 66 0 0
0.6727 2.8893 2.6797 -0.959 -0.269 -0.095 67 67 69 0 0
2.1702 3.3159 2.5592 0.072 -0.772 -0.632 95 95 97 0 0
2.1528 3.2658 2.5521 0.905 -0.364 -0.219 77 77 79 0 0
2.1183 3.1598 2.5367 0.881 -0.457 -0.121 62 62 64 0 0
1.0885 2.2607 2.5133 0.353 -0.702 -0.618 26 25 29 0 0
0.6507 2.9594 2.7119 -0.960 -0.281 0.007 68 68 70 0 0
2.1719 3.3049 2.5729 0.072 -0.772 -0.632 101 101 102 0 0
2.1203 3.1572 2.5516 0.935 -0.353 -0.038 60 60 63 0 0
2.1036 3.1148 2.5458 0.925 -0.379 -0.021 51 52 56 0 0
1.2242 2.3490 2.5250 0.387 -0.440 0.810 37 38 42 0 0
1.0904 2.2599 2.5272 0.341 -0.825 -0.451 34 33 38 0 0
0.9642 2.4081 2.5745 -0.460 -0.560 0.689 54 56 60 0 0
1.5765 2.3820 2.4946 -0.195 -0.931 0.310 46 45 50 0 0
1.3526 2.3519 2.5213 -0.778 -0.627 -0.036 42 41 46 0 0
1.0762 2.2839 2.5483 0.022 -0.831 0.555 44 45 49 0 0
0.9466 2.4606 2.6020 -0.036 -0.480 0.876 37 38 42 0 0
0.9310 2.4730 2.6067 0.229 -0.459 0.859 40 41 45 0 0
0.9173 2.4668 2.6075 0.260 -0.467 0.845 44 44 48 0 0
2.1082 3.1247 2.5785 0.923 -0.376 -0.082 51 52 56 0 0
1.6614 2.4711 2.5143 -0.168 -0.949 0.265 50 49 54 0 0
1.6465 2.5152 2.5252 0.447 -0.614 -0.651 50 49 54 0 0
1.3834 2.3349 2.5280 -0.092 -0.811 0.577 46 45 50 0 0
1.3391 2.3768 2.5427 0.234 -0.925 -0.299 46 45 50 0 0
1.3252 2.3729 2.5440 0.234 -0.925 -0.299 45 44 49 0 0
1.3118 2.3596 2.5433 0.389 -0.912 -0.131 45 44 49 0 0
1.2980 2.3536 2.5441 0.389 -0.912 -0.131 46 45 50 0 0
1.2580 2.3173 2.5428 0.744 -0.604 -0.286 45 44 49 0 0
1.2170 2.3007 2.5455 -0.614 -0.789 0.012 45 44 49 0 0
0.9730 2.5049 2.6216 -0.214 -0.411 0.886 37 38 40 0 0
0.9579 2.5125 2.6253 -0.022 -0.428 0.903 35 36 38 0 0
0.7258 2.7609 2.7084 -0.875 -0.428 0.224 53 54 56 0 0
1.8054 2.6228 2.5382 0.858 -0.471 -0.205 42 40 46 0 0
0.8903 2.6261 2.6727 0.183 -0.322 0.929 28 28 31 0 0
0.7205 2.8212 2.7365 -0.899 -0.436 -0.039 50 51 53 0 0
1.7929 2.5842 2.5472 0.685 -0.696 0.217 54 54 58 0 0
1.7786 2.5603 2.5444 0.216 -0.933 -0.289 50 49 54 0 0
1.7076 2.4932 2.5413 0.554 -0.677 0.485 32 30 36 0 0
1.3861 2.3561 2.5608 0.492 -0.871 -0.016 48 49 51 0 0
1.3569 2.3770 2.5693 0.183 -0.983 -0.001 49 49 52 0 0
1.2746 2.3361 2.5731 0.284 -0.861 0.422 49 48 53 0 0
1.7663 2.5387 2.5566 0.133 -0.951 0.278 59 58 62 0 0
1.7520 2.5364 2.5583 0.461 -0.682 0.568 57 55 60 0 0
1.3875 2.3657 2.5770 0.572 -0.750 -0.333 37 36 40 0 0
0.7861 2.8052 2.7544 -0.697 -0.688 -0.201 42 42 44 0 0
1.7539 2.5492 2.5754 0.452 -0.732 0.510 52 51 54 0 0
1.7112 2.5214 2.5760 0.461 -0.724 0.514 56 54 57 0 0
1.6971 2.5058 2.5748 0.580 -0.679 0.451 49 48 52 0 0
1.3897 2.3593 2.5899 0.485 -0.753 -0.446 22 20 25 0 0
1.2343 2.3628 2.6134 -0.041 -0.963 -0.266 19 19 24 0 0
0.8079 2.7608 2.7575 -0.731 -0.680 -0.064 41 41 44 0 0
1.7130 2.5359 2.5934 0.359 -0.719 0.596 52 50 55 0 0
1.6706 2.5028 2.5928 0.068 -0.865 0.497 43 42 47 0 0
1.3911 2.3682 2.6060 0.609 -0.792 0.053 16 14 16 0 0
0.9234 2.6643 2.7359 0.705 -0.497 0.506 39 39 42 0 0
0.8281 2.7293 2.7633 -0.732 -0.652 0.197 41 40 45 0 0
0.8081 2.7765 2.7760 -0.587 -0.734 -0.341 41 40 44 0 0
1.7009 2.5088 2.6044 0.373 -0.874 -0.311 34 34 36 0 0
1.6867 2.5025 2.6051 0.373 -0.874 -0.311 36 36 38 0 0
1.6724 2.5082 2.6084 0.115 -0.896 0.429 35 35 37 0 0
1.3921 2.3868 2.6243 0.344 -0.804 0.485 13 13 15 0 0
1.2805 2.3620 2.6355 0.161 -0.982 0.096 13 11 14 0 0
1.2527 2.3545 2.6381 0.415 -0.839 -0.352 15 13 16 0 0
1.2378 2.3662 2.6427 0.132 -0.934 0.331 16 14 17 0 0
1.7029 2.5064 2.6183 0.035 -0.819 -0.572 29 29 31 0 0
1.3936 2.3965 2.6407 0.191 -0.881 0.433 14 14 16 0 0
1.2823 2.3621 2.6498 0.128 -0.992 0.014 29 27 30 0 0
1.2243 2.3852 2.6632 0.777 -0.611 -0.153 18 16 19 0 0
1.7475 2.5157 2.6284 0.262 -0.653 -0.711 27 27 29 0 0
1.7333 2.5134 2.6300 0.049 -0.798 -0.600 26 26 28 0 0
1.7190 2.5169 2.6329 -0.577 -0.635 -0.514 26 26 28 0 0
1.3951 2.4050 2.6569 0.054 -0.916 0.397 14 14 16 0 0
1.3687 2.3655 2.6524 0.002 -0.993 -0.115 13 13 15 0 0
1.3546 2.3653 2.6544 0.002 -0.993 -0.115 13 13 15 0 0
1.3404 2.3660 2.6567 0.011 -0.998 -0.069 13 13 15 0 0
1.3263 2.3657 2.6587 0.011 -0.998 -0.069 13 13 15 0 0
1.3122 2.3654 2.6607 0.011 -0.998 -0.069 14 13 15 0 0
1.2981 2.3651 2.6627 0.011 -0.998 -0.069 16 14 17 0 0
1.2841 2.3625 2.6642 0.128 -0.992 0.014 19 17 20 0 0
1.2558 2.3638 2.6687 -0.357 -0.766 -0.534 24 22 25 0 0
1.8211 2.6202 2.6546 0.941 -0.288 0.177 43 41 46 0 0
1.8066 2.5661 2.6452 0.122 -0.451 -0.884 40 40 42 0 0
1.7922 2.5523 2.6444 -0.716 -0.490 -0.498 40 40 42 0 0
1.7779 2.5390 2.6437 -0.126 -0.591 -0.797 40 40 42 0 0
1.7352 2.5155 2.6450 0.278 -0.411 -0.869 34 33 36 0 0
1.3424 2.3642 2.6705 0.016 -0.999 -0.043 19 19 21 0 0
1.3282 2.3648 2.6727 0.011 -0.998 -0.069 12 12 14 0 0
1.3141 2.3645 2.6748 0.011 -0.998 -0.069 13 13 15 0 0
1.3000 2.3648 2.6769 0.128 -0.992 0.014 23 22 24 0 0
1.2860 2.3630 2.6786 0.128 -0.992 0.014 24 23 25 0 0
1.0879 2.5396 2.7455 -0.861 -0.502 -0.079 25 25 27 0 0
1.7231 2.4766 2.6531 0.739 -0.474 -0.478 42 40 45 0 0
1.3690 2.4362 2.6967 -0.059 -0.815 -0.577 18 16 21 0 0
1.3020 2.3628 2.6907 0.213 -0.803 -0.557 22 22 24 0 0
1.2887 2.3486 2.6896 0.681 -0.632 -0.370 24 24 26 0 0
1.2432 2.3986 2.7071 0.818 -0.568 -0.087 20 19 24 0 0
1.1433 2.4039 2.7230 -0.091 -0.654 0.751 28 28 30 0 0
1.0904 2.5315 2.7582 -0.858 -0.513 0.014 29 29 31 0 0
2.2400 3.4986 2.8131 0.069 -0.349 -0.935 73 73 74 0 0
1.7533 2.5194 2.6726 0.469 -0.859 0.206 45 44 49 0 0
1.7391 2.5089 2.6725 0.575 -0.818 0.020 45 44 49 0 0
1.7249 2.4997 2.6726 0.743 -0.653 0.150 44 43 48 0 0
1.6823 2.4890 2.6765 0.491 -0.752 -0.440 46 46 49 0 0
1.2898 2.3601 2.7065 0.032 -0.948 -0.316 34 34 36 0 0
0.9562 2.5929 2.8062 -0.347 -0.862 0.369 51 50 55 0 0
2.2394 3.4397 2.8167 0.672 -0.320 -0.668 71 71 74 0 0
1.7695 2.5098 2.6829 0.497 -0.819 0.286 47 47 52 0 0
1.7268 2.5024 2.6876 -0.126 -0.992 -0.022 46 47 51 0 0
1.7126 2.5041 2.6901 -0.126 -0.992 -0.022 47 46 52 0 0
1.3198 2.3626 2.7172 0.400 -0.913 0.085 40 40 44 0 0
1.3061 2.3552 2.7176 0.227 -0.929 -0.294 39 39 41 0 0
1.2922 2.3517 2.7189 0.113 -0.952 -0.283 39 39 41 0 0
1.1426 2.4629 2.7653 -0.165 -0.986 0.030 40 40 42 0 0
1.1272 2.4767 2.7706 -0.181 -0.900 -0.398 32 32 34 0 0
1.1127 2.4788 2.7732 -0.131 -0.917 -0.378 41 41 43 0 0
0.9888 2.5758 2.8127 -0.728 -0.685 0.024 51 50 55 0 0
2.0419 3.0299 2.7719 0.778 -0.592 0.211 53 52 57 0 0
1.5601 2.4758 2.7359 -0.330 -0.308 0.892 46 45 50 0 0
1.5440 2.5436 2.7533 -0.330 -0.308 0.892 46 45 50 0 0
0.9927 2.5738 2.8416 -0.471 -0.760 0.448 49 49 51 0 0
1.8472 2.5962 2.7350 0.412 -0.673 -0.615 37 37 40 0 0
1.7896 2.5607 2.7356 0.476 -0.784 0.399 28 27 33 0 0
1.5902 2.4894 2.7492 -0.236 -0.896 0.376 47 46 51 0 0
2.2694 3.5511 2.9025 0.244 -0.204 -0.948 64 64 65 0 0
1.8495 2.6427 2.7600 0.805 -0.592 0.045 41 40 43 0 0
1.8350 2.6473 2.7632 0.854 -0.492 0.170 44 43 46 0 0
1.7916 2.5835 2.7553 0.113 -0.949 0.295 33 32 37 0 0
0.4819 3.3413 3.1202 0.793 -0.563 -0.234 187 188 187 0 0
1.7648 2.5874 2.7751 0.042 -0.913 0.406 35 34 39 0 0
1.1346 2.5027 2.8493 -0.226 -0.787 0.574 27 25 28 0 0
1.7236 2.5872 2.7960 0.504 -0.579 0.640 41 45 46 0 0
1.7093 2.5742 2.7952 0.554 -0.552 0.623 35 37 39 0 0
1.6388 2.4858 2.7854 -0.426 -0.837 0.345 30 29 33 0 0
1.6245 2.4897 2.7884 -0.562 -0.821 0.102 33 31 35 0 0
1.5956 2.5083 2.7970 -0.386 -0.890 0.244 25 23 26 0 0
1.2992 2.4242 2.8218 0.090 -0.832 0.548 25 26 28 0 0
1.7543 2.6038 2.8102 0.085 -0.890 0.449 52 51 56 0 0
1.7110 2.6083 2.8177 0.513 -0.508 0.692 46 46 50 0 0
1.6967 2.5857 2.8146 0.618 -0.486 0.618 44 43 47 0 0
2.3359 3.4507 2.9352 -0.657 -0.441 -0.611 70 70 72 0 0
2.2950 3.5665 2.9682 -0.902 -0.392 0.182 59 59 62 0 0
1.3287 2.4757 2.8587 0.268 -0.903 -0.336 42 41 44 0 0
1.3146 2.4711 2.8598 0.268 -0.903 -0.336 42 40 43 0 0
1.1807 2.5421 2.8962 0.633 -0.771 0.074 49 49 51 0 0
1.1668 2.5347 2.8965 0.539 -0.792 0.288 45 45 47 0 0
1.1528 2.5274 2.8969 0.654 -0.688 0.315 38 38 41 0 0
1.1228 2.5417 2.9047 -0.581 -0.807 -0.104 56 56 58 0 0
1.1073 2.5556 2.9103 -0.664 -0.741 -0.098 56 56 58 0 0
1.3310 2.4677 2.8713 0.194 -0.848 -0.493 59 58 61 0 0
1.3169 2.4638 2.8725 0.194 -0.848 -0.493 57 55 58 0 0
1.3032 2.4543 2.8723 -0.081 -0.762 -0.642 54 52 55 0 0
1.1825 2.5442 2.9113 0.713 -0.699 -0.057 51 51 53 0 0
1.1682 2.5417 2.9129 0.601 -0.758 0.253 51 51 53 0 0
2.2811 3.5181 2.9919 -0.945 -0.315 0.090 48 47 52 0 0
2.2665 3.5435 3.0001 -0.847 -0.330 0.417 44 43 48 0 0
2.2382 3.6156 3.0213 -0.350 -0.104 -0.931 42 41 46 0 0
1.3200 2.4409 2.8814 -0.460 -0.735 -0.497 68 66 69 0 0
1.3054 2.4476 2.8852 -0.460 -0.735 -0.497 68 66 69 0 0
0.4859 3.2829 3.2041 0.888 -0.283 -0.363 154 154 152 0 0
2.2941 3.4235 2.9840 -0.917 -0.195 -0.348 50 50 53 0 0
1.1923 2.4568 2.9190 -0.264 -0.741 -0.618 58 58 60 0 0
1.3939 2.4684 2.9064 0.299 -0.819 -0.490 78 76 77 0 0
1.3233 2.4496 2.9125 -0.152 -0.814 -0.561 71 70 68 0 0
1.2938 2.4658 2.9208 0.422 -0.685 -0.594 68 67 65 0 0
1.4109 2.4490 2.9140 0.240 -0.969 0.060 90 89 88 0 0
1.3967 2.4476 2.9158 -0.183 -0.982 -0.050 95 94 94 0 0
1.3823 2.4503 2.9186 -0.245 -0.968 -0.061 91 90 90 0 0
1.3687 2.4370 2.9174 -0.301 -0.891 -0.341 88 82 83 0 0
1.3545 2.4350 2.9191 -0.071 -0.810 -0.582 88 83 83 0 0
1.3403 2.4347 2.9211 -0.071 -0.810 -0.582 81 78 78 0 0
0.5708 3.1644 3.2118 -0.874 -0.386 -0.294 59 60 62 0 0
1.4130 2.4456 2.9276 -0.006 -0.921 -0.389 89 88 86 0 0
1.3983 2.4533 2.9317 -0.738 -0.665 -0.114 95 94 92 0 0
1.3704 2.4405 2.9328 -0.531 -0.748 -0.397 89 84 86 0 0
1.3563 2.4378 2.9342 -0.555 -0.832 0.015 88 83 84 0 0
1.3422 2.4338 2.9354 -0.557 -0.676 0.483 85 82 80 0 0
1.1885 2.3851 2.9465 0.598 -0.635 -0.489 64 64 66 0 0
2.3914 3.3418 3.0146 0.116 -0.919 -0.376 114 114 113 0 0
2.2037 3.3066 3.0342 -0.826 -0.084 -0.557 39 38 42 0 0
1.4295 2.4359 2.9375 0.205 -0.855 -0.476 85 83 83 0 0
1.4149 2.4432 2.9415 -0.153 -0.959 -0.239 92 90 90 0 0
1.3722 2.4413 2.9474 -0.651 -0.746 -0.140 88 86 85 0 0
1.4607 2.4153 2.9425 0.154 -0.980 0.128 77 74 77 0 0
1.4463 2.4191 2.9456 0.395 -0.909 0.130 77 75 77 0 0
1.4316 2.4307 2.9507 0.272 -0.849 -0.453 83 81 83 0 0
1.4171 2.4380 2.9547 -0.326 -0.925 -0.194 86 84 86 0 0
1.3743 2.4376 2.9610 -0.702 -0.704 -0.111 78 77 77 0 0
1.2909 2.3986 2.9639 -0.542 -0.447 0.712 63 62 60 0 0
0.5870 3.0851 3.2381 -0.924 -0.382 -0.024 67 68 69 0 0
2.1980 3.0808 3.0114 -0.677 -0.091 -0.730 36 36 39 0 0
1.5080 2.3286 2.9287 -0.561 -0.771 0.301 54 53 58 0 0
1.4192 2.4322 2.9676 -0.485 -0.859 -0.162 63 61 66 0 0
1.4042 2.4482 2.9738 -0.789 -0.553 -0.268 63 61 66 0 0
1.3890 2.4695 2.9814 -0.847 -0.512 -0.142 60 58 63 0 0
1.3747 2.4697 2.9836 -0.845 -0.534 -0.037 60 58 62 0 0
1.4954 2.3389 2.9477 -0.722 -0.692 0.000 47 46 51 0 0
1.4805 2.3636 2.9561 -0.776 -0.612 0.151 51 50 55 0 0
1.4650 2.4002 2.9675 -0.084 -0.937 -0.339 53 51 57 0 0
1.4213 2.4273 2.9808 -0.202 -0.703 -0.682 47 44 51 0 0
2.1970 2.9658 3.0141 -0.445 -0.091 -0.891 43 42 47 0 0
0.5907 3.1167 3.3094 -0.516 -0.757 -0.400 84 84 86 0 0
1.1324 2.3820 3.0717 -0.226 -0.973 -0.040 35 37 40 0 0
1.1361 2.3820 3.1006 -0.342 -0.938 0.049 22 21 25 0 0
2.0954 2.6969 3.0526 0.448 -0.355 -0.821 51 50 55 0 0
2.0513 2.6789 3.0546 -0.661 -0.148 -0.736 45 42 49 0 0
2.0371 2.6909 3.0599 -0.684 -0.120 -0.719 42 39 46 0 0
2.1892 2.7996 3.0806 0.871 -0.414 -0.266 59 65 65 0 0
1.2238 2.4038 3.1225 -0.247 -0.938 0.245 15 15 15 0 0
1.2268 2.3877 3.1325 -0.422 -0.901 0.102 16 17 17 0 0
1.1979 2.3927 3.1382 -0.003 -0.984 -0.177 11 15 17 0 0
1.2583 2.3689 3.1375 -0.864 -0.430 -0.262 18 19 21 0 0
1.2000 2.3896 3.1518 -0.286 -0.941 -0.181 24 25 27 0 0
0.7593 2.7381 3.3115 -0.882 -0.471 -0.017 70 72 71 0 0
2.2247 2.8010 3.1215 0.761 -0.506 -0.406 74 73 75 0 0
1.2753 2.3532 3.1454 -0.728 -0.678 -0.100 29 29 32 0 0
0.9743 2.5325 3.2391 -0.736 -0.406 0.542 46 46 51 0 0
0.9295 2.5441 3.2490 -0.591 -0.084 -0.802 50 50 55 0 0
1.2923 2.3364 3.1530 -0.769 -0.639 -0.004 35 34 39 0 0
1.2772 2.3529 3.1597 -0.725 -0.668 0.166 36 35 40 0 0
2.1349 2.6545 3.1260 0.749 -0.658 -0.075 63 63 63 0 0
1.2661 2.3319 3.1703 -0.783 -0.621 -0.012 37 38 43 0 0
1.4526 2.3052 3.1493 -0.439 -0.880 0.179 38 38 40 0 0
1.3521 2.3451 3.1755 -0.778 -0.602 -0.179 39 40 44 0 0
1.3376 2.3518 3.1796 -0.879 -0.462 -0.121 39 40 44 0 0
1.2834 2.3109 3.1766 -0.706 -0.708 0.004 41 41 46 0 0
0.7825 2.7317 3.3678 -0.803 -0.543 0.244 75 75 76 0 0
0.7547 2.8440 3.4027 -0.821 -0.551 0.154 76 76 78 0 0
2.1391 2.6569 3.1562 0.733 -0.639 0.233 63 62 66 0 0
1.9774 2.5480 3.1508 0.865 -0.251 -0.434 52 51 56 0 0
1.3542 2.3405 3.1886 -0.783 -0.532 -0.321 41 40 45 0 0
0.7839 2.7368 3.3844 -0.844 -0.512 0.162 74 74 73 0 0
0.7649 2.7716 3.3968 -0.859 -0.486 0.159 74 76 75 0 0
2.0807 2.5833 3.1598 0.731 -0.629 0.265 60 60 62 0 0
2.0372 2.5682 3.1622 0.858 -0.473 -0.202 56 56 58 0 0
1.1506 2.4372 3.2610 -0.184 -0.983 0.017 42 41 46 0 0
1.1361 2.4397 3.2639 -0.160 -0.983 -0.092 44 43 48 0 0
0.7674 2.7670 3.4107 -0.872 -0.489 -0.026 69 70 70 0 0
0.7479 2.8058 3.4244 -0.857 -0.513 -0.051 68 69 69 0 0
0.7289 2.8389 3.4364 -0.860 -0.502 -0.088 66 67 67 0 0
2.4401 3.4094 3.3500 0.908 -0.407 -0.097 95 95 95 0 0
1.9083 2.4510 3.1642 0.558 -0.818 -0.141 50 49 54 0 0
1.1955 2.4377 3.2692 0.318 -0.940 0.119 47 46 51 0 0
1.1383 2.4341 3.2769 -0.094 -0.919 -0.382 46 45 50 0 0
0.9196 2.6104 3.3593 -0.381 -0.868 0.320 60 59 64 0 0
0.7500 2.8036 3.4390 -0.845 -0.531 -0.055 59 57 61 0 0
0.7304 2.8427 3.4528 -0.835 -0.521 -0.175 56 55 58 0 0
0.7114 2.8746 3.4646 -0.854 -0.444 -0.272 54 53 54 0 0
