ply
format ascii 1.0
element vertex 725
property float x
property float y
property float z
property uchar diffuse_red
property uchar diffuse_green
property uchar diffuse_blue
end_header
1.8922436239990328 3.0035385064409956 2.165644489461675 41 40 45
1.573594429392372 2.7631922569232152 2.380020887682629 42 41 46
1.7564642617558048 2.8729482539952844 2.266293740112734 44 43 48
1.8080061645593788 2.89115712871455 2.2384407234561285 46 46 50
1.8334510564599271 2.8911510844834294 2.2276598979874795 51 52 56
1.8306936645608962 2.871219015621697 2.2354082803549242 61 62 68
1.8176023185110848 2.843861695260994 2.2499870863972267 77 78 82
1.8042884907238093 2.8162276830186372 2.264751514051661 93 93 95
1.7141262963302286 2.7332708642754664 2.330344988920322 102 102 103
1.60834257202831 2.638498177253749 2.4064590207094905 116 116 115
1.4904708180339488 2.534333994788883 2.490795890391275 149 149 147
1.378159819598209 2.4335004754687724 2.57167676777344 193 193 191
1.3261186420057762 2.3759577500748836 2.6127260634442333 206 206 204
1.3067529682244188 2.342004240921505 2.632141252892741 206 206 204
1.1860837104874054 2.2334063661648296 2.7191272540734155 206 206 206
1.0453464512947164 2.1092599078939576 2.819750326126347 206 206 206
4.143258451418053 1.9685605821726126 1.5533904003031294 209 209 208
4.20881824167704 2.0367273407582234 1.503105147003347 209 209 209
4.259602711862018 2.0857790776042986 1.4653914122313592 209 209 209
4.270502694662976 2.0820160478593186 1.462014543029345 209 209 209
4.283835882613056 2.0815518190497095 1.4565175665471022 208 208 208
4.287853667260021 2.06863750312135 1.4590781553246304 208 208 208
3.4891997782109416 6.336082738565288 0.39853207939053314 205 205 207
3.6564695217385283 6.3592872741140845 0.31966757704772863 205 205 207
0.6649421483601972 3.9536521839878653 2.3895125754730704 205 205 205
0.6761499713511137 3.9420002316026266 2.3886030327835033 205 205 205
0.8488925904551238 4.005397301540824 2.294095910307088 205 205 205
0.8513925373257979 3.9900634450090147 2.2981114443299537 204 204 204
0.8479273215640959 3.9719070109622314 2.3056003013120376 199 199 197
0.8395221428647294 3.9513712073388674 2.315979417352427 153 153 151
0.8371411935951378 3.933613298695225 2.3228748769060994 99 99 97
0.835794591594185 3.916300029664588 2.3291829057656734 101 101 100
0.9416136549710774 3.950154708614968 2.272939553058295 118 118 117
1.0430053655862905 3.9823211332661845 2.219139397681003 100 100 100
1.1168191352283166 4.001604166458335 2.181342053875807 70 70 72
1.147664693128577 4.000360771076747 2.168628269760054 57 57 59
1.1156608897309372 3.9686217724519635 2.19276032140857 56 56 58
1.1190622394597738 3.9540195665819255 2.196149924083711 47 46 51
1.0752503034345513 3.916196585341047 2.2273219866392227 40 39 44
1.0333323511210857 3.8790732975011135 2.2574563324176773 42 41 46
1.0389126175905963 3.8652785788228385 2.25965126460624 42 41 46
1.0869334268833588 3.872616926815172 2.23678622660807 50 49 53
1.165092525679751 3.8952221028475056 2.196039364089758 56 56 58
1.2449647296638526 3.9190098924697603 2.1541717866599326 57 57 59
1.3074194974958888 3.934330518758177 2.122520565004459 58 58 60
1.3426356169055138 3.936081607884078 2.106955061750609 58 58 60
1.4151265100815404 3.95695794818222 2.0691928571653126 57 57 60
1.4862073898102406 3.977411458148378 2.032170715555966 51 50 55
1.5465597886203484 3.992640586404506 2.0014444201196673 43 42 48
1.7466797907898721 4.080325607891635 1.8872420743956395 42 41 46
1.6345558591682738 4.006858746512467 1.9592898423803686 54 53 58
1.675828080351483 4.0128015466674825 1.9397587942060759 47 46 51
1.6837863984955337 4.00145733050119 1.9401300703644455 38 38 41
1.65153395045993 3.968964697761077 1.964617568264535 50 50 52
1.6688359839276845 3.9624671646778014 1.9594073676953911 61 61 63
1.6887121567521293 3.9573817358838737 1.9526340391199497 57 57 59
1.7211388044336635 3.9590447462026788 1.9382847111238133 52 51 56
1.7459106363468218 3.956727079984324 1.928511321048293 48 47 52
1.774390884804562 3.9564857658570056 1.916472104161374 47 46 51
1.7976184739282508 3.9535070270985093 1.9075748130578494 47 46 50
1.8188379388493663 3.9495140034173195 1.899868017023807 44 44 46
1.8488689075556846 3.950388577542536 1.886799287348674 40 40 42
1.8785289594728152 3.9511684129696096 1.8739197754146577 36 36 38
1.8683496582354882 3.9301544134661492 1.885212232967667 29 29 31
1.8860689541288833 3.924459787299459 1.8795585129138648 28 28 30
1.9076589310083099 3.9209614614879422 1.871530185133059 23 23 25
1.922595027459713 3.9138259758802976 1.867538079200268 24 23 26
1.8805525905491316 3.8748551447408484 1.898337394479876 25 24 29
1.9388561807630844 3.8920187967837823 1.8678421150854967 27 26 32
1.972320974207817 3.89541527366782 1.8524768167542531 28 27 32
1.9930762752708227 3.8917371085482957 1.8448632388447255 28 28 31
1.9229822514191537 3.836421893813395 1.8930133673551355 29 29 31
2.008681906028433 3.869772126952083 1.8454984901306968 32 32 34
2.0794624590426682 3.8949430296467273 1.8070415120934957 33 33 35
2.1244216615405715 3.9055411222785184 1.7843994857106849 30 30 32
2.1421993087911195 3.9005891068637384 1.778474946067535 29 29 31
2.162049631008775 3.8968945799435577 1.7712518821171908 47 46 49
2.1793016346232927 3.8917458417073716 1.7656161830583004 18 16 19
2.1947164243138646 3.885570044944264 1.7611024831563402 18 16 19
2.1920420072715685 3.8687837463891963 1.7678009762072562 20 18 21
2.121914185731416 3.812060817251341 1.8164317912727783 20 18 21
2.156168513126115 3.816937800880376 1.8002401067839207 18 16 20
2.217689784444141 3.838210699353424 1.7670144271836736 17 15 19
2.2666134183551034 3.8522123228667624 1.741558005113477 16 14 19
2.32228384765555 3.8704816908685284 1.711816942389106 15 14 17
2.0872110090937928 3.7134182033977012 1.8638742912615769 14 14 16
2.1338013861432104 3.725937276521427 1.8399018301109493 11 11 13
2.1724172215407473 3.733799367840242 1.8208653850734589 10 10 12
2.2052150517218565 3.738263116880029 1.8054303651342622 10 10 12
2.225033768751713 3.7348873994748653 1.7981151445960537 9 9 11
2.2248325752406517 3.719231948334796 1.8033866183785245 11 11 13
2.2257381726772465 3.7042240382404508 1.8079726236337597 11 11 13
2.2097276909125245 3.678666862766864 1.8232513383322404 12 12 14
2.173704158827735 3.640496431325663 1.8512243072035675 12 12 14
2.153353929733856 3.611928245932723 1.8693471027683315 14 14 16
2.1704373748512236 3.6067800595935857 1.8637829473066947 15 13 17
2.1466023419328217 3.5758204013493122 1.88418079973138 17 15 20
2.1512995603648566 3.562806777793999 1.886492756498105 18 16 22
2.14804009498982 3.544709183032761 1.8938745703818467 22 19 25
2.152472079827742 3.531477701868768 1.8963715567746677 28 26 31
2.1981371827935883 3.5447215958724385 1.872552729394796 33 31 36
2.2083337511075234 3.5352862915809924 1.8713392406451201 40 38 43
2.209048061114242 3.5197244957136897 1.8761901184988878 47 46 52
2.208421875737165 3.503256270092799 1.8819116694873836 50 49 55
2.2067321312082906 3.4860517100147854 1.8883297054224488 55 55 59
2.197861662435658 3.46409167039345 1.8993785930143208 62 61 66
2.187814435727041 3.441271112971317 1.9112132705099734 62 61 66
2.16578200432787 3.4104366854975057 1.9308025823226789 63 62 67
2.156860255666114 3.3881458138024287 1.941982878915816 55 54 59
2.1417883370911017 3.3616700880986894 1.9571664777015974 44 43 48
2.128328727305222 3.336152470184282 1.971346620729808 38 37 42
2.140563621985498 3.3277798288061913 1.9689137598500035 40 39 44
2.1709697655105344 3.3316860620662756 1.954681147117041 42 41 46
2.1810787889812127 3.321974530895941 1.9535964111902813 44 43 48
2.1665901561255447 3.2955578986199967 1.9685122307201597 45 44 49
2.1776676109565445 3.2864695285278867 1.9668089780397606 43 42 47
2.444964117722132 3.4529487313534384 1.7979205950760597 41 40 45
2.4360840994285584 3.430869330825343 1.809013084499269 39 38 43
1.9341096123284243 3.0507235856485964 2.1485405261912938 40 39 44
1.593740538093706 2.796309118750628 2.377651867097949 41 40 45
1.6698682437903927 2.831040694858925 2.3337525559849044 42 41 46
1.7442345435877389 2.8649109255938088 2.290888093169972 45 44 49
1.8280694070147994 2.90581643563136 2.2416640557511833 47 47 52
1.8811760407253915 2.9254132276277485 2.212574252113323 53 53 59
1.845127037330247 2.881969254663188 2.2423049177023957 66 67 72
1.8202648473137404 2.8462532005534946 2.264715408271046 83 84 86
1.785699358053924 2.8034114838393074 2.2936152995159924 97 97 99
1.6820316806936035 2.710697407944899 2.3684403219367596 105 105 106
1.5810385380467367 2.619285186604891 2.4416960154532377 122 122 120
1.484337751308582 2.530366173472881 2.512299316048781 128 128 126
1.3955086115635367 2.4465754777821305 2.5778542554313075 171 171 169
1.3649817068226278 2.4047684048210605 2.6046928894022745 205 205 203
1.3264519462905142 2.356878783696637 2.6369518060872665 206 206 204
1.2214987368644001 2.2598864628738955 2.7137410252607084 206 206 206
1.0804627498851311 2.1356161544994 2.814920307417671 206 206 206
4.26064290156061 2.0671801101810447 1.4843330186131378 209 209 209
4.09104742073 1.8216803137931668 1.6378223803953327 209 209 209
4.117485832537946 1.8379999664413516 1.6211662109706273 209 209 209
4.142840937846254 1.853039828168093 1.605394949226175 209 209 209
4.157274068549713 1.8534750741934203 1.5991090684470763 209 209 209
4.171163599747043 1.8532445810179676 1.5932750304210488 209 209 209
0.6607813667411312 3.9533649686061882 2.4088291895418763 205 205 205
0.678378464763108 3.944646088428771 2.40420819793189 205 205 205
0.6566929163555424 3.9177285243774715 2.4224211657367123 205 205 205
0.6675244673042784 3.905847966734197 2.421741903044964 204 204 204
0.8122852023259053 3.956756403698993 2.342966233109922 189 189 187
0.8065469166000172 3.937391282480981 2.351854813668588 119 119 118
0.790163195867189 3.912926512716247 2.366987103931319 93 93 91
0.7886222618297549 3.89540831239983 2.3734683191614923 89 89 89
0.9742669681454101 3.9672574761624415 2.2702630487988777 97 97 95
1.051308410384656 3.9877828112484948 2.2305218836327976 110 109 109
1.1109295251542286 4.000218735839819 2.200913008054924 72 72 75
1.160685341954248 4.008108259104403 2.177030608108673 60 60 62
1.1098433387518833 3.967229444003437 2.2123422797066974 57 56 59
1.1070542425915662 3.9495788749327905 2.219400816429242 51 50 55
1.0682231445309704 3.914175958010164 2.2477602701509602 39 38 43
1.0355775448770266 3.8816125002079107 2.2725329431532453 43 42 47
1.0527813665499601 3.8735759689891283 2.2678531907983954 43 42 47
1.094041582104034 3.877561590053956 2.248898454907444 47 46 51
1.1688242956897437 3.898470570868724 2.2099948980041138 53 53 55
1.218615741050972 3.907124859669639 2.1858430775478936 57 57 59
1.2626647243884164 3.91307192612948 2.165044780338719 58 58 60
1.2856547467175945 3.9085041753586767 2.1567396849974974 57 57 59
1.3392679281426574 3.919608940683009 2.1301403820133613 57 57 59
1.395360371253115 3.932194256952125 2.101989608070709 54 53 58
1.450737526330597 3.9446356292528266 2.074192312621929 49 48 53
1.590277040058465 4.0007652639939355 1.9959121554814345 45 44 49
1.640307079951929 4.011071834812601 1.9711091922064692 41 40 45
1.6833624915969199 4.0179419500914335 1.9504286278297953 39 38 43
1.6974209995301908 4.009799354025749 1.9471280830785818 37 37 40
1.7000395348378508 3.995672310392662 1.9507048382582046 35 35 38
1.6710174389177086 3.96481101153754 1.9733634607369597 37 37 39
1.6921237742590152 3.9603718590622528 1.9658204970820519 51 51 53
1.7115001443630151 3.9550749906340092 1.9593018181541764 58 57 61
1.7304351626685741 3.9495980703445746 1.9530315699302696 55 54 59
1.7536417899917716 3.946471921290855 1.9441547546733553 52 51 56
1.7829517078357016 3.9467162874115793 1.9315497698377724 49 49 52
1.802020011738826 3.941509944246212 1.9251326344699167 48 48 50
1.833190607948222 3.9429520584320272 1.9113344911258072 48 48 50
1.8606462205191532 3.9424751614238502 1.8997615650368567 45 45 47
1.892063923172445 3.944271898266342 1.885739964820505 43 43 45
1.8888454944664121 3.9270664597339677 1.8928339950909594 40 40 42
1.9068333262918404 3.9215662454079396 1.8869762103938659 34 34 36
1.928010632357613 3.9178932404581484 1.8791482656119258 30 29 33
1.908881467269138 3.891747547725923 1.8960123640850113 26 25 31
1.9792282838061803 3.9157261625603343 1.857983909057458 26 25 31
2.0039778971538316 3.914291344124975 1.8478856216368411 24 23 28
2.0303594014828734 3.9138661334392673 1.8367544687812325 22 21 25
2.047164304271875 3.9080857561619875 1.8314952569230485 25 25 27
2.0781389105127492 3.9104487054048205 1.8174747855437399 29 29 31
2.0966325692906564 3.9057660144899753 1.8111291345026348 28 28 30
2.1314729094882687 3.910559622592389 1.794648967947778 28 28 28
2.145654456087835 3.9035327715102452 1.7909249930110103 32 32 33
2.159906066706349 3.89658135132122 1.7871460084708104 36 36 39
2.1724862020400053 3.8886894234412424 1.784393835394916 20 18 22
2.18779211335479 3.8824223646712217 1.7799368896408436 17 14 18
2.185254230654791 3.8656913690423047 1.7865824332417606 16 14 17
2.1637245807025143 3.8376843544140256 1.8050909050147625 17 15 18
2.1841649227800723 3.834451243256199 1.7974316414642746 17 15 18
2.2114957985855312 3.835392772442079 1.7854405497266173 15 13 16
2.2315869219342366 3.8321011408205843 1.7779499543145332 14 12 15
2.016629596231366 3.6875565588018353 1.9178430332270493 14 12 15
2.0745616045493063 3.706648964327653 1.886743374856384 12 11 14
2.127985644982111 3.7232640671690485 1.8583933339067475 11 11 13
2.161428326459086 3.7279479549646073 1.8425468388572603 11 10 13
2.19864855269645 3.7350743775357618 1.8242743833915593 9 9 11
2.2056919355709685 3.723827722805778 1.8250030574622367 12 12 14
2.221998502994661 3.718290695182855 1.8198758922059475 19 19 21
2.2153221384371125 3.6985732906968325 1.829282395912837 23 23 25
2.215297906438254 3.682919628752456 1.8344957980752024 24 24 26
2.1840489782440144 3.6477394663277014 1.8595414451605219 26 26 28
2.1558691799465945 3.61428451201098 1.882702257521727 26 26 29
2.167943959917382 3.605979626363141 1.8803032775866506 28 26 31
2.145626273510293 3.575966297705771 1.8998153368954214 31 29 35
2.159032299847999 3.568466343732001 1.8965799845388878 35 33 39
2.156371003313145 3.5507612583487482 1.9036020345051845 40 37 43
2.2107497246686703 3.569494028706511 1.8741401886545477 45 43 48
2.21014042272067 3.553151805693955 1.8798324515063642 51 49 54
2.1709456170095223 3.5118820012221983 1.9102973805127665 54 52 57
2.1796397722539185 3.5013803283731124 1.910073079133297 54 53 59
2.2076253183914507 3.503429510354585 1.8974340873769224 56 56 59
2.2082720010836963 3.48773910234 1.9023730299434798 61 61 63
2.2024964356894277 3.467803508917378 1.9114671562496461 63 63 67
2.19555653951634 3.447032063807506 1.9213366113950952 51 50 55
2.190950928151495 3.4277272004194375 1.9297211855526815 51 50 55
2.1857470268372303 3.4079615748429357 1.9385145521267066 37 36 41
2.17463348700935 3.3841919271458725 1.9511639116373538 37 36 41
2.1681668033795134 3.363431159824921 1.9608276198440406 39 38 44
2.143920965528044 3.3306566325648665 1.9820813361405571 40 39 45
2.1410484970455768 3.3121219457411746 1.9894693646147275 43 42 47
2.1789245519432408 3.3211149365977133 1.970296261789389 45 44 49
1.9565695292263818 3.1534128666187557 2.121047494140526 45 44 49
1.931310161016662 3.118950080770166 2.143295431722376 42 41 46
1.7027602138617666 2.908992524467098 2.3107387829908523 38 37 42
1.6766220063778645 2.872780967113016 2.333943503651288 39 38 43
1.6517424503032392 2.83725762421903 2.3563816659009396 41 40 45
1.746829602461971 2.8853790561177495 2.2997572560081636 42 41 46
1.789852220560475 2.8974565725321906 2.2773598399785233 46 45 50
1.864663524413297 2.93211536834157 2.2338738295418556 50 50 55
1.8914984776947532 2.933223245262487 2.2220393477402243 56 56 64
1.8683477425600599 2.898955333573151 2.243321519477857 74 74 80
1.8323008813580643 2.855324566860548 2.2732261204837467 91 92 93
1.7806491980468648 2.800284459968023 2.3135907643951716 103 103 104
1.6955620609550084 2.720897091234831 2.3763346328028727 113 113 113
1.6120417643270903 2.642116574414885 2.4382073011931755 115 115 113
1.5276352410563163 2.5621786122900727 2.5008433610174707 107 107 105
1.432465648134954 2.4738968772727747 2.5708516938104222 142 142 140
1.3796062237591455 2.41589331625943 2.612717399143593 199 199 197
1.3329931203764627 2.362115905107345 2.6505094193197793 207 207 205
1.2722804489838604 2.297659446081619 2.697875567686993 206 206 206
1.2016858239119914 2.2255148369044018 2.752019579790715 206 206 206
1.2609390062083234 2.249114408542974 2.7188572842604777 206 206 206
4.366709184758446 2.0987728681904967 1.4417718799529067 209 209 209
4.385470912479434 2.106167477659271 1.4312973685157844 209 209 209
4.400752913699549 2.1089046237930287 1.423857773316205 209 209 209
3.436444693248829 0.7405483698290152 2.29071620101978 209 209 209
3.4510707442065884 0.7379647669009405 2.2853254242756016 209 209 209
3.419782971605126 0.6715995594285594 2.3207531216578228 210 208 209
3.367092451771529 0.5750027587526257 2.3753744842295696 210 208 209
3.385117397183153 0.5768354819658145 2.3670634802440707 210 208 209
3.4390296599176784 0.629177330650749 2.3266297805717913 210 208 209
3.519859974354227 0.7198993861455 2.261937315223559 210 208 209
0.5359033841541927 6.337914416288829 1.6845811070177195 186 186 188
0.1443741634796416 6.268036359104647 1.8758722732414461 186 186 188
0.1141320432075068 6.2507012784937155 1.894629270695206 186 186 188
0.6629082400157748 3.9559717517260506 2.4245219404726908 205 205 205
0.690429593217283 3.951829853406424 2.4140953473462625 205 205 205
0.6625298831691048 3.9220515598859724 2.4359974309083166 205 205 205
0.6539197411448201 3.901107720444625 2.4466768518274042 201 201 201
0.6320510242167521 3.873876314755285 2.4651418983731133 165 165 165
0.766533633209131 3.92011363952222 2.392021060837398 104 104 104
0.7445952258312182 3.8929278556037294 2.4105007921047643 89 89 89
0.7543652436971905 3.880675370341076 2.4103954581582263 81 83 82
0.9672411937560065 3.96540357618325 2.2908024459420426 81 82 81
1.0348299014779179 3.9813551089365444 2.256483375170099 96 95 95
1.0888793216571517 3.9910488068467522 2.2300604534162884 86 85 86
1.161594863167702 4.009987951189313 2.192545282920248 73 73 76
1.1894735748234972 4.007408048568661 2.1814444043339147 51 50 55
1.1286722311668655 3.961578434647013 2.2228163837551858 49 48 53
1.0880849044626424 3.925362017206992 2.252309338260915 37 36 41
1.0634396961032508 3.8967884386797884 2.272413281051643 41 40 45
1.07687116138246 3.886934563141515 2.2699370155617555 42 41 46
1.1124366718612697 3.888124070738056 2.2542809390184013 45 44 48
1.1724615563352345 3.9016719482399473 2.2240087932518975 49 49 51
1.2020152709700271 3.9001493103488496 2.211836634345268 56 56 58
1.2366003412963915 3.9012652263448886 2.1966257591981564 57 57 59
1.2200435652694819 3.8765742986010645 2.211964415245394 57 57 59
1.2632960214538718 3.88223242778327 2.1915198748035554 56 56 58
1.3118372035618235 3.8907598497511464 2.1678492369868074 55 55 57
1.355580543532351 3.8970098708044905 2.1469966738962474 52 52 55
1.4799113058957092 3.945032424222166 2.0776360621343537 48 47 52
1.5588336874815476 3.970048631924035 2.0354310136847955 46 45 50
1.6890034545965165 4.022094645869546 1.9622232666992576 43 42 47
1.6995827659388025 4.012134258308148 1.9610062393469252 39 38 43
1.722678050443174 4.008767224600707 1.9522202118100376 39 38 43
1.6838577741833474 3.9727832106631036 1.980877503129635 37 36 41
1.6976728973288409 3.96449577513697 1.9777141861622838 34 33 38
1.7142315938708963 3.9576996335447747 1.9728763611186282 39 39 41
1.7280620606845984 3.9494865741502254 1.9696816548305256 49 49 51
1.746502469578495 3.9437811714884266 1.9636726965968787 55 55 57
1.768523403962144 3.940060717282673 1.9554654917521805 52 53 56
1.7956062723846538 3.9391542201179623 1.9441479501079284 50 51 55
1.8228497302444695 3.9384289558150045 1.9327010624289134 50 51 54
1.8503705159489563 3.9379502543099836 1.9210529531896423 49 50 52
1.854793517773127 3.9248784276632067 1.9235150204413516 48 48 50
1.8635995278388204 3.9142108509763283 1.9232946900112098 46 46 48
1.8724111841315656 3.90355322297927 1.9230686189579709 44 43 47
1.8833786211811756 3.8941024187306015 1.9215151089929976 42 41 46
1.9287053764239674 3.903877301328878 1.8988075614435533 39 38 43
1.9567963296859305 3.9041590045665275 1.8866612100464832 38 37 42
1.987066294900166 3.90577044497385 1.8731364579888883 35 34 39
2.0400089061212965 3.920334347846886 1.8455640872587387 33 32 37
2.041821873819007 3.906039529217206 1.849553882875681 28 27 32
2.0858067567688154 3.9158083302308464 1.8274240927124163 27 26 31
2.1011191171597505 3.909308341751548 1.8230222332060697 24 24 28
2.1334873976742226 3.9126751473488786 1.808011746668307 27 27 29
2.1446747041624805 3.9039103925012038 1.8061350888228624 29 29 31
2.1580307827210805 3.8964258074151177 1.8029009555884576 39 39 41
2.1660481832045164 3.8858564317669826 1.802986225070543 34 33 37
2.184781436570282 3.8815714859772132 1.7963778674636675 25 22 28
2.198363865275514 3.8743127177339707 1.7929713038508541 26 23 28
2.2593227265513742 3.8950877702685656 1.7598880086888105 18 14 20
2.2905964055585546 3.8985126155026935 1.7453278023520808 18 14 19
2.3232740656939446 3.9028957311032766 1.7298456142394996 17 12 18
2.3684289430318284 3.914876232355161 1.7064761866707598 16 11 17
2.428302709458886 3.935896332407891 1.6737767214978496 16 12 17
2.116774463417955 3.717323092079036 1.8803367764875343 16 11 17
2.1623924282717004 3.729376179407307 1.856744452547546 20 16 22
2.2023351395189263 3.7381554018571785 1.8366789993299069 27 26 31
2.2111817582555986 3.728015327716728 1.8362653116704462 31 30 35
2.2249580977031034 3.7209220149206708 1.8327203676756836 34 33 38
2.2202912855088566 3.7024480549516 1.8408841455822165 34 33 38
2.214962724914335 3.6835019558153026 1.8494893151835872 35 34 39
2.2103184291478817 3.664918350718021 1.8576800015863775 37 36 41
2.174140229686286 3.6265139268907047 1.8860109741954594 36 35 40
2.1824055030251484 3.6158488474451778 1.8860218134600464 38 37 42
2.170298099986624 3.5923175421292495 1.8990647097319946 42 41 46
2.1785215893988235 3.5815832069955356 1.8991165747007026 44 43 48
2.179564604238945 3.5662797179090933 1.9037731324415765 46 45 50
2.1610033385694827 3.5384045104609463 1.9210338427049496 52 51 56
2.1654690864465946 3.5251823615782456 1.9235277056935391 56 55 60
2.1707889230313633 3.512495868901498 1.925476469180648 57 56 61
2.1753943878384145 3.4993361753095265 1.927889556490102 59 60 63
2.176826216466806 3.484098797118377 1.9323572445527768 61 62 64
2.2042714591708323 3.4858104845216427 1.9200110023615455 59 59 61
2.1992818073242457 3.4663706583110834 1.9286354327128403 56 56 58
2.195708190938855 3.447797218202936 1.9363633548835812 43 43 45
2.190520250972884 3.4280990186790703 1.945159033951653 36 36 38
2.1626473650116904 3.3932849700577195 1.968729147721147 36 36 38
2.1509422881292766 3.369051118724626 1.9818337414389897 39 39 41
2.1723330135949115 3.3668472423206905 1.9733911138856217 39 39 41
2.1241451013355266 3.3180012634270377 2.010357338926955 39 39 41
2.123670990337076 3.301020575892801 2.016224201969318 41 41 44
2.0192479620349815 3.2136419439668176 2.0901695680850767 43 42 47
2.020071352592722 3.1971753480923812 2.0953082780298002 43 42 47
1.9770595506452644 3.1507655441951288 2.129241177968484 41 40 45
1.933517670678889 3.1037170640634333 2.1636145204554804 39 38 43
1.8388080455888778 3.021201615246719 2.2317703777372437 38 37 42
1.7122166622428807 2.9161140741300366 2.3211333803141865 38 37 42
1.703940328912445 2.892301017771421 2.3326265301404128 39 38 43
1.7525218094393324 2.9079660420472124 2.3065580493382147 41 40 46
1.8079430990105085 2.928632799569005 2.2758867629367643 43 41 48
1.8336519727180811 2.9287202100544993 2.264827241580729 49 46 53
1.8909251452135163 2.951132992793629 2.2327790673708083 55 53 60
1.8890328647025507 2.93199160161763 2.2399750385944555 66 63 71
1.8678843521990498 2.8991288085023994 2.2600092781198327 84 82 86
1.8228368300680409 2.8490752598675853 2.2960308737654067 100 98 99
1.7999477188520303 2.8145760473335706 2.3173576986823887 105 105 103
1.7145807353878029 2.7350367189309965 2.3805125004404584 105 105 103
1.633942488586166 2.6583818623058924 2.4406764051472196 94 94 92
1.5610536679862 2.58683568638694 2.4958115644584407 93 93 91
1.4843309127917346 2.5120457910482146 2.553673524112809 118 118 116
1.406750747804117 2.436149008010394 2.6122725268946794 183 183 181
1.3755410180079317 2.3937182516023414 2.6398146559376428 206 206 204
1.3145310153001355 2.329155593153581 2.6875240574755344 206 206 205
1.24856627373949 2.2605396561754816 2.738711145771747 206 206 206
1.2959514746870704 2.275465280092692 2.7134025344579564 206 206 206
3.466904749179397 0.7576497640511355 2.288183138980079 209 209 209
3.4091071072157 0.6544454539604057 2.3474021513784917 209 209 209
3.4613652946595943 0.7042328130420175 2.308375606875618 209 209 209
3.4447796477948263 0.6580255004759188 2.3309028544782167 210 209 209
3.4977937896233664 0.7093915451838049 2.2910254408372137 211 208 209
3.5272264265267723 0.7279382475280102 2.2722116480051624 211 208 209
3.5931964302720822 0.7983857614258879 2.2204114293417203 211 208 209
3.6879528718585606 0.9102580994955368 2.1424442940775648 210 208 209
-0.6605273917450483 6.1383247708013275 2.2818169581637715 186 186 188
-0.6004063607837125 6.1332244549324475 2.2576229156514 186 186 188
-0.38142910848144473 6.152389776752389 2.1568707632303483 186 186 188
-0.3305325145359008 6.146453862997628 2.136930370975538 186 186 188
-0.2551847354611434 6.1444407816705215 2.105143267743526 187 187 189
-0.20386130067888453 6.138882126629599 2.0848927328351223 187 187 189
-1.2060321426384095 5.951787307062834 2.5792544638474957 188 189 191
-1.2402533104687068 5.931086229095433 2.6009252476568574 188 189 191
-1.1794739724622763 5.925718255730997 2.576537172621946 189 190 192
-0.9055530114133377 5.9555680269150715 2.4485388783473625 190 191 193
-0.9275589210669759 5.937127691639018 2.4641905857337956 192 192 194
-0.7842097794126619 5.9463130426088915 2.3993599228855738 194 194 196
-0.7120777559153393 5.94387700011372 2.3690997579636663 194 194 196
-0.6776939533940036 5.935195489820623 2.357192137463586 196 196 195
-0.6456795474047252 5.9261890481854556 2.346414025940609 196 196 195
-0.5288554973378163 5.9320264481385285 2.294131149162447 197 197 195
-0.6676401711567124 5.893293022190486 2.3668839903466665 197 197 197
-0.577100466477791 5.894757355814396 2.3273882499263534 198 198 200
-0.4749240630577536 5.898572096249794 2.2820926768716028 199 199 201
-0.3939316351459876 5.898866431316012 2.247101581392949 199 199 201
-0.31238318602451787 5.899499855735537 2.2117574644986258 200 200 202
-0.2236401955198284 5.901696650782927 2.172790645122053 201 201 203
-0.03318497341930082 5.923030562897369 2.083600410556509 202 202 204
0.031732313044238625 5.9214644307376005 2.0561573225969605 202 202 204
0.08818000194412412 5.918486754935778 2.0328354372435204 202 202 204
0.5266834862527534 3.912134960505985 2.5153716308832434 205 205 205
0.7027489648484231 3.975908048128298 2.4181779164218167 205 205 205
0.703171114579238 3.9593291063600815 2.4235443865107023 205 205 205
0.6753039958783649 3.9295920595431806 2.4455017563620935 205 205 205
0.659728526612213 3.905423763097125 2.4603000757975 195 195 195
0.6400992252947609 3.8792505574004683 2.4775158053192237 133 133 133
0.7179966734701118 3.8988436411708904 2.437399514375962 96 96 96
0.7032818826943121 3.874961353225621 2.451731326202415 85 85 85
0.7219983024946894 3.8668561371722334 2.4463805545908617 78 80 79
0.9570359257788923 3.962036875358529 2.3132699327945265 75 76 76
1.0068204290898235 3.9694067809680997 2.2893556948546987 80 79 79
1.0830776877425232 3.989717189355325 2.249705957806936 93 92 93
1.1572485283778347 4.0093251171452895 2.211190170201683 82 82 84
1.196153595480952 4.0120836709621335 2.1935061781419383 63 63 66
1.1507237913529638 3.973782857501601 2.2258957467565867 45 45 49
1.1116325426602711 3.9383508795074214 2.254594493634279 38 37 42
1.0901207149643688 3.9113726867392296 2.2728906384212006 38 37 42
1.0900450565130373 3.8948782128180057 2.278443302600785 39 38 43
1.109063254230107 3.8878483197227585 2.2726026516677114 40 39 44
1.164108019169346 3.898879076276266 2.245197077719694 44 44 46
1.2072282234398481 3.9041368264535214 2.2248607642388456 51 51 53
1.2135586220618464 3.8909950815969143 2.2265315854175087 54 54 56
1.162713881097714 3.848868224778592 2.262534409716936 54 54 56
1.1906560962044637 3.846582644195521 2.25126143593075 54 54 56
1.168777440192915 3.8189085258450737 2.26994851480793 54 54 56
1.3053698807646497 3.87251322126979 2.193163271167398 51 51 53
1.4401640980671 3.925787925870865 2.1172631608383696 49 48 53
1.5475331699783546 3.9654364218274267 2.05773833118095 49 48 53
1.575890457464424 3.9644040733264214 2.0458671299641678 48 47 52
1.5991637597126152 3.960809328354502 2.037043711892814 46 45 50
1.6791343841699828 3.9870798154362213 1.9937995981182444 43 42 47
1.6967265169009558 3.980767202295679 1.98833326838826 39 38 43
1.7050344716029628 3.9695800071407277 1.9884980196253141 37 36 41
1.722495647962938 3.963270952891597 1.9830869165806981 36 36 38
1.7350435810530767 3.9543810269151365 1.9806562217796067 35 35 37
1.7452061384304463 3.944233540760866 1.9796740351944981 36 36 38
1.77029168698401 3.942151961858394 1.9695634790049052 43 43 46
1.7940482345420317 3.9394339991430116 1.9602384470745884 50 51 55
1.822561520449225 3.9393836230505572 1.9479714111000428 54 54 58
1.8418463509463117 3.9343879320366995 1.9413351216611474 52 53 55
1.8594285531666774 3.92851412374619 1.935726218924767 52 52 54
1.882100690248191 3.925497055885489 1.9269684642029223 49 49 51
1.8989974035047372 3.9193539068760215 1.9217450170767345 48 47 51
1.911942752956592 3.9110580486258852 1.9189442983852336 47 46 51
1.9509282336810987 3.91734254671544 1.9000456644039128 45 44 49
1.96959678251909 3.912376631904881 1.8936649121738585 45 44 49
1.999874227676354 3.9140104123645667 1.8800742306363467 44 43 48
2.0207853146031782 3.9104532245346535 1.8722559167520056 42 41 46
2.045482847475674 3.9091157994145433 1.8620634829631055 41 40 45
2.070043122968504 3.907785464988713 1.8519278084568376 41 40 45
2.1048397470347036 3.912411162669378 1.8353889255298996 35 34 38
2.135503268738293 3.914792007058187 1.8213819034649297 29 29 31
2.142402484046544 3.903541811468153 1.8221746418161906 25 25 27
2.1558056428212904 3.8960687266928327 1.8189013420936682 38 38 40
2.1560691569283277 3.8809606012512807 1.8238439285072578 41 40 44
2.1783737397761236 3.8787322764300827 1.8149805588092034 41 40 45
2.1944938147669464 3.8729404201189412 1.8099741333330979 41 39 44
1.9815218717932535 3.7318231200245524 1.9489517829365783 34 33 37
2.2978468920647552 3.903689893993529 1.7551576087765057 36 35 37
2.342221413069184 3.915048549286868 1.732239179718269 35 34 38
2.394011535508481 3.9310327342005773 1.7045780251364908 35 33 39
2.121912894682972 3.721294267530891 1.8919931060402098 39 37 42
2.164811891213498 3.731690834241997 1.8700323263926382 40 39 44
2.1904391284946425 3.7317140569054814 1.858984007065521 41 40 45
2.230337555437703 3.7405884935168214 1.8388253106009265 42 41 46
2.2404072207759476 3.731249588287997 1.837612542007319 41 40 45
2.2337797207599217 3.7115939203681894 1.847045755584721 41 40 45
2.2308972072982325 3.6941942043166476 1.8541105993761586 41 40 45
2.2151787813539836 3.6687341891489913 1.8694027952602386 42 41 46
2.198944384047426 3.642832583262983 1.8850650618504834 42 41 46
2.1963827337425283 3.625410729174953 1.8919990823691206 45 44 49
2.1854655044498914 3.6026599725448696 1.9043161749973088 47 46 51
2.1846042623478725 3.5861928394135987 1.9101981289283974 50 49 54
2.182041665110699 3.568599657101391 1.9171898944013863 52 51 56
2.1863527066784956 3.555350534127768 1.919766616247826 56 55 60
2.1858761277126755 3.539011526756828 1.9254399734986163 59 58 63
2.187610469641761 3.5240570479109024 1.929697488491592 60 59 64
2.1926019143447375 3.5111816582991953 1.9318560095443138 59 59 62
2.1753054582743356 3.483806818700373 1.9484688598570505 55 56 58
2.20672364318393 3.4880949422933565 1.933498425655035 49 49 51
2.1993349579286003 3.467080717683891 1.9437142247085468 39 39 41
2.19640913088492 3.4489245837892586 1.9510508726754963 34 34 36
2.1966963997959437 3.4328363021771264 1.9563112459909848 34 34 36
2.154453481582555 3.388500785074171 1.9893474471386785 36 36 38
2.1375645361910034 3.3607843642573783 2.00589905071225 37 37 39
2.037626603699188 3.2774077236704704 2.0768565861986383 38 38 40
2.087141438799529 3.2937852002014245 2.050044035374329 37 37 39
2.0541068097834496 3.2547484692081885 2.0773398845664865 37 37 39
2.058236413980303 3.240642391250618 2.0802815620512956 38 37 42
2.0206008900772203 3.1981409668267453 2.1107190370549147 39 38 43
2.0325465216013807 3.189215577613064 2.1085596898019077 40 39 44
1.9243948806785958 3.0980626618756055 2.185658219718124 40 39 44
1.8600019173532196 3.036366228593409 2.2340469833993315 39 38 43
1.7947285131993436 2.973667172924433 2.283150591820422 39 38 43
1.7833650474761358 2.9479305733944114 2.2966591763294315 40 39 44
1.8283392219252845 2.9612886907188063 2.2728132652918505 42 41 46
1.8527424647808215 2.9604802104972565 2.262570597848864 44 43 48
1.8800276624826098 2.961783865337098 2.2503794959043737 53 50 56
1.925607753557204 2.9760762954476667 2.225959869339576 61 58 64
1.9220250951555058 2.95582556165618 2.2342804712804094 77 75 81
1.8890073888693222 2.9146221458446053 2.2622941364764877 93 91 94
1.8404786865953624 2.8621397669500697 2.30076477830034 107 105 107
1.8086356914192052 2.821276182156063 2.328158634207211 99 98 98
1.7471414397413514 2.758898102081272 2.3755267162673905 84 84 84
1.6701226760206098 2.6849381961950476 2.4334589544191103 80 80 80
1.616996284798053 2.6277890489226414 2.475472129401741 86 86 85
1.5380289997941925 2.551519840668522 2.53501665107507 102 102 100
1.4598915836402324 2.4753617476339955 2.5941664684256356 161 161 159
1.4051558912871187 2.415846502853496 2.6376647936312474 203 203 201
1.3535286446326689 2.3582560715802137 2.6791797984857415 206 206 206
1.330382835993579 2.3213376934641197 2.70150648338322 206 206 206
1.23744835268762 2.2325427582356174 2.771260137722583 206 206 206
3.4392286188547345 0.6247247099869885 2.3607797272702875 210 210 210
3.5316755915363895 0.7318654935946196 2.28509644510498 210 210 210
3.616295210979508 0.8287386782159584 2.2162214613192575 210 210 210
3.684556330406356 0.9031201791155027 2.1619210386633125 211 209 210
3.688638387354787 0.8866359218100326 2.1656790857880672 211 209 210
-0.7067585444555393 6.27505150856258 2.273266760230176 186 186 188
-0.668079703609912 6.266297677239974 2.2594746469881803 186 186 188
-0.6230660342582535 6.258497918167458 2.242621837813154 186 186 188
-0.4065923814815797 6.260797777265441 2.1482074974529164 186 186 188
-0.36396613754039087 6.253203093707545 2.1323185745013102 186 186 188
-0.32781328688591915 6.2447973792429465 2.1195022541439514 186 186 188
-0.28339401266353725 6.237666170176319 2.1026820674447255 186 186 188
-0.24422568231135044 6.229887238679696 2.088350837549136 186 186 188
-0.19838297884771494 6.223185217875599 2.0707707822912655 186 186 188
-0.16218015129688257 6.21517346375012 2.0578005501808465 187 187 189
-0.11885038788062308 6.208318652895954 2.0413588482625125 188 188 190
-0.4235346574125518 6.148889136501565 2.1931155529050823 188 188 190
-0.35293665333779245 6.14587960716214 2.163586917579696 188 188 190
-0.1075734202071632 6.170079391573712 2.0493214952386074 189 189 191
-0.04438752881679253 6.16658637623068 2.0231615428566703 189 189 191
-0.09441056064638831 6.1454123612366764 2.051910758223846 190 190 192
-0.8241362500567317 5.957283101299291 2.430749290897604 195 195 197
-0.7679049978223551 5.952005388792255 2.4081970775006853 197 197 199
-0.7244161803495606 5.944728455759233 2.391828321661393 197 197 199
-0.6525077405472584 5.942411784574373 2.361500155494485 198 197 198
-0.5913581353922239 5.938447790301312 2.336379214382017 200 198 199
-0.5382903227919487 5.933250031004586 2.315168591328564 200 199 199
-0.5147772294644641 5.923012761402175 2.3084350099675284 201 200 201
-0.36514298230913766 5.935154697894283 2.239629027509105 201 201 203
-0.5417585220395278 5.889462865967276 2.331372692415303 201 201 203
-0.2292816573730987 5.9313571056691625 2.1821334574281614 202 202 204
-0.17175256186410714 5.927858929114574 2.158422251550994 202 202 204
-0.11946802162483805 5.923560016107891 2.137248621356921 203 203 205
-0.05800771072126998 5.921106049478343 2.1114862046238985 204 204 206
0.003270565911485779 5.918793998688316 2.085754876504726 204 204 206
0.05915994197926033 5.915641860472547 2.0626367790159983 204 204 206
0.07775403917035928 5.905555734676171 2.0579802996098664 205 205 207
0.16268659334049462 5.908230685517863 2.0203419718654554 205 205 207
0.22156558832986306 5.9061202934093915 1.9955808061121147 205 205 207
0.29392523103440604 5.906810381294143 1.9640477823356477 205 205 207
0.37110336733554994 5.90866393658463 1.9300396824995647 205 205 207
0.11668373699924683 5.844935403889681 2.061496559212295 205 205 207
0.13944848786345454 5.835808899157284 2.054713698015677 205 205 207
0.54502822173307 3.9221890805461728 2.521866145363643 205 205 205
0.6338210203566303 3.9458760186378274 2.4755020823199416 205 205 205
0.6861831548971871 3.9531056329642213 2.4504235807480894 205 205 205
0.6712567404455299 3.929329321289857 2.464864579630515 202 202 202
0.6625582017685634 3.908351269586132 2.475671865699858 183 183 183
0.6621628208690786 3.891184098596271 2.481607674369063 113 113 113
0.6867686927910269 3.8857367860957472 2.472792901019349 93 93 93
0.5890796642370552 3.822568615149384 2.5362631775822013 81 81 81
0.9031936009623501 3.954452796692295 2.356096951940746 74 76 75
0.9645204014987354 3.967114944878854 2.325316263329365 71 72 72
1.0242406512380278 3.9792457119991766 2.2954089744648116 71 70 71
1.078530490794403 3.9889936938277613 2.2686509138860473 82 81 82
1.1592210515011163 4.011722768421773 2.2261133647842555 85 87 86
1.1967565416406076 4.013804460945849 2.2091772479669047 63 64 66
1.238449311785427 4.018050335920031 2.1897160400809184 48 49 51
1.1526368762741273 3.9598962301202922 2.2463650126998136 38 37 42
1.1193029425984236 3.927180844417576 2.271770486547163 38 37 42
1.0874502474699441 3.895010460921383 2.2963521941354537 37 36 41
1.1222672952061754 3.8958217695079878 2.2810186173106475 35 35 39
1.1763836431907517 3.906400034506021 2.254056794636157 40 40 42
1.2098539890449649 3.9068251113988772 2.239435470781677 46 46 48
1.2315975712592404 3.90145337613354 2.2318334859838727 50 50 52
1.1073094096156424 3.822160971634059 2.3122245538075963 51 51 53
1.1964113203797915 3.8508606160793466 2.2640434970332137 50 50 52
1.2748334160589105 3.8744754680885123 2.2221897930986416 50 50 52
1.3658622634286424 3.9048919551366486 2.1725986635987686 49 48 51
1.3867178704091216 3.8994922695651177 2.1653901843695795 48 47 52
1.510417149943998 3.9474512050917463 2.095775704912957 48 47 52
1.5232876156519313 3.938256810314332 2.0932957052664434 48 47 52
1.5682540676329983 3.9458704352203737 2.071287471980109 47 46 51
1.5797648351613973 3.9360859231915173 2.069593812468165 45 44 49
1.6321470806315461 3.9478844454416935 2.042972361657019 43 42 47
1.6939170376588737 3.964869448519635 2.0105483481795323 39 38 43
1.7119231013632006 3.958813111921799 2.004793027573067 36 36 38
1.7268432242301093 3.9511563867191892 2.000910035527987 36 36 38
1.7495305382076163 3.947706590624187 1.9922544202701955 35 35 37
1.7867823064851527 3.952186257634975 1.9746357904021585 35 34 38
1.8061266904012019 3.9471047239733803 1.9679741990022661 32 31 36
1.8277286770880394 3.9433088098320996 1.9599043011973718 35 34 39
1.8470954971593863 3.9383589827974212 1.9531887769942498 44 44 46
1.8622710554589854 3.9311653721493247 1.9490397739233947 50 50 52
1.8839411468492555 3.9275906676643224 1.9408661327215082 53 53 55
1.9032286509568321 3.9227652363057954 1.9341431466194723 51 50 54
1.9275244179258268 3.920783487362851 1.92429877416418 50 49 54
1.951151566181638 3.9185102880931564 1.9148415020716327 49 48 53
1.968191644743925 3.912619933982791 1.9094483094400423 48 47 52
1.998002415985659 3.913974243312955 1.8960980038046562 47 46 51
2.0196091764034136 3.910794751205513 1.8878190450620864 46 45 50
2.056472509920072 3.9163582549925877 1.8700044892162277 45 44 49
2.07988005767277 3.914384713540385 1.860541586000959 44 43 48
2.0973841714380024 3.9091057682914467 1.85474234881519 42 41 46
2.1246972963177235 3.909526000443245 1.842786138779599 41 41 43
2.1584157951036014 3.9137498928772274 1.8267818181862392 41 41 43
2.1699293302266778 3.905208725186419 1.8246694436151423 44 44 46
2.1493312655262073 3.8779593811686413 1.8427301337038626 44 44 48
2.1670188914898523 3.872998258952478 1.8367447872249534 44 43 48
2.1853204178781347 3.86845066719787 1.8303550156008863 45 44 49
1.9686192801665676 3.725130394582549 1.9722227366416254 45 44 49
2.030124357289013 3.745736488379891 1.9386973342600444 43 42 46
2.034817074081073 3.732767222894872 1.9410224704818346 42 41 45
2.0840931108003016 3.746458065717352 1.9151092560336633 42 41 46
2.127446346536216 3.756801939376681 1.8928820431229167 42 41 46
2.1535607084030035 3.7569272843059354 1.8815434170696428 43 42 47
2.0657547448709104 3.6881273698253656 1.9426296355919699 43 42 47
2.1783612537629065 3.7407774024046994 1.8762383791319064 44 43 48
2.2088593957489104 3.7437988711846977 1.8620308951410736 44 43 48
2.2341138704743355 3.7437220900472665 1.851132112942549 44 43 48
2.24320154858194 3.7337778626373135 1.8505402647820648 44 43 48
2.242151408023443 3.7175718538766382 1.856436548529356 44 43 48
2.2293211796918606 3.6940057415078953 1.8699001950768221 45 44 49
2.2215028574681845 3.6734627913536437 1.880180609553246 46 45 50
2.2040556346312474 3.6468110444286927 1.8966776359027162 47 46 51
2.2050503390555427 3.63163057124487 1.9013449846602593 50 49 54
2.152013262105736 3.582294116919546 1.9408550249895666 51 50 55
2.1621400976303784 3.5726990642514926 1.9396964050669998 53 52 57
2.172807656252487 3.563462864792987 1.9381833757489255 56 55 60
2.1829034635366087 3.5538785313087526 1.937034578477681 58 57 62
2.1989568322109507 3.5481333649150324 1.9320194618503852 56 55 60
2.199916210334721 3.5327042514972513 1.9367855859934489 51 50 55
2.1911821390143578 3.510967626205473 1.9478629734873187 48 49 52
2.2119767903835585 3.508336506112072 1.939751171819549 40 41 43
2.2045840048464656 3.4873834129491814 1.9499852348466862 30 30 32
2.196702895001491 3.466032316856646 1.9605641871974568 28 28 30
2.218845813571555 3.4643512604767865 1.9515501193608973 30 30 32
2.2211241120259926 3.449628310781465 1.9555085743579845 32 32 34
2.140056297030007 3.3796052916958192 2.0140907299478483 33 33 35
2.1243899347983515 3.3526564867282764 2.029917145454264 33 33 35
2.0239396061494768 3.2689024744383044 2.1014946758631834 34 34 36
2.063307700890885 3.244686744390447 2.092596546321005 35 34 39
2.0348712965896008 3.2084419227556054 2.1170686424668794 37 36 41
2.029328149789917 3.1876157282791846 2.126459977014727 38 37 42
2.0384736352338604 3.176776145906408 2.126143784823044 39 38 43
1.880503341201626 3.0510516570019144 2.236697048684717 40 39 44
1.8616132611085008 3.020419706434589 2.25515478678749 40 39 44
1.8899120705399985 3.0223422156683353 2.2422677218630174 41 40 45
1.9355299709887133 3.036426475642772 2.217804831427514 44 44 46
1.9458633164751062 3.0260728990959453 2.2168115935925075 46 46 48
1.968637070338795 3.0244571260442443 2.2075027171142794 55 53 57
1.9539669502679562 2.99656276749284 2.2232156978288993 67 65 68
1.9370692517579466 2.9669691562510723 2.240462895999869 85 83 87
1.8994995211511396 2.922569277096075 2.2716243677935886 101 99 102
1.8519015089762298 2.8707719136681593 2.30960795962576 98 96 99
1.810005229216873 2.8227416802119665 2.3438600886740124 80 80 82
1.7490311170330386 2.7607341498247546 2.3910585030701323 74 74 76
1.7028191510484303 2.7089789557287878 2.428428359317888 78 78 80
1.6467201614303209 2.649763070068721 2.4725804554837945 87 87 87
1.5830353776869854 2.5846732346218646 2.5219864955966815 96 96 94
1.5047946767787397 2.50856052889601 2.5813906304908074 138 138 136
1.4511378214004003 2.4499540030338007 2.6242816852917774 197 197 195
1.4065479695216876 2.3976575789045533 2.661131594671104 206 206 206
1.3645162080992703 2.3469452198993626 2.6963429941511854 206 206 206
1.2790899576210677 2.263801989555745 2.7612163159004517 206 206 206
3.7625223060990356 -0.3913785076005082 2.578550290987156 198 196 197
1.1786756129800704 6.560514188445034 1.3754604431937856 186 186 188
-0.8082089971353106 6.292794125365193 2.3286669251789935 186 186 188
-0.7663172905243905 6.284218737155133 2.313360767160474 186 186 188
-0.716266872400309 6.27682634148821 2.2941122849706925 186 186 188
-0.6365299370010542 6.273536683788199 2.2605871235785506 187 187 189
-0.5914889050716317 6.265770485841491 2.243640409744205 186 186 188
-0.5457926604012382 6.258208329358313 2.2263403548282845 186 186 188
-0.49107991637287673 6.252011732809429 2.2046638820987217 186 186 188
-0.4234000958301902 6.247776536524158 2.176694300515122 187 187 189
-0.37992475179568874 6.240299181662651 2.16033031632659 187 187 189
-0.3318950508771368 6.233584770956561 2.141731085780175 187 187 189
-0.28418263454289394 6.226949786480505 2.1232429049968085 187 187 189
-0.23690788668263285 6.220375466218817 2.1049243842553507 188 188 190
-0.1856332166612482 6.214516441731218 2.0846274897231227 189 189 190
-0.14094763454928216 6.207809094602447 2.067478391069946 190 190 191
-0.08934402303999733 6.202263001732976 2.046933180859511 190 190 191
-0.042435133672517056 6.1961387080280925 2.0286219361836038 191 191 192
0.004039490462288686 6.190071362380754 2.010480125495975 192 192 193
0.04812457980079232 6.183754581856739 1.9934602505766326 194 194 195
0.09599431359876998 6.178149161166209 1.9745568335379138 195 195 196
0.14176453562608415 6.172337939119208 1.9566346792252882 195 195 197
0.05239215348721671 6.1449450139622765 2.0046833023455006 196 196 198
-0.8509016340301143 5.955840303625805 2.4607450809990725 199 199 201
-0.7662149336794151 5.955249175422827 2.424160743928066 200 200 202
-0.6933501578366126 5.952909865289346 2.393300278305674 200 200 202
-0.6243367741214036 5.950122692919129 2.3642635625044264 201 201 203
-0.25903521238708005 5.998450353700665 2.1893117608321564 202 201 204
-0.19169563582385352 5.996245395013002 2.160805886514171 203 202 204
-0.13354269691516119 5.992624349951474 2.136767353868074 204 203 206
-0.07334452139936354 5.989527907395029 2.1116637145686052 204 204 206
-0.19109680486046687 5.927074628990327 2.183852484197339 205 205 207
-0.3114018737969737 5.876935536238869 2.253000856272071 205 205 207
-0.26020835668654785 5.872301290885597 2.232326527949432 205 205 207
-0.22728406770067733 5.86437058567848 2.220698129182447 205 204 208
-0.1885331219152786 5.857627980357474 2.206138609080199 205 204 208
-0.1491874367901116 5.851100681047642 2.19124821888259 204 204 208
-0.11056347464114635 5.844537640243227 2.176683350642639 205 205 207
-0.04703796408630967 5.842927659498083 2.1496336345069973 205 205 207
0.0035279887685450984 5.838955986626846 2.129008637523619 205 205 207
0.050698589765777236 5.834453552472379 2.1100372424643448 205 205 207
0.08974819456993655 5.828459425678212 2.0950958047491017 205 204 208
0.5680976966789334 3.9343957138879 2.5255196348810123 206 206 206
0.6507109652085398 3.9552697777486436 2.482603313957052 206 206 205
0.7046853632219188 3.9632612423092715 2.4564669534432646 205 205 204
0.68982872250412 3.939553415121475 2.4709081267681516 201 201 200
0.6783848295364261 3.917331907456592 2.4833661723443208 166 166 166
0.6789525044990639 3.9006425587681846 2.4887429855083556 101 102 103
